ply
format ascii 1.0
element vertex 847
property float x
property float y
property float z
property float nx
property float ny
property float nz
property uchar diffuse_red
property uchar diffuse_green
property uchar diffuse_blue
end_header
-85.1007 95.5885 -16.0708 -0.501 -0.811 0.302 66 60 26
-84.9677 95.5255 -16.0192 -0.501 -0.811 0.302 61 54 24
-64.0199 100.9815 -8.9690 -0.540 -0.646 0.540 145 174 186
-63.3114 100.2002 -8.6637 -0.447 -0.732 0.513 136 171 180
-57.3939 99.2903 -6.5024 -0.492 -0.227 0.841 120 155 165
-89.9563 99.0825 -18.1872 -0.480 -0.872 -0.098 58 53 26
-85.7270 95.8872 -16.4619 -0.528 -0.766 0.367 72 68 33
-85.5954 95.7673 -16.4068 -0.512 -0.810 0.285 66 62 27
-85.0600 95.5597 -16.2024 -0.359 -0.863 0.356 62 58 23
-66.4422 99.1532 -9.8607 -0.541 -0.110 0.834 107 139 127
-65.7577 99.4533 -9.6395 -0.469 -0.127 0.874 112 143 133
-65.4574 100.0137 -9.5729 -0.684 -0.574 0.451 113 143 135
-64.1496 100.8600 -9.1696 -0.526 -0.504 0.685 121 153 145
-63.9941 100.8611 -9.1145 -0.469 -0.622 0.627 122 154 146
-59.6755 99.2581 -7.4706 -0.316 -0.653 -0.688 130 172 186
-98.1681 109.2599 -21.9877 -0.135 -0.746 0.652 108 121 82
-97.9775 108.8410 -21.8898 0.427 -0.772 0.471 118 124 83
-89.9158 99.0815 -18.3258 -0.489 -0.868 -0.090 58 53 25
-88.5240 97.9715 -17.7524 -0.513 -0.845 0.153 68 64 30
-86.8916 96.6408 -17.0776 -0.246 -0.966 0.077 83 76 47
-85.6896 95.7720 -16.5889 -0.560 -0.761 0.329 74 70 36
-85.5568 95.6853 -16.5356 -0.447 -0.837 0.317 82 77 45
-84.5019 95.0057 -16.1126 -0.269 -0.809 0.523 53 45 30
-83.8251 94.9803 -15.8712 0.135 -0.843 0.520 121 120 72
-72.5535 100.6204 -12.2907 -0.482 0.020 0.876 117 138 118
-64.8573 100.3180 -9.5439 -0.273 -0.293 0.916 120 143 130
-64.7068 100.3050 -9.4896 -0.289 -0.294 0.911 116 143 123
-64.4805 100.5689 -9.4287 -0.312 -0.246 0.918 112 140 119
-63.6971 100.6020 -9.1538 -0.412 -0.608 0.678 114 143 118
-62.4082 100.7565 -8.7087 -0.563 -0.816 -0.132 111 143 127
-99.2385 104.3103 -22.1665 -0.894 -0.448 -0.020 121 160 164
-98.7908 104.1409 -21.9955 0.690 -0.677 0.257 116 153 153
-98.6578 104.2364 -21.9556 0.683 -0.675 0.279 112 149 145
-98.1240 109.2151 -22.1375 -0.212 -0.729 0.651 110 121 82
-97.7884 108.8599 -21.9923 -0.106 -0.666 0.738 117 119 78
-97.6442 108.9365 -21.9470 0.071 -0.806 0.588 104 109 70
-90.2984 99.4104 -18.6388 -0.547 -0.829 0.115 53 47 26
-90.1583 99.3857 -18.5875 -0.657 -0.747 0.098 54 47 29
-86.3069 96.4666 -17.0076 -0.214 -0.893 -0.396 59 54 22
-86.1766 96.2573 -16.9459 -0.700 -0.707 -0.102 60 55 24
-85.9111 96.0259 -16.8347 -0.694 -0.694 -0.191 60 55 23
-71.9730 100.2227 -12.2163 -0.428 -0.014 0.904 112 131 100
-71.8534 100.0630 -12.1621 -0.428 -0.014 0.904 113 132 101
-71.6104 100.5423 -12.1118 -0.356 -0.008 0.934 113 132 102
-70.4879 100.1199 -11.6833 -0.425 -0.060 0.903 108 126 99
-70.3606 100.0069 -11.6298 -0.440 -0.056 0.896 109 127 100
-64.3951 100.1043 -9.5267 -0.349 -0.478 0.806 114 139 111
-62.8151 100.7586 -9.0164 -0.575 -0.494 0.652 116 140 116
-61.0295 99.4802 -8.2895 -0.163 -0.765 0.622 119 145 125
-53.0435 97.9122 -5.3475 -0.432 -0.898 -0.086 123 157 168
-99.8655 105.0925 -22.6077 0.604 -0.734 0.311 124 165 167
-90.8250 99.7956 -19.0082 -0.520 -0.848 0.104 122 122 68
-90.6818 99.6479 -18.9463 -0.507 -0.852 0.129 95 94 45
-88.4416 98.0787 -18.0348 -0.121 -0.978 0.172 82 77 47
-86.1305 96.3929 -17.0893 -0.203 -0.903 -0.379 60 55 24
-86.0009 96.1722 -17.0267 -0.694 -0.708 0.131 58 53 21
-78.9312 98.6806 -14.7187 0.486 -0.598 0.638 118 118 66
-67.6850 98.9375 -10.7628 -0.666 -0.473 0.577 100 120 93
-64.1607 99.6311 -9.5698 -0.447 -0.306 0.841 102 123 99
-63.4460 100.5209 -9.3850 -0.521 -0.770 0.367 104 123 101
-63.1897 100.3332 -9.2801 -0.434 -0.804 0.406 101 121 90
-60.6893 99.8706 -8.3610 0.022 -0.933 -0.359 112 135 107
-57.7428 97.6219 -7.1480 -0.479 -0.235 0.846 121 148 142
-57.6118 97.5594 -7.0969 -0.492 -0.227 0.841 119 149 142
-57.3155 97.9507 -7.0220 -0.462 -0.175 0.869 118 148 142
-56.7302 98.7011 -6.8723 -0.552 -0.508 0.661 115 144 137
-51.7169 97.9245 -5.0409 -0.082 -0.662 0.745 122 161 165
-51.5679 97.9051 -4.9867 -0.164 -0.649 0.743 120 159 161
-51.4057 97.9163 -4.9302 -0.184 -0.649 0.738 117 155 158
-51.3870 97.5973 -4.8993 -0.104 -0.955 0.279 117 154 157
-51.0281 97.6997 -4.7802 -0.175 -0.984 -0.007 118 155 158
-90.7838 99.7535 -19.1448 -0.520 -0.848 0.104 122 122 69
-90.6406 99.6028 -19.0825 -0.507 -0.852 0.129 96 95 46
-90.4992 99.5271 -19.0266 -0.507 -0.852 0.129 54 51 12
-72.3497 100.0489 -12.6565 -0.358 -0.870 -0.339 83 94 80
-67.5400 99.9317 -10.9485 -0.591 -0.405 0.698 87 107 90
-63.0877 100.4791 -9.4185 -0.595 -0.211 0.775 91 108 81
-62.6143 100.5019 -9.2530 -0.748 -0.346 0.567 99 117 85
-60.5841 100.0082 -8.4974 -0.012 -0.936 -0.353 103 125 94
-57.2807 97.4535 -7.1314 -0.546 -0.220 0.808 116 143 129
-56.6025 98.4532 -6.9698 -0.502 -0.538 0.677 123 150 136
-51.0822 97.7815 -4.9675 0.397 -0.915 0.075 126 167 173
-50.9062 97.8235 -4.9086 0.235 -0.972 -0.029 128 168 174
-90.8847 99.7999 -19.3387 -0.597 -0.795 0.110 119 122 65
-90.6004 99.6142 -19.2236 -0.537 -0.835 0.120 96 95 48
-88.4994 97.7779 -18.3356 -0.576 -0.767 0.282 61 55 30
-88.3597 98.0191 -18.3056 -0.106 -0.977 0.184 59 53 28
-87.6796 97.0153 -17.9855 -0.653 -0.707 0.273 55 50 21
-87.4025 97.1430 -17.8979 -0.214 -0.893 -0.396 54 49 19
-71.8395 96.3327 -12.3403 -0.442 -0.007 0.897 77 99 88
-71.7095 96.2616 -12.2887 -0.440 0.002 0.898 77 99 88
-70.8283 98.4208 -12.1499 -0.965 -0.154 0.213 76 95 85
-69.4048 102.2939 -11.9563 0.401 -0.734 0.548 50 69 59
-69.2051 102.5001 -11.9022 0.516 -0.600 0.611 59 78 69
-65.0947 98.5897 -10.1397 -0.586 -0.098 0.804 32 57 45
-65.0108 98.3433 -10.0904 -0.595 -0.096 0.798 39 64 55
-60.6715 102.5482 -8.8941 -0.729 -0.480 0.488 84 103 87
-60.3783 100.9516 -8.6633 -0.534 -0.390 0.750 89 114 87
-58.5075 99.0398 -7.8506 -0.468 -0.871 0.147 106 122 94
-57.4757 97.5898 -7.3708 -0.516 -0.442 0.734 104 131 114
-55.6334 97.5643 -6.7186 -0.133 -0.428 0.894 120 144 119
-55.0262 97.5323 -6.5017 -0.381 -0.290 0.878 116 147 127
-51.0466 97.7088 -5.1111 0.426 -0.779 0.460 134 177 184
-50.8286 97.8463 -5.0452 0.235 -0.972 -0.029 134 178 183
-100.7138 108.2170 -23.6459 -0.884 -0.461 -0.076 112 149 143
-99.4958 105.3570 -22.9833 0.526 -0.833 0.170 111 146 142
-90.5589 99.5572 -19.3589 -0.590 -0.796 0.136 98 95 50
-88.4572 98.0319 -18.4934 -0.006 -0.997 0.071 58 52 24
-87.6312 97.5187 -18.1602 -0.338 -0.811 -0.477 61 56 25
-66.1428 104.5687 -11.1563 -0.807 -0.580 0.110 55 87 74
-65.1146 97.7575 -10.2386 -0.595 -0.096 0.798 48 81 69
-60.6199 101.9992 -8.9991 -0.619 -0.776 -0.120 55 79 72
-60.5267 101.7885 -8.9491 -0.586 -0.792 -0.170 55 79 72
-58.0670 105.9116 -8.4176 0.619 -0.698 -0.359 80 112 84
-59.0017 100.1570 -8.2783 -0.938 -0.333 0.091 86 103 81
-58.8721 99.6133 -8.1883 -0.915 -0.392 0.092 78 98 75
-58.6724 99.2835 -8.0910 -0.868 -0.359 0.344 77 97 74
-57.4558 100.5186 -7.7626 -0.668 -0.601 -0.439 92 113 83
-57.3512 100.3662 -7.7133 -0.668 -0.601 -0.439 95 116 86
-55.1988 101.8809 -7.0776 -0.645 -0.601 -0.472 99 125 107
-54.7392 97.3112 -6.5431 -0.495 -0.340 0.799 112 137 109
-54.6111 97.2437 -6.4924 -0.495 -0.340 0.799 115 140 111
-54.4949 97.1473 -6.4436 -0.502 -0.342 0.795 117 143 113
-50.7638 97.8395 -5.1842 0.214 -0.977 0.014 128 169 170
-50.1141 97.8785 -4.9582 -0.685 -0.274 0.675 133 174 177
-50.0222 97.7308 -4.9138 -0.677 -0.281 0.680 134 173 179
-49.9626 97.5129 -4.8750 -0.785 -0.437 0.440 134 171 182
-49.8775 97.3524 -4.8319 -0.741 -0.459 0.491 134 171 184
-49.6837 97.4319 -4.7700 -0.566 -0.319 0.760 134 171 184
-49.4386 97.2779 -4.6710 -0.308 -0.608 0.732 131 168 179
-49.3172 97.1990 -4.6218 -0.306 -0.635 0.709 133 168 181
-46.8024 96.8387 -3.7055 0.506 -0.853 -0.126 111 146 153
-90.0924 99.1796 -19.3177 -0.532 -0.820 0.212 58 53 23
-88.6938 97.9173 -18.7197 -0.599 -0.801 0.010 59 56 25
-88.5560 97.7316 -18.6557 -0.668 -0.731 0.136 55 52 19
-83.9683 95.1258 -16.8221 -0.280 -0.928 -0.247 128 125 76
-68.9076 107.1114 -12.5125 -0.981 -0.140 0.133 52 84 69
-70.7168 97.0423 -12.3118 -0.975 -0.192 0.108 48 79 64
-70.6690 96.5816 -12.2566 -0.919 -0.394 0.021 32 64 49
-60.5566 104.0862 -9.3177 0.051 -0.867 0.495 64 92 84
-60.6074 103.3913 -9.2778 -0.891 -0.259 0.373 62 89 81
-54.6293 97.0367 -6.6421 -0.623 -0.408 0.667 110 133 106
-54.5239 96.9141 -6.5947 -0.641 -0.411 0.648 107 130 103
-54.2343 96.8656 -6.4887 -0.555 -0.515 0.654 101 124 98
-50.6686 97.9015 -5.3183 0.215 -0.976 0.015 124 161 155
-49.6624 96.9844 -4.8874 -0.523 -0.303 0.797 130 168 171
-49.1698 97.0286 -4.7175 -0.662 -0.618 0.424 130 169 172
-97.4978 108.2969 -22.8546 0.263 -0.695 0.669 105 121 76
-90.4761 99.4492 -19.6299 -0.566 -0.787 0.245 115 110 67
-89.0712 99.2628 -19.1194 -0.719 -0.680 -0.144 59 56 20
-88.2247 99.5581 -18.8464 -0.939 -0.305 0.158 73 70 30
-88.0865 99.1933 -18.7668 -0.934 -0.322 0.154 77 72 28
-87.9494 98.8335 -18.6879 -0.934 -0.322 0.154 81 76 32
-87.1481 96.7528 -18.2289 -0.949 -0.301 0.098 113 106 60
-85.7582 97.0792 -17.7672 -0.706 -0.137 0.695 120 120 67
-85.6285 96.8440 -17.7015 -0.719 -0.138 0.682 119 119 65
-85.5023 96.5350 -17.6308 -0.721 -0.142 0.679 123 123 68
-85.3737 96.3096 -17.5664 -0.835 -0.246 0.492 124 124 70
-85.2483 96.0218 -17.4978 -0.835 -0.246 0.492 124 125 70
-60.6935 103.4321 -9.4814 -0.885 -0.261 0.385 49 80 64
-60.6097 103.1791 -9.4304 -0.891 -0.259 0.373 48 79 63
-58.9369 99.5146 -8.5298 -0.797 -0.098 0.597 57 92 68
-55.0799 96.9067 -6.9500 -0.413 -0.289 0.864 76 98 77
-54.4816 96.8586 -6.7352 -0.527 -0.453 0.719 86 109 88
-53.1841 97.7508 -6.3542 -0.522 -0.831 0.194 97 115 92
-53.0596 97.6734 -6.3037 -0.490 -0.834 0.256 113 129 103
-52.1070 96.2493 -5.8472 -0.709 -0.237 0.664 112 130 109
-50.5321 97.6996 -5.4160 -0.186 -0.817 0.546 118 150 137
-48.6131 96.7251 -4.6574 -0.251 -0.695 0.674 121 167 171
-45.5884 96.7605 -3.5953 -0.773 -0.470 0.426 111 148 149
-44.7324 96.2608 -3.2514 0.281 -0.870 0.404 113 133 120
-97.4577 108.2959 -23.0089 0.377 -0.806 0.456 105 121 76
-89.8701 99.0820 -19.5397 -0.451 -0.887 0.098 52 48 10
-89.0297 99.1937 -19.2537 -0.715 -0.669 -0.200 76 74 35
-87.9164 98.0387 -18.7617 -0.877 -0.475 0.074 118 115 62
-87.7802 97.8007 -18.6931 -0.859 -0.494 0.130 117 115 60
-86.7232 95.5988 -18.1302 -0.939 -0.343 -0.013 125 122 69
-86.2405 98.0549 -18.1735 -0.688 -0.264 0.676 125 122 69
-63.0892 102.7195 -10.4325 -0.389 -0.921 -0.015 45 81 67
-55.8954 96.6257 -7.3726 -0.621 -0.119 0.775 39 73 57
-55.0949 96.7067 -7.0979 -0.470 -0.755 0.457 46 69 58
-54.4934 96.6690 -6.8830 -0.393 -0.601 -0.696 35 59 44
-52.6709 97.3227 -6.2985 -0.699 -0.491 0.520 99 122 92
-52.3891 96.8836 -6.1612 -0.831 -0.325 0.451 101 124 103
-52.3437 96.6262 -6.1229 -0.830 -0.288 0.478 105 128 107
-52.2839 96.4042 -6.0826 -0.854 -0.249 0.457 102 125 103
-50.8600 97.5187 -5.6783 0.722 -0.692 0.002 103 131 112
-50.1748 97.2884 -5.4173 -0.889 -0.360 0.281 110 137 121
-48.7298 96.6652 -4.8548 -0.549 -0.717 0.430 116 153 149
-48.3433 96.8160 -4.7319 -0.080 -0.934 0.349 115 153 149
-47.5117 96.9018 -4.4467 -0.388 -0.588 0.710 132 166 166
-45.7366 96.6415 -3.7996 -0.639 -0.768 0.034 118 158 161
-45.5096 96.4629 -3.7042 0.036 -0.999 -0.001 110 150 150
-44.7683 96.3595 -3.4344 -0.504 -0.860 0.080 113 138 126
-44.6873 96.2097 -3.3929 0.281 -0.870 0.404 112 133 119
-86.8915 98.3255 -18.5800 -0.274 -0.929 -0.249 128 125 74
-86.4664 98.4736 -18.4436 -0.802 -0.240 0.548 130 127 76
-82.9234 94.5410 -16.8498 -0.892 -0.452 0.019 121 119 68
-63.0761 103.1155 -10.6312 -0.213 -0.971 -0.107 41 79 64
-53.2467 97.6591 -6.6924 -0.552 0.008 0.834 27 51 33
-47.4489 97.5456 -4.6440 -0.104 -0.855 0.509 122 146 131
-46.7366 97.0447 -4.3492 -0.788 -0.563 0.250 119 151 150
-46.3048 96.3171 -4.1330 -0.102 -0.924 -0.369 129 167 165
-45.7923 96.7049 -3.9871 -0.812 -0.490 0.318 129 167 166
-45.6677 96.6369 -3.9373 -0.704 -0.607 0.369 125 163 161
-45.5361 96.5828 -3.8862 -0.535 -0.623 0.571 113 155 153
-45.4819 96.3776 -3.8490 -0.165 -0.916 -0.366 118 159 158
-44.7220 96.0057 -3.5489 -0.216 -0.903 -0.371 113 131 114
-89.7877 99.0000 -19.8124 -0.396 -0.916 0.062 89 86 41
-89.3670 98.8897 -19.6547 -0.539 -0.835 -0.111 120 117 72
-88.8055 100.0743 -19.5644 -0.867 -0.477 -0.143 120 119 72
-88.5236 99.4560 -19.4095 -0.900 -0.401 -0.170 123 122 77
-87.8354 97.8561 -19.0233 -0.870 -0.476 0.127 133 131 70
-87.6996 97.6136 -18.9537 -0.868 -0.478 0.138 134 132 71
-85.4109 95.6599 -17.9732 -0.798 -0.140 0.586 119 119 65
-82.8792 94.5526 -16.9839 -0.439 -0.852 0.285 118 117 63
-70.4272 76.4337 -10.9732 -0.946 -0.237 0.222 45 83 68
-56.2626 96.5378 -7.8128 0.745 -0.659 -0.103 54 88 71
-50.0117 96.9997 -5.6586 -0.883 -0.467 0.053 87 120 100
-49.8810 96.9413 -5.6074 -0.684 -0.694 0.223 88 119 101
-49.7811 96.8156 -5.5610 -0.653 -0.677 0.340 88 118 100
-49.4618 96.8258 -5.4497 -0.817 -0.223 0.531 87 119 101
-47.8640 97.5312 -4.9521 -0.878 -0.477 -0.046 111 128 109
-47.8367 97.2548 -4.9176 -0.742 -0.623 0.247 112 128 109
-45.9364 96.5936 -4.1903 -0.651 -0.357 0.670 105 139 134
-45.8119 96.5255 -4.1404 -0.645 -0.347 0.681 103 138 131
-96.7871 108.9744 -23.3424 0.427 -0.874 -0.230 91 100 70
-89.0453 98.7104 -19.6798 -0.529 -0.824 -0.203 124 124 75
-88.7637 99.9460 -19.6948 -0.871 -0.486 -0.073 124 124 74
-88.6225 99.6615 -19.6190 -0.871 -0.487 -0.066 126 126 76
-87.7952 97.7482 -19.1524 -0.870 -0.476 0.127 129 127 69
-87.5249 97.2534 -19.0120 -0.887 -0.455 0.082 126 124 67
-85.8974 96.1786 -18.3417 -0.236 -0.970 -0.067 117 115 64
-85.7613 96.1420 -18.2906 -0.236 -0.970 -0.067 115 115 61
-85.6261 96.0829 -18.2377 -0.195 -0.979 -0.062 115 115 61
-84.7052 95.2223 -17.8352 -0.575 -0.692 0.437 107 103 55
-83.7183 95.7052 -17.5332 -0.811 -0.580 0.071 106 102 54
-82.9705 94.5773 -17.1669 -0.404 -0.867 0.292 112 111 57
-82.8386 94.5155 -17.1149 -0.421 -0.859 0.290 116 115 61
-71.2518 86.1601 -12.2784 -0.971 -0.238 0.032 50 91 73
-47.2226 96.4146 -4.7878 -0.820 -0.472 0.323 104 128 113
-46.3744 96.5288 -4.5006 -0.157 -0.762 0.628 116 141 126
-45.8995 96.5260 -4.3336 -0.737 -0.516 0.436 104 137 124
-89.5651 98.8888 -20.0334 -0.396 -0.916 0.062 80 79 26
-89.1441 98.7066 -19.8687 -0.410 -0.910 0.063 128 128 75
-89.0047 99.0875 -19.8555 -0.640 -0.758 -0.125 128 128 75
-87.7484 98.1516 -19.3270 -0.875 -0.417 -0.247 122 119 68
-87.6189 97.4517 -19.2159 -0.888 -0.440 0.135 122 119 68
-85.8568 96.1377 -18.4746 -0.222 -0.960 -0.173 113 112 58
-83.1760 94.9275 -17.4207 -0.808 -0.587 0.049 107 105 54
-83.0507 94.7611 -17.3612 -0.456 -0.840 0.295 109 107 56
-82.7992 94.4600 -17.2447 -0.407 -0.866 0.290 116 115 61
-54.9610 98.3682 -7.8474 0.879 -0.476 0.038 44 78 61
-48.6458 97.6044 -5.5607 -0.451 -0.815 0.364 75 121 108
-46.4239 96.6059 -4.6877 -0.407 -0.890 -0.206 100 126 108
-87.9788 98.8668 -19.6302 -0.872 -0.416 -0.259 114 112 64
-86.3252 97.4566 -18.9159 0.302 -0.581 0.755 110 107 56
-86.1819 97.5809 -18.8775 0.302 -0.581 0.755 110 107 56
-85.7757 97.2164 -18.7003 -0.856 -0.216 0.469 109 108 56
-83.0120 94.6946 -17.4906 -0.456 -0.840 0.295 108 106 57
-82.8912 94.4745 -17.4272 -0.390 -0.872 0.295 112 110 59
-82.7592 94.4143 -17.3752 -0.384 -0.875 0.295 116 114 63
-82.6274 94.3530 -17.3231 -0.407 -0.866 0.290 121 119 67
-77.5210 98.7350 -15.9525 0.301 -0.935 0.187 116 120 69
-55.5448 97.5038 -8.1329 0.883 -0.466 -0.054 72 109 92
-47.0725 96.1138 -5.0307 0.273 -0.668 -0.692 95 125 112
-46.2579 96.4786 -4.7801 -0.536 -0.766 0.355 100 128 120
-89.0616 98.5854 -20.1374 -0.498 -0.865 -0.063 111 111 60
-88.2133 99.5631 -19.9356 -0.869 -0.416 -0.267 109 109 56
-88.0744 99.2319 -19.8547 -0.873 -0.413 -0.261 110 108 59
-82.9855 94.4564 -17.6075 -0.388 -0.872 0.299 108 106 57
-82.7196 94.3620 -17.5052 -0.362 -0.887 0.288 115 113 64
-82.5874 94.3072 -17.4536 -0.403 -0.886 0.228 120 118 67
-77.4735 98.7221 -16.0927 0.301 -0.935 0.187 116 120 69
-60.7480 86.0082 -8.9974 0.229 -0.764 -0.603 75 110 91
-60.6811 85.8303 -8.9566 0.465 -0.739 -0.488 90 124 105
-55.2761 98.0304 -8.2521 0.886 -0.460 -0.056 70 110 94
-53.1117 99.1029 -7.5986 -0.552 -0.441 0.707 32 78 63
-52.8057 97.1730 -7.3035 -0.419 -0.906 -0.050 23 56 47
-52.6091 97.2678 -7.2439 0.630 -0.709 -0.316 24 57 47
-46.3463 96.4778 -4.9738 -0.348 -0.938 0.006 99 132 129
-46.2128 96.4271 -4.9221 -0.644 -0.744 0.177 100 132 132
-89.7238 99.0108 -20.5661 -0.488 -0.816 0.311 111 110 62
-89.3011 98.7433 -20.3917 -0.391 -0.918 0.069 105 104 56
-89.0204 98.6018 -20.2794 -0.470 -0.882 -0.043 103 105 56
-87.8855 99.6885 -19.9901 -0.576 -0.596 0.559 106 103 60
-82.8123 94.3655 -17.6870 -0.309 -0.886 0.345 109 107 59
-82.6794 94.3182 -17.6358 -0.261 -0.901 0.346 113 111 62
-77.4261 98.7093 -16.2331 0.301 -0.935 0.187 116 122 70
-60.5645 85.9920 -9.0718 0.465 -0.740 -0.486 102 137 115
-52.8738 99.1307 -7.6838 -0.378 -0.737 -0.560 36 85 70
-52.7330 97.1882 -7.4419 -0.376 -0.927 0.015 16 51 45
-32.5249 93.2073 0.0239 -0.263 -0.628 0.732 99 107 58
-89.6818 98.8984 -20.6956 -0.440 -0.798 0.413 104 103 55
-83.0277 94.5645 -17.9316 -0.746 -0.620 0.242 103 101 53
-82.6403 94.2606 -17.7655 -0.265 -0.871 0.414 113 111 62
-77.3832 98.6608 -16.3716 0.269 -0.945 0.188 116 122 71
-69.8658 80.4133 -11.9012 -0.981 -0.185 -0.054 57 98 84
-54.1067 100.2866 -8.3975 0.872 -0.479 -0.101 71 115 98
-50.7266 103.7792 -7.5683 -0.201 -0.722 -0.662 44 90 80
-45.5273 95.9340 -4.9585 -0.547 -0.761 0.349 52 86 86
-85.9467 95.4129 -19.1881 -0.524 -0.656 -0.543 108 101 57
-84.6272 94.4318 -18.6264 -0.299 -0.940 -0.166 103 100 55
-83.1187 94.5981 -18.1165 -0.736 -0.629 0.249 100 98 50
-82.6023 94.1879 -17.8939 -0.265 -0.871 0.414 113 111 62
-61.1136 95.3102 -10.5021 -0.336 -0.813 -0.476 72 101 83
-61.0288 94.6705 -10.4067 -0.143 -0.660 -0.738 53 82 64
-55.5820 99.1880 -8.9679 0.089 -0.985 0.151 71 104 83
-50.3491 103.7060 -7.6039 -0.506 -0.556 -0.659 53 93 85
-51.6786 89.8053 -6.6404 0.780 -0.626 -0.025 73 120 113
-87.3939 96.0225 -19.9075 -0.501 -0.784 -0.367 105 104 58
-82.9527 94.3985 -18.1875 -0.645 -0.726 0.238 100 98 50
-82.5615 94.1518 -18.0251 -0.283 -0.878 0.386 112 110 61
-55.4623 106.0518 -9.8092 -0.904 -0.367 -0.221 43 65 53
-56.3681 97.3566 -9.2166 0.309 -0.324 0.894 69 102 81
-52.5863 102.9711 -8.4833 0.375 -0.289 0.881 66 110 93
-90.6923 99.4467 -21.5733 -0.580 -0.793 0.188 122 121 65
-82.9045 94.4650 -18.3274 -0.493 -0.832 0.252 96 94 46
-82.5231 94.0838 -18.1539 -0.301 -0.913 0.276 110 108 59
-82.3914 94.0247 -18.1016 0.196 -0.821 0.536 116 114 64
-59.8585 96.8934 -10.5472 0.197 -0.890 -0.412 46 75 57
-55.5689 99.2966 -9.3064 -0.880 -0.154 0.449 60 93 72
-55.1320 98.7814 -9.0993 0.260 -0.286 0.922 67 106 87
-51.1043 102.7583 -8.1172 -0.759 -0.353 0.548 62 114 101
-51.0076 102.5895 -8.0655 -0.754 -0.365 0.547 63 113 102
-50.3391 100.6584 -7.6271 -0.202 -0.303 0.931 65 114 108
-50.2662 100.4487 -7.5794 -0.362 -0.274 0.891 63 112 108
-48.0844 104.6890 -7.2691 0.389 -0.657 0.645 57 105 102
-47.6399 104.5301 -7.0971 -0.731 -0.144 0.667 45 93 92
-45.2587 95.4260 -5.2989 -0.569 -0.714 0.407 112 147 142
-44.6929 95.9026 -5.1522 -0.672 -0.637 0.378 112 138 122
-90.6541 99.5651 -21.7295 -0.839 -0.536 -0.099 122 121 65
-85.2687 95.5097 -19.4143 -0.698 -0.535 -0.476 86 83 38
-82.4819 94.0533 -18.2856 -0.325 -0.892 0.315 110 108 59
-55.3321 98.0953 -9.2603 0.421 -0.763 0.490 47 87 69
-55.1150 98.2493 -9.2013 0.304 -0.372 0.877 53 96 79
-50.0834 100.7087 -7.7135 0.049 -0.271 0.961 66 116 113
-49.7692 101.0525 -7.6411 0.051 -0.265 0.963 62 112 111
-50.8903 92.9609 -7.1573 0.222 -0.970 -0.097 68 118 106
-52.6534 88.5619 -7.2963 -0.410 -0.746 -0.525 67 117 105
-45.1429 96.4345 -5.5297 -0.503 -0.448 0.739 33 63 69
-90.1828 99.1256 -21.6741 -0.498 -0.844 0.200 108 107 51
-90.0375 98.7827 -21.5859 -0.194 -0.978 -0.080 105 105 53
-87.5347 96.6471 -20.4796 -0.655 -0.709 -0.262 90 89 43
-85.3586 95.6314 -19.6103 0.067 -0.949 -0.307 85 82 37
-82.4439 93.9814 -18.4140 0.044 -0.946 0.321 110 108 59
-45.0414 96.1820 -5.6308 -0.489 -0.442 0.752 57 91 91
-90.4294 99.4570 -21.9535 -0.527 -0.849 0.028 114 113 57
-90.1411 99.0595 -21.8088 -0.507 -0.862 0.018 106 106 52
-89.9965 98.7641 -21.7255 -0.188 -0.979 -0.080 104 104 52
-87.6328 96.5490 -20.6557 -0.864 -0.323 0.387 88 86 38
-82.4031 93.9454 -18.5453 0.020 -0.980 0.197 111 107 59
-32.2915 90.9151 -0.7702 -0.102 -0.494 0.863 12 12 5
-90.2439 99.2450 -22.0222 -0.642 -0.756 -0.131 109 110 53
-58.7583 101.2701 -11.3052 -0.914 -0.285 -0.287 64 87 78
-51.8053 101.1882 -8.8785 -0.145 -0.376 0.915 72 115 101
-56.3733 84.8979 -8.6185 -0.522 -0.841 -0.141 63 112 106
-45.0245 95.0243 -5.8216 0.007 -0.800 0.600 114 144 132
-90.4848 99.2243 -22.2607 -0.581 -0.813 0.031 120 120 66
-90.3417 99.0981 -22.1964 -0.595 -0.803 0.033 113 113 59
-89.7730 98.6404 -21.9461 -0.118 -0.987 -0.110 95 94 46
-82.1836 93.8883 -18.7619 0.053 -0.980 0.190 116 112 63
-72.9916 94.7488 -15.6678 0.784 -0.460 0.416 113 127 111
-68.8756 90.5172 -13.7502 -0.748 -0.553 -0.368 108 135 126
-56.8447 100.5814 -10.7306 -0.932 -0.188 -0.309 42 63 61
-54.9623 94.1224 -9.3323 -0.647 -0.752 -0.129 42 84 70
-54.7610 93.8777 -9.2341 -0.643 -0.757 -0.116 43 87 72
-54.7031 93.6536 -9.1882 -0.290 -0.795 -0.533 58 102 87
-45.1329 95.5898 -6.0867 -0.656 -0.434 0.618 58 96 93
-45.1849 94.8830 -6.0233 -0.340 -0.755 0.561 111 154 143
-90.4432 99.1744 -22.3975 -0.533 -0.846 0.005 120 120 66
-90.3004 99.0647 -22.3351 -0.531 -0.847 0.025 113 113 59
-89.7315 98.5815 -22.0811 -0.016 -0.999 -0.037 93 95 46
-82.1420 93.8617 -18.8943 0.063 -0.980 0.190 116 112 63
-56.7892 103.7864 -11.2555 -0.974 -0.131 -0.183 35 60 54
-56.7274 102.5498 -11.0893 -0.981 -0.116 -0.154 24 48 44
-54.5171 92.8710 -9.1893 -0.776 -0.619 -0.122 60 108 94
-54.4599 92.6530 -9.1439 -0.742 -0.669 -0.043 60 108 96
-45.1599 95.4000 -6.2372 -0.750 -0.398 0.528 57 94 92
-32.3490 90.0595 -1.1653 -0.857 -0.266 0.441 100 104 67
-90.4016 99.1276 -22.5348 -0.513 -0.858 0.010 120 120 66
-90.2593 99.0432 -22.4754 -0.513 -0.858 0.010 113 113 59
-90.1192 99.1061 -22.4343 -0.602 -0.783 -0.155 109 110 53
-89.6898 98.5020 -22.2136 -0.126 -0.943 0.306 95 97 48
-83.5504 94.6033 -19.6209 -0.759 -0.631 -0.159 102 98 51
-82.2362 93.8446 -19.0749 0.098 -0.989 0.109 110 106 58
-82.1004 93.8330 -19.0265 0.093 -0.979 0.183 116 113 63
-81.9608 93.8679 -18.9822 0.043 -0.994 0.101 123 122 67
-68.7883 72.2613 -11.8459 -0.834 -0.300 0.464 88 121 110
-58.6477 101.9891 -11.8615 -0.825 -0.297 0.480 113 143 135
-56.8172 105.4541 -11.6384 -0.999 -0.039 -0.011 122 150 143
-62.9152 82.6794 -11.0469 -0.819 -0.562 -0.112 99 128 122
-44.7841 94.7728 -6.1955 -0.009 -0.797 0.604 115 130 113
-90.3599 99.0686 -22.6706 -0.500 -0.866 0.017 121 121 69
-89.6500 98.6271 -22.3713 -0.153 -0.926 0.344 98 100 51
-45.1239 94.5911 -6.4537 0.051 -0.883 0.467 114 158 147
-44.7787 94.6474 -6.3409 0.077 -0.891 0.448 115 130 113
-90.0334 98.8236 -22.6850 -0.536 -0.844 0.008 111 112 55
-89.7481 98.4802 -22.5441 -0.182 -0.931 0.318 103 105 54
-84.2834 94.6622 -20.1844 -0.678 -0.578 -0.454 108 104 57
-81.8777 93.8090 -19.2469 0.106 -0.980 0.169 123 122 67
-72.5882 95.7860 -16.2722 0.775 -0.515 0.365 112 126 110
-69.4586 90.1170 -14.4945 0.187 -0.802 -0.567 65 98 81
-45.0910 94.5179 -6.5955 0.051 -0.883 0.467 116 157 145
-44.9120 94.5584 -6.5384 0.051 -0.883 0.467 108 139 124
-85.5908 95.1147 -20.8443 -0.923 -0.354 -0.149 100 97 46
-81.8345 93.7980 -19.3811 0.105 -0.978 0.178 123 122 67
-69.3031 90.5386 -14.6404 -0.391 -0.873 -0.290 61 94 77
-45.0581 94.4447 -6.7372 0.051 -0.883 0.467 114 151 138
-89.8085 98.6449 -22.8993 -0.531 -0.841 0.101 108 108 52
-85.8024 95.6788 -21.1405 -0.958 -0.268 0.103 100 99 44
-69.2467 90.5584 -14.7717 -0.398 -0.864 -0.308 75 108 91
-46.7335 105.1146 -8.8234 0.123 -0.743 0.658 75 120 109
-33.1237 90.1822 -2.2362 0.436 -0.735 0.520 33 37 12
-32.5025 89.2969 -1.9099 -0.243 -0.503 0.829 101 107 60
-89.7673 98.6206 -23.0393 -0.516 -0.856 0.015 109 110 53
-86.7187 95.9432 -21.6439 -0.675 -0.140 0.725 99 97 49
-85.9986 96.7945 -21.5040 -0.761 -0.619 -0.195 100 100 42
-69.1971 90.5501 -14.9020 0.185 -0.813 -0.552 75 109 92
-46.6956 105.0318 -8.9809 0.070 -0.681 0.729 37 80 66
-44.9983 94.2874 -7.0209 0.051 -0.881 0.471 113 145 131
-44.8250 94.3170 -6.9649 0.045 -0.875 0.482 108 136 118
-90.0144 99.1102 -23.3455 -0.732 -0.679 -0.061 117 116 59
-89.8704 98.9121 -23.2701 -0.737 -0.668 -0.101 115 114 57
-84.6805 94.2750 -20.8776 -0.352 -0.434 0.830 121 125 66
-46.7479 105.1353 -9.1936 -0.102 -0.813 0.574 63 105 91
-46.6065 105.0628 -9.1354 0.178 -0.934 0.309 53 94 80
-44.9703 94.2052 -7.1629 0.051 -0.868 0.494 113 144 133
-44.7901 94.2479 -7.1062 0.051 -0.868 0.494 109 136 120
-44.6096 94.2908 -7.0495 0.051 -0.868 0.494 110 126 102
-89.9728 99.0778 -23.4853 -0.732 -0.679 -0.061 116 115 59
-88.8376 97.9031 -22.9394 -0.123 -0.987 0.102 101 98 54
-88.6973 97.8874 -22.8889 -0.133 -0.986 0.100 92 89 43
-88.5568 97.8857 -22.8403 -0.130 -0.985 0.115 85 83 35
-88.4165 97.8598 -22.7885 -0.133 -0.986 0.100 87 85 36
-88.2761 97.8325 -22.7365 -0.221 -0.973 0.070 101 99 49
-86.3412 96.5120 -21.8956 -0.391 -0.816 -0.426 123 124 67
-86.1991 96.5987 -21.8580 -0.230 -0.826 -0.515 123 124 66
-85.0432 94.3677 -21.1661 -0.611 -0.750 0.254 126 127 67
-61.2881 106.9558 -14.6288 -0.881 -0.459 -0.119 69 99 87
-46.7098 105.0530 -9.3512 0.180 -0.950 0.255 102 144 130
-46.5484 105.0247 -9.2918 0.167 -0.934 0.315 75 117 103
-53.9289 86.2372 -9.3671 -0.152 -0.622 0.768 94 144 129
-45.2072 94.5170 -7.4479 -0.342 -0.834 0.433 43 72 78
-45.1011 94.1205 -7.3592 -0.892 -0.430 0.139 109 140 128
-44.9439 94.1201 -7.3049 0.031 -0.878 0.478 112 145 132
-44.7668 94.1571 -7.2487 0.031 -0.878 0.478 109 138 121
-44.6030 94.1686 -7.1937 0.013 -0.859 0.512 110 127 103
-99.1819 113.1117 -28.6876 -0.693 -0.702 0.165 61 108 116
-99.0070 112.9620 -28.6074 -0.688 -0.708 0.160 46 93 98
-89.9312 99.0455 -23.6252 -0.732 -0.679 -0.061 118 117 61
-89.0779 98.3347 -23.2365 -0.363 -0.927 0.093 102 101 54
-88.7962 97.8757 -23.0782 -0.107 -0.988 0.114 106 105 58
-88.6558 97.8662 -23.0286 -0.107 -0.988 0.114 88 88 38
-88.0928 97.9342 -22.8437 0.403 -0.913 0.057 116 116 57
-87.9512 97.9993 -22.8035 0.403 -0.913 0.057 120 120 61
-85.9259 95.2102 -21.7339 -0.599 -0.243 0.763 126 127 69
-84.6141 93.9139 -21.1091 -0.683 -0.699 0.213 127 129 78
-83.3906 93.8499 -20.6790 -0.009 -0.777 0.629 115 113 74
-70.7981 84.0528 -15.0342 -0.492 -0.851 -0.181 68 102 85
-70.7594 83.6997 -14.9738 -0.347 -0.932 -0.102 73 107 90
-61.1428 106.6489 -14.7188 -0.893 -0.423 0.153 69 99 87
-45.8001 94.7581 -7.8473 -0.846 -0.450 0.284 98 152 146
-33.6430 89.8901 -3.0094 -0.013 -0.604 0.797 100 109 54
-99.1278 112.9898 -28.8341 -0.697 -0.713 0.081 59 106 114
-98.1972 111.5862 -28.3240 -0.863 -0.417 -0.285 42 87 84
-89.8883 98.8975 -23.7491 -0.683 -0.689 0.243 122 121 65
-88.7548 97.8664 -23.2196 -0.119 -0.987 0.110 124 122 73
-88.6143 97.8479 -23.1687 -0.120 -0.988 0.096 96 94 45
-86.9621 96.1148 -22.3658 -0.741 -0.268 0.615 126 127 69
-86.8293 95.8770 -22.2879 -0.730 -0.271 0.627 124 125 69
-86.1570 95.2692 -21.9743 -0.543 -0.130 0.829 127 128 74
-85.7634 94.7476 -21.7683 -0.536 -0.355 0.766 131 130 85
-85.6224 94.8531 -21.7340 -0.599 -0.304 0.741 132 131 86
-85.4895 94.7447 -21.6737 -0.602 -0.306 0.737 135 133 88
-82.2805 93.4875 -20.3990 0.078 -0.885 0.458 125 121 72
-70.6473 83.9572 -15.1062 0.468 -0.883 -0.039 91 125 108
-61.1125 106.5293 -14.8728 -0.893 -0.423 0.153 50 80 68
-44.9277 93.8818 -7.5919 -0.291 -0.881 0.373 113 146 132
-33.6849 89.7188 -3.1587 0.002 -0.641 0.768 101 110 55
-32.9493 88.1387 -2.6920 -0.316 -0.386 0.867 98 101 53
-99.2331 112.8637 -29.0345 -0.199 -0.942 0.271 56 103 113
-98.1590 111.6242 -28.4953 -0.863 -0.417 -0.285 41 87 83
-88.9949 98.3109 -23.5201 -0.280 -0.952 -0.122 121 117 72
-86.6693 95.1121 -22.2821 -0.599 -0.279 0.751 125 123 79
-86.5281 95.2558 -22.2532 -0.557 -0.109 0.823 132 131 86
-86.1330 94.7236 -22.0444 -0.543 -0.130 0.829 137 136 92
-82.2440 93.3976 -20.5250 0.065 -0.975 0.211 125 122 76
-56.3112 96.5217 -12.0316 -0.816 -0.105 0.569 88 124 109
-50.7131 94.0106 -9.7620 -0.499 -0.832 -0.244 100 150 138
-53.7808 82.1954 -9.1997 -0.718 -0.680 -0.149 94 145 130
-45.4916 94.1679 -7.9873 -0.836 -0.512 0.196 21 46 63
-44.9076 93.7853 -7.7340 -0.291 -0.878 0.379 114 146 134
-86.7711 94.8642 -22.4355 -0.585 -0.275 0.763 107 103 71
-86.5166 94.1929 -22.2549 -0.882 -0.454 -0.128 75 72 40
-86.3698 94.5585 -22.2551 -0.605 -0.285 0.743 63 60 26
-61.3363 107.0597 -15.3848 -0.328 -0.684 0.652 80 110 98
-56.3346 95.8909 -12.1161 -0.831 -0.082 0.550 75 109 89
-57.8917 90.7198 -11.9340 -0.619 -0.604 -0.501 57 93 67
-45.4397 94.1310 -8.1271 -0.541 -0.521 0.660 21 48 62
-44.9050 93.6562 -7.8775 -0.483 -0.766 0.424 113 142 131
-86.7373 94.5694 -22.5349 -0.558 -0.311 0.769 29 27 9
-86.4772 94.1299 -22.3838 -0.897 -0.441 -0.025 32 30 16
-85.2733 93.6504 -21.9029 -0.568 -0.253 0.783 35 31 26
-84.3646 92.8865 -21.4835 -0.657 -0.515 0.550 16 10 8
-82.1575 93.3816 -20.7951 0.184 -0.939 0.290 125 123 82
-56.3946 95.5701 -12.2547 -0.831 -0.082 0.550 46 82 53
-56.4777 92.6551 -11.8735 -0.536 -0.810 0.239 66 102 76
-45.4561 93.9641 -8.2722 -0.541 -0.521 0.660 18 49 59
-85.2416 93.4209 -22.0102 -0.538 -0.317 0.781 17 15 11
-45.8639 93.9501 -8.5729 0.010 -0.885 0.465 102 152 145
-44.7793 103.9428 -9.8047 0.269 -0.962 -0.041 97 138 122
-44.6527 103.8436 -9.7470 0.030 -0.969 -0.245 104 146 132
-44.5434 103.7090 -9.6901 -0.009 -0.958 -0.287 103 145 131
-45.8473 93.8459 -8.7150 0.045 -0.886 0.461 100 149 146
-88.5057 97.7242 -24.0582 -0.295 -0.866 0.403 40 42 12
-88.3651 97.6875 -24.0046 -0.265 -0.895 0.360 34 36 19
-87.8163 96.4743 -23.6395 -0.637 -0.574 -0.515 14 14 5
-87.4133 95.6302 -23.3782 -0.725 -0.504 -0.468 19 19 9
-86.0273 95.7104 -22.9151 -0.508 -0.857 -0.091 22 23 17
-85.7543 95.5819 -22.8028 -0.553 -0.829 -0.084 18 19 13
-71.7277 91.8428 -17.4515 -0.514 -0.809 -0.286 72 114 84
-45.8158 93.7702 -8.8559 0.034 -0.889 0.456 97 147 146
-45.3531 93.4570 -8.6517 -0.429 -0.747 0.508 42 76 77
-88.4642 97.6749 -24.1945 -0.284 -0.865 0.414 34 35 5
-71.6741 91.8566 -17.5871 -0.514 -0.809 -0.286 70 113 78
-45.7492 93.7616 -8.9947 -0.141 -0.926 0.350 93 143 145
-45.1477 93.4143 -8.7374 -0.887 -0.421 0.188 55 86 85
-44.9901 92.2575 -8.5124 -0.809 -0.440 0.390 112 125 98
-86.0750 95.8997 -23.2696 -0.750 -0.661 -0.006 18 19 13
-71.6317 91.8174 -17.7188 -0.504 -0.815 -0.287 68 112 76
-63.5957 106.6677 -17.1931 -0.961 -0.233 -0.150 74 102 90
-57.8698 88.7772 -12.5570 -0.455 -0.886 -0.088 27 49 33
-55.7504 89.7317 -11.9750 -0.660 -0.379 0.648 48 77 47
-45.3162 93.2584 -8.9342 -0.434 -0.738 0.516 42 78 79
-45.1370 93.3005 -8.8793 -0.881 -0.434 0.190 53 84 84
-44.9891 92.7025 -8.7392 -0.894 -0.339 0.292 116 137 133
-44.9885 92.1297 -8.6532 -0.809 -0.440 0.390 112 124 97
-82.5735 93.4518 -21.8577 -0.463 -0.885 -0.052 21 22 16
-63.5629 106.5516 -17.3460 -0.964 -0.267 -0.000 71 99 87
-59.1428 89.3842 -13.2346 -0.867 -0.480 0.134 57 91 56
-45.3020 93.1512 -9.0755 -0.434 -0.738 0.516 44 79 81
-45.1323 93.1756 -9.0213 -0.793 -0.429 0.432 54 85 86
-44.9868 92.5749 -8.8805 -0.894 -0.339 0.292 116 138 131
-44.9736 92.0265 -8.7929 -0.727 -0.560 0.397 112 124 96
-88.7620 97.6244 -24.7628 0.140 -0.945 0.295 118 116 58
-82.5308 93.4374 -21.9931 -0.463 -0.885 -0.052 22 21 16
-59.6429 90.1858 -13.6797 -0.161 -0.858 -0.487 61 99 76
-59.5584 90.0262 -13.6264 -0.243 -0.936 -0.254 97 135 111
-57.7798 88.7048 -12.8164 -0.483 -0.561 0.673 31 48 30
-56.7281 89.1758 -12.5296 -0.445 -0.568 0.692 47 72 45
-45.5452 93.1488 -9.3205 -0.440 -0.633 0.637 8 43 52
-45.4085 93.1114 -9.2682 -0.442 -0.628 0.640 18 49 58
-45.3070 93.0084 -9.2177 -0.495 -0.634 0.594 45 79 82
-45.2412 92.5488 -9.1247 -0.864 -0.439 0.246 109 135 133
-45.1542 92.4213 -9.0755 -0.859 -0.450 0.245 121 144 134
-45.0716 92.2867 -9.0266 -0.855 -0.404 0.324 116 138 127
-59.5613 90.2468 -13.8143 -0.161 -0.858 -0.487 62 97 75
-59.4958 90.0360 -13.7592 -0.300 -0.918 -0.259 63 99 74
-59.3772 89.9685 -13.7083 -0.304 -0.917 -0.258 59 95 63
-59.0804 89.2394 -13.4939 -0.792 -0.610 0.028 34 65 38
-56.7778 89.2573 -12.7111 -0.633 -0.595 0.496 48 69 48
-47.3081 93.8434 -10.1922 -0.709 -0.446 -0.547 93 135 123
-45.4004 92.9930 -9.4094 -0.539 -0.474 0.697 24 54 62
-45.1474 92.3025 -9.2159 -0.875 -0.414 0.250 119 143 129
-45.0669 92.1641 -9.1670 -0.855 -0.404 0.324 113 135 121
-58.4817 88.7916 -13.3711 -0.332 -0.871 0.363 28 44 25
-52.1072 94.4321 -12.0839 0.088 -0.144 0.986 81 106 75
-53.7704 89.0379 -11.8038 -0.332 -0.535 0.777 86 117 109
-45.7218 94.0365 -9.8452 -0.136 -0.477 0.868 87 129 127
-45.9867 93.2297 -9.8088 -0.217 -0.556 0.802 84 126 123
-45.5418 92.8875 -9.6034 -0.556 -0.433 0.710 10 44 50
-45.4222 92.8186 -9.5519 -0.556 -0.433 0.710 25 55 62
-45.1340 92.1959 -9.3558 -0.870 -0.399 0.291 119 142 126
-45.0588 92.0483 -9.3070 -0.852 -0.403 0.334 113 134 118
-44.9606 91.9436 -9.2571 -0.863 -0.425 0.274 111 128 107
-88.2128 97.7015 -25.0632 -0.591 -0.803 -0.078 45 44 19
-41.5484 104.5965 -10.2657 -0.715 0.006 0.699 108 146 135
-45.7252 93.8932 -9.9880 -0.498 -0.656 0.567 84 129 124
-45.5660 92.7086 -9.7456 -0.547 -0.432 0.717 8 45 52
-45.4456 92.6417 -9.6940 -0.547 -0.432 0.717 25 57 65
-45.0482 91.9370 -9.4467 -0.859 -0.406 0.311 114 134 116
-44.9560 91.8220 -9.3970 -0.864 -0.414 0.288 112 129 105
-94.4710 93.6750 -26.7049 -0.233 -0.972 0.020 107 113 79
-88.4540 97.6245 -25.2920 -0.456 -0.890 -0.026 113 116 60
-88.1707 97.6968 -25.2073 -0.595 -0.801 -0.069 46 45 18
-84.7829 94.1858 -23.4902 -0.664 -0.743 -0.087 19 16 9
-84.6517 94.0609 -23.4255 -0.664 -0.743 -0.087 19 16 8
-50.3598 90.0626 -11.1138 0.457 -0.536 0.710 107 145 132
-45.4683 92.4667 -9.8356 -0.526 -0.469 0.710 24 57 65
-45.3500 92.3969 -9.7841 -0.644 -0.437 0.628 51 82 87
-45.2635 92.2685 -9.7341 -0.791 -0.326 0.517 66 95 93
-45.1295 91.9421 -9.6360 -0.888 -0.335 0.315 118 142 127
-44.9403 91.7206 -9.5361 -0.863 -0.401 0.306 112 128 104
-33.9889 85.4498 -4.8017 -0.093 -0.429 0.898 96 104 50
-35.3407 83.2317 -4.9053 -0.438 -0.393 0.808 100 107 53
-100.6857 106.0757 -30.9835 -0.968 -0.232 0.092 35 81 79
-88.5541 97.4676 -25.4596 0.289 -0.927 0.241 119 124 59
-85.5304 95.0431 -24.0374 -0.604 -0.597 0.529 17 14 7
-84.8720 94.3037 -23.6934 -0.656 -0.755 -0.021 34 33 15
-84.7400 94.1872 -23.6296 -0.656 -0.755 -0.021 35 34 16
-81.2660 92.8090 -22.2244 0.224 -0.947 0.231 122 121 64
-45.4976 92.2796 -9.9771 -0.642 -0.451 0.620 22 56 64
-45.3816 92.2061 -9.9257 -0.653 -0.447 0.611 51 82 87
-87.9489 97.3042 -25.3860 -0.592 -0.797 -0.123 34 32 10
-87.8091 97.1903 -25.3198 -0.592 -0.797 -0.123 21 18 4
-87.6702 97.0347 -25.2470 -0.638 -0.762 -0.111 18 16 4
-85.1018 94.3702 -23.9365 -0.427 -0.904 -0.013 48 48 19
-84.8346 94.1929 -23.8166 -0.397 -0.914 -0.088 47 47 18
-59.3391 88.5406 -14.2263 -0.290 -0.709 -0.643 42 60 39
-56.2810 88.0078 -13.0998 -0.719 -0.281 0.636 40 52 28
-49.2717 91.0827 -11.2242 0.107 -0.424 0.899 104 142 127
-45.4039 92.0330 -10.0664 -0.792 -0.330 0.514 51 81 87
-87.9070 97.2864 -25.5278 -0.566 -0.814 -0.132 39 37 9
-84.9256 94.2768 -24.0155 -0.383 -0.923 -0.030 75 77 36
-84.7921 94.1878 -23.9554 -0.397 -0.914 -0.088 77 79 38
-45.4132 91.8843 -10.2064 -0.792 -0.325 0.517 52 81 87
-44.9814 91.5388 -10.0024 -0.517 -0.531 0.671 112 132 114
-35.2304 85.0843 -5.6197 -0.314 -0.427 0.848 16 18 8
-98.8072 103.5840 -30.4420 -0.564 -0.559 0.607 39 70 73
-87.8651 97.2636 -25.6688 -0.621 -0.779 -0.093 48 48 12
-57.3118 88.3272 -13.8051 0.157 -0.988 -0.008 42 55 30
-54.2588 89.7145 -13.0029 -0.946 -0.319 -0.059 34 48 28
-49.4288 93.6288 -12.0228 -0.934 -0.354 -0.042 74 112 97
-45.4305 91.7214 -10.3462 -0.809 -0.335 0.482 53 82 86
-45.3464 91.5908 -10.2957 -0.809 -0.335 0.482 93 120 117
-35.5920 84.8939 -5.8621 0.095 -0.677 0.730 66 71 41
-35.3750 84.9869 -5.8041 0.095 -0.677 0.730 31 33 16
-35.0093 84.0646 -5.5250 -0.198 -0.555 0.808 77 78 48
-88.2448 97.5295 -26.0018 -0.496 -0.867 -0.053 121 122 65
-87.8224 97.2998 -25.8197 -0.495 -0.865 -0.080 79 77 34
-87.6834 97.1234 -25.7426 -0.626 -0.775 -0.085 69 70 30
-67.5515 95.0368 -18.5664 -0.392 -0.814 -0.429 102 127 121
-56.1989 87.7736 -13.4854 -0.485 -0.768 -0.418 14 23 5
-54.3188 88.4571 -12.9645 -0.419 -0.857 0.299 62 80 55
-45.4458 91.5622 -10.4856 -0.687 -0.502 0.526 55 82 85
-45.3367 91.4781 -10.4343 -0.677 -0.519 0.523 103 129 124
-35.0706 83.8797 -5.6645 -0.100 -0.564 0.820 83 84 51
-34.8776 83.9400 -5.6093 -0.063 -0.562 0.825 100 105 48
-34.9791 83.4081 -5.5533 -0.218 -0.878 0.427 99 106 39
-88.2029 97.5079 -26.1437 -0.468 -0.882 -0.060 121 122 64
-88.0619 97.4316 -26.0829 -0.465 -0.884 -0.044 119 119 63
-87.9208 97.3751 -26.0254 -0.495 -0.865 -0.080 117 118 63
-87.7803 97.2889 -25.9630 -0.495 -0.865 -0.080 115 115 64
-86.6750 96.1599 -25.3949 -0.784 -0.598 -0.166 116 118 64
-85.2992 95.4482 -24.8068 -0.497 -0.846 -0.195 116 119 64
-84.6071 95.2948 -24.5461 -0.833 -0.553 0.011 120 123 65
-66.7171 101.8431 -19.6143 -0.349 0.085 0.933 89 121 108
-61.5443 94.4196 -16.5878 -0.559 -0.550 0.621 68 100 94
-60.1803 93.1390 -15.9060 -0.245 -0.855 -0.456 78 116 107
-60.0539 93.0740 -15.8520 -0.245 -0.855 -0.456 77 117 107
-58.8662 88.7872 -14.7135 -0.304 -0.695 -0.652 21 31 21
-48.7711 92.7818 -11.9820 -0.311 -0.934 -0.173 69 105 95
-45.4351 91.4513 -10.6240 -0.883 -0.453 0.120 58 85 86
-34.8561 83.8669 -5.7395 0.001 -0.491 0.871 104 109 51
-87.8790 97.3358 -26.1642 -0.512 -0.859 -0.013 121 120 63
-87.7389 97.2180 -26.0963 -0.620 -0.784 -0.029 120 119 63
-86.6329 96.1437 -25.5357 -0.784 -0.598 -0.166 120 119 62
-86.3621 95.8081 -25.3858 -0.664 -0.702 0.259 120 119 62
-86.2247 95.7266 -25.3252 -0.668 -0.698 0.259 120 119 62
-66.1245 95.4969 -18.4860 -0.702 -0.693 0.167 90 125 124
-60.7531 93.4685 -16.3169 -0.341 -0.861 -0.378 74 115 110
-59.2235 88.8189 -14.9921 -0.469 -0.883 -0.006 34 55 30
-58.7464 88.9432 -14.8523 -0.292 -0.686 -0.667 21 28 20
-51.3988 93.6330 -13.1812 0.654 -0.329 0.681 79 104 74
-48.7330 92.7196 -12.1209 -0.318 -0.941 -0.120 59 97 86
-45.5066 91.4742 -10.8133 -0.839 -0.511 0.188 46 78 84
-45.4128 91.3621 -10.7621 -0.882 -0.456 0.122 63 92 92
-87.1308 97.1538 -26.0392 -0.612 -0.733 -0.296 120 119 62
-68.8701 95.6480 -19.6033 -0.411 -0.836 0.363 66 88 93
-68.7237 95.6373 -19.5519 -0.381 -0.813 0.440 86 105 109
-68.5835 95.6007 -19.4981 -0.381 -0.813 0.440 83 102 107
-59.1634 88.8218 -15.1247 -0.415 -0.909 0.026 34 53 34
-54.0070 89.7122 -13.5382 -0.857 -0.439 -0.270 59 69 33
-47.8929 92.0965 -11.8902 -0.656 -0.666 0.354 79 114 107
-34.8822 83.4310 -5.9722 -0.015 -0.533 0.846 98 108 38
-59.5019 92.8568 -16.1072 -0.270 -0.879 -0.393 84 133 145
-58.8699 93.3571 -15.9825 -0.520 -0.015 0.854 89 137 150
-58.9256 88.5450 -15.1478 -0.049 -0.866 -0.497 26 32 22
-58.8489 88.3759 -15.0919 0.009 -0.878 -0.479 21 29 17
-53.1421 90.8380 -13.6015 -0.804 -0.368 0.466 47 62 31
-50.5414 94.1873 -13.3173 -0.495 -0.136 0.858 78 109 111
-48.1615 93.2791 -12.3526 -0.325 -0.819 -0.472 64 100 91
-46.4277 93.6001 -11.8241 0.202 -0.811 -0.549 72 108 97
-46.2779 93.5846 -11.7707 0.255 -0.819 -0.514 81 117 106
-31.9417 89.8090 -6.2600 0.112 -0.747 0.656 96 101 54
-35.1252 83.2025 -6.1633 0.084 -0.555 0.828 94 99 44
-34.9395 83.2536 -6.1096 0.017 -0.533 0.846 101 108 41
-70.6699 95.0678 -20.4316 0.541 -0.773 0.330 45 64 63
-69.0109 95.2183 -19.8988 -0.438 -0.151 0.886 25 46 67
-68.7435 95.0963 -19.7867 -0.446 -0.141 0.884 32 50 70
-68.6112 95.0306 -19.7303 -0.448 -0.133 0.884 27 45 65
-68.4765 94.9750 -19.6749 -0.451 -0.136 0.882 31 49 69
-68.3487 94.8921 -19.6169 -0.444 -0.134 0.886 27 44 65
-68.1531 95.0836 -19.5852 -0.378 -0.054 0.924 32 49 70
-68.0148 95.0424 -19.5312 -0.378 -0.056 0.924 28 45 66
-67.8857 94.9650 -19.4738 -0.405 -0.048 0.913 26 44 64
-67.7527 94.9038 -19.4179 -0.405 -0.048 0.913 30 49 70
-58.7758 88.4117 -15.2256 -0.135 -0.838 -0.529 23 31 18
-48.5428 93.6344 -12.7091 -0.127 -0.686 -0.716 66 97 105
-46.6761 93.5929 -12.0719 -0.105 -0.524 0.845 70 107 89
-46.4958 93.6364 -12.0189 -0.072 -0.507 0.859 69 106 88
-46.2890 93.7307 -11.9660 0.202 -0.811 -0.549 79 116 100
-45.0527 92.4937 -11.3272 -0.817 -0.532 0.223 21 52 54
-44.6773 91.7482 -11.0669 -0.780 -0.587 0.216 116 137 126
-70.9678 94.8024 -20.6451 0.580 -0.770 0.265 107 123 112
-70.8002 94.8989 -20.6061 0.444 -0.759 0.476 81 98 91
-58.7376 90.2202 -15.6925 -0.423 -0.306 0.853 39 67 71
-58.6486 90.0725 -15.6357 -0.704 -0.249 0.665 22 47 51
-53.9207 88.1859 -13.7003 -0.536 -0.441 -0.720 43 72 65
-45.3964 94.0864 -11.8953 -0.297 -0.230 0.927 82 119 114
-71.0979 94.6313 -20.8183 0.582 -0.769 0.264 119 133 110
-70.9264 94.7479 -20.7819 0.638 -0.764 0.092 114 131 113
-70.7599 94.8391 -20.7425 0.503 -0.834 0.228 130 148 134
-70.6010 94.8939 -20.6990 0.369 -0.922 0.119 159 180 168
-70.4383 94.9644 -20.6571 0.369 -0.922 0.119 182 205 195
-68.9195 95.1417 -20.1780 -0.403 -0.052 0.914 177 201 197
-66.3092 93.2459 -18.9520 -0.365 0.016 0.931 162 187 175
-61.4469 93.1854 -17.3033 -0.377 -0.070 0.923 153 183 171
-59.2926 91.7093 -16.3076 -0.477 -0.049 0.877 162 197 189
-58.7035 89.7738 -15.7551 -0.702 -0.258 0.664 29 54 55
-58.6725 88.7383 -15.5552 -0.807 -0.486 -0.336 24 30 18
-47.7502 94.6385 -12.9559 -0.420 -0.006 0.907 8 36 57
-47.7323 93.4051 -12.7242 -0.507 -0.228 0.832 9 39 61
-69.2298 95.4835 -20.5077 -0.186 -0.755 0.629 131 155 133
-69.0895 95.4469 -20.4538 -0.248 -0.700 0.669 128 152 130
-65.4074 93.6353 -18.8798 -0.474 -0.874 0.110 116 130 104
-65.2757 93.5787 -18.8251 -0.531 -0.842 0.095 116 129 105
-58.5008 88.6586 -15.6359 -0.792 -0.566 -0.229 25 34 17
-45.4421 93.1274 -12.0673 -0.219 -0.633 0.743 9 43 47
-65.2459 93.4849 -18.9580 -0.545 -0.834 0.086 128 130 98
-65.1149 93.4269 -18.9031 -0.541 -0.837 0.082 128 131 99
-64.9863 93.3609 -18.8476 -0.537 -0.840 0.080 128 131 99
-64.7122 93.2883 -18.7419 -0.342 -0.938 0.054 121 123 91
-63.4611 92.5534 -18.1840 -0.335 -0.639 0.692 123 127 93
-59.8196 91.9636 -16.8496 -0.167 -0.528 0.832 114 135 107
-59.6642 91.9835 -16.8010 -0.161 -0.532 0.831 114 135 107
-58.9977 89.8297 -16.1748 -0.715 -0.602 0.356 92 122 112
-58.7724 89.6604 -16.0675 -0.607 -0.742 0.286 90 115 110
-58.4471 88.6435 -15.7683 -0.802 -0.551 -0.229 65 74 54
-58.2700 88.3669 -15.6571 -0.656 -0.755 0.007 30 36 23
-58.1603 88.2830 -15.6046 -0.661 -0.700 0.272 19 26 11
-57.8105 87.7353 -15.3847 -0.890 -0.333 0.311 21 24 17
-53.6271 88.4145 -14.1049 -0.465 -0.582 -0.667 126 151 123
-50.3263 92.2711 -13.7151 -0.467 -0.163 0.869 164 187 175
-50.1952 91.5851 -13.5429 -0.346 0.055 0.937 177 204 193
-50.0672 91.5336 -13.4903 -0.347 0.053 0.936 179 208 198
-70.0567 94.6331 -20.9511 -0.051 -0.804 0.592 124 131 95
-58.7106 89.6652 -16.2028 -0.615 -0.601 -0.511 102 124 114
-58.7419 89.2098 -16.1275 -0.575 -0.569 -0.589 88 109 98
-58.6523 89.0689 -16.0708 -0.681 -0.553 -0.480 76 92 73
-55.7367 85.5107 -14.4204 -0.740 -0.596 0.313 30 35 18
-50.8057 90.4947 -13.7037 -0.343 0.054 0.938 118 139 116
-56.9728 86.7320 -15.2164 0.259 -0.868 0.424 19 20 6
-52.3299 90.6348 -14.4013 -0.527 -0.826 -0.198 123 140 104
-49.3550 91.4605 -13.5600 -0.256 -0.153 0.954 125 138 110
-47.3631 91.9083 -13.1398 -0.283 -0.286 0.915 120 135 104
-47.1450 92.0297 -13.0900 -0.275 -0.330 0.903 118 134 107
-47.0375 91.9371 -13.0362 -0.275 -0.284 0.919 115 134 108
-45.0810 92.3830 -12.4658 -0.152 -0.559 0.815 125 143 118
-44.6846 92.8234 -12.4176 -0.345 -0.785 -0.514 124 142 115
-100.7810 107.5230 -34.4102 -0.979 -0.121 0.164 29 79 74
-57.9167 88.1446 -16.2616 -0.745 -0.646 -0.164 78 87 54
-56.4497 86.7295 -15.6443 -0.691 -0.471 0.548 80 85 45
-57.8211 91.6263 -17.3928 -0.167 -0.914 -0.369 114 135 117
-54.7585 87.6917 -15.5766 0.773 -0.544 0.325 86 92 56
-54.1360 88.1076 -15.4527 0.760 -0.499 0.416 99 105 68
-57.8693 90.4252 -17.4834 -0.797 -0.565 0.212 108 125 110
-57.9968 88.2698 -17.0829 -0.787 -0.589 0.184 84 94 71
-57.9143 88.1177 -17.0242 -0.790 -0.576 0.210 82 93 65
-57.8663 88.0876 -17.1562 -0.857 -0.509 0.074 89 100 72
-57.7697 87.9713 -17.0999 -0.903 -0.417 -0.106 81 94 62
-57.8917 88.2318 -17.3492 -0.885 -0.465 -0.013 98 107 84
-53.9343 88.3167 -16.0503 0.233 -0.967 0.100 99 103 66
-27.9759 86.5219 -7.0386 -0.071 -0.692 0.718 63 68 28
-18.8180 97.3678 -6.2616 -0.463 -0.310 0.830 69 74 33
-58.0062 88.5148 -17.6018 -0.856 -0.517 0.005 103 114 98
-52.3436 90.3486 -16.1068 0.817 -0.537 0.209 130 136 102
-29.2503 87.2028 -7.7663 0.555 -0.672 0.491 84 91 37
-27.6870 86.5792 -7.1151 0.224 -0.772 0.595 65 69 32
-18.8976 97.1523 -6.4262 -0.474 -0.298 0.829 67 72 32
-57.9632 88.4715 -17.7337 -0.792 -0.602 0.098 106 117 100
-54.0393 88.1288 -16.3576 0.472 -0.798 0.375 95 100 60
-18.7832 97.3969 -6.6238 -0.235 -0.471 0.851 65 69 33
-57.7835 88.0519 -17.7395 -0.862 -0.507 -0.004 105 115 91
-57.7234 87.8457 -17.6752 -0.847 -0.524 0.090 101 112 84
-57.7331 87.4710 -17.5979 -0.794 -0.297 0.530 94 107 76
-47.8589 104.5207 -18.1759 -0.491 -0.861 -0.135 100 99 52
-47.6580 104.4030 -18.2731 -0.555 -0.821 -0.136 104 102 53
-54.3987 86.3389 -16.8601 0.421 -0.748 0.514 118 124 85
-32.6596 86.5189 -10.5158 0.032 -0.853 0.521 91 95 59
-44.4801 92.9074 -16.3994 -0.624 -0.493 0.607 125 132 88
-44.5829 93.1747 -16.6675 -0.666 -0.742 -0.083 118 124 80
-44.4441 93.1337 -16.6122 -0.674 -0.731 -0.110 118 124 80
-33.1324 85.5571 -11.5657 0.259 -0.763 0.592 98 101 55
-57.7641 89.1436 -20.6612 -0.216 -0.365 0.906 108 122 93
-61.3210 88.8469 -21.9081 -0.701 -0.585 -0.408 111 123 103
-57.5890 88.6960 -20.6523 -0.187 -0.309 0.933 106 131 107
-46.5275 89.5038 -17.2434 0.077 -0.381 0.922 115 128 94
-60.8255 89.6608 -22.1097 -0.637 0.027 0.770 115 129 112
-60.7496 89.4645 -22.0356 -0.627 0.006 0.779 115 129 112
-58.2209 88.7956 -21.0428 -0.327 0.057 0.943 120 133 117
-58.1141 88.6955 -20.9828 -0.165 -0.589 0.791 120 133 117
-52.7157 88.2152 -19.1017 0.238 -0.828 0.508 117 134 118
-48.4236 91.5535 -18.7093 -0.274 0.112 0.955 119 138 121
-48.2993 91.4894 -18.6526 -0.288 0.118 0.950 119 138 121
-46.2231 91.2525 -17.9161 -0.309 0.117 0.944 121 136 115
-32.9623 85.1539 -12.0505 0.133 -0.743 0.656 84 85 48
-63.1302 91.6577 -23.6908 -0.400 0.136 0.906 113 132 115
-60.2100 89.4124 -22.1670 -0.399 0.000 0.917 121 141 129
-47.7076 90.0830 -18.2688 -0.297 0.119 0.947 125 145 131
-47.5447 90.0982 -18.2197 -0.297 0.119 0.947 126 145 131
-47.4042 90.0710 -18.1670 -0.304 0.122 0.945 126 145 131
-46.1835 90.0310 -17.7595 -0.169 0.072 0.983 126 144 130
-62.1005 90.1230 -23.1251 -0.394 0.098 0.914 122 143 135
-53.8664 86.9168 -19.6225 0.664 -0.731 0.158 117 121 77
-41.4099 91.8914 -16.8518 -0.235 -0.102 0.967 120 138 122
-41.1189 89.1984 -16.0643 -0.088 -0.909 -0.407 120 133 108
-40.9857 89.1593 -16.0109 -0.110 -0.909 -0.402 120 133 106
-40.8649 89.1004 -15.9565 -0.272 -0.862 -0.429 120 133 108
-63.2104 90.5883 -23.7677 -0.425 0.084 0.901 120 144 141
-59.0139 91.1076 -22.5390 -0.445 0.010 0.895 126 154 147
-58.7511 91.0073 -22.4276 -0.503 0.022 0.864 127 154 147
-56.9007 88.1930 -21.0969 -0.029 -0.017 0.999 120 144 137
-56.5099 88.0762 -20.9396 0.005 -0.061 0.998 116 137 120
-45.9467 91.0720 -18.2845 0.024 -0.384 0.923 130 154 150
-46.4327 88.7490 -17.8402 -0.213 0.050 0.976 130 154 148
-39.8207 89.1378 -15.7929 -0.119 -0.949 -0.292 118 130 98
-32.9642 84.8357 -12.4501 -0.301 -0.640 0.707 66 67 33
-49.3279 88.6251 -18.9113 -0.231 -0.046 0.972 132 163 157
-43.6627 91.6263 -17.8564 -0.300 -0.119 0.947 132 158 155
-43.4127 91.5028 -17.7430 -0.259 -0.154 0.954 133 157 155
-62.8181 94.2708 -24.9341 -0.280 -0.595 -0.754 127 155 152
-59.8553 94.7958 -24.1115 -0.968 -0.084 0.238 126 156 151
-59.8052 94.4925 -24.0155 -0.968 -0.084 0.238 126 156 151
-59.7676 94.1566 -23.9149 -0.963 -0.081 0.257 129 158 153
-59.6781 93.9710 -23.8370 -0.912 -0.082 0.401 129 158 153
-59.7154 93.4303 -23.7069 -0.661 -0.069 0.747 129 158 153
-59.6842 92.6597 -23.4940 -0.600 -0.464 0.652 128 159 154
-53.5372 85.9705 -19.7405 -0.083 -0.605 0.792 128 141 122
-53.4340 85.8828 -19.6839 -0.129 -0.531 0.838 132 146 132
-38.4804 92.0491 -16.4576 -0.366 -0.354 0.861 119 144 125
-32.8533 84.5690 -12.6645 -0.470 -0.663 0.583 30 33 14
-32.7362 84.5202 -12.6137 -0.488 -0.625 0.609 17 18 7
-66.8532 93.8018 -26.2869 -0.569 -0.570 -0.593 129 149 140
-66.7009 93.8076 -26.2391 0.206 -0.706 0.678 129 149 140
-62.3276 91.8389 -24.3004 -0.459 -0.007 0.889 132 158 159
