ply
format ascii 1.0
element vertex 879
property float x
property float y
property float z
property float nx
property float ny
property float nz
property uchar diffuse_red
property uchar diffuse_green
property uchar diffuse_blue
end_header
-25.4403 89.3478 4.6693 0.899 -0.432 0.064 11 11 8
-25.3162 89.3166 4.6712 0.924 -0.325 0.203 9 10 8
-25.1435 89.7819 4.6298 0.924 -0.325 0.203 9 10 8
-24.9425 90.5132 4.5652 0.242 -0.343 0.907 9 10 8
-23.9820 93.4029 4.3089 -0.242 -0.255 0.936 10 9 8
-21.9318 91.7148 4.4419 -0.649 -0.755 0.093 108 107 55
-3.5033 97.9221 3.7866 -0.222 -0.962 -0.162 56 58 36
-3.3230 98.0251 3.7765 0.439 -0.895 0.084 58 60 38
-2.3814 98.6334 3.7178 0.677 -0.665 0.315 51 54 29
-2.0502 99.1357 3.6722 0.651 -0.740 0.167 47 51 25
-1.7700 99.4966 3.6392 0.586 -0.809 -0.052 46 50 23
0.7336 101.3990 3.4584 0.689 -0.510 -0.515 41 45 18
-79.3521 114.0410 2.7079 -0.071 -0.774 0.630 101 142 148
-68.8942 124.5777 1.7099 0.245 -0.438 0.865 122 154 152
-68.7572 124.7284 1.6957 0.229 -0.443 0.867 122 155 154
-47.0843 95.6912 4.1224 -0.366 -0.644 0.672 106 123 92
-35.7809 93.1060 4.2784 -0.864 -0.371 0.340 98 103 49
-33.6049 85.0941 4.9723 0.358 -0.550 0.755 23 16 4
-32.1726 84.7684 4.9919 0.773 -0.616 0.152 16 11 2
-31.8145 85.0855 4.9616 0.627 -0.770 -0.120 11 5 3
-31.6938 85.2583 4.9456 0.761 -0.638 -0.116 11 5 3
-31.4533 85.3687 4.9343 0.093 -0.929 -0.357 16 11 7
-29.4556 87.3825 4.7436 0.098 -0.795 0.599 11 16 13
-29.3290 87.4574 4.7361 -0.355 -0.750 0.559 12 16 14
-29.2101 87.3436 4.7454 -0.681 -0.691 0.245 11 16 13
-28.8610 86.9007 4.7823 0.055 -0.694 -0.718 10 14 12
-26.7893 82.3304 5.1729 0.691 -0.667 -0.278 17 19 15
-26.6650 82.4433 5.1621 0.674 -0.678 -0.292 17 19 15
-26.5394 82.5672 5.1503 0.731 -0.641 -0.232 14 16 12
-25.9268 86.7704 4.7751 -0.350 -0.056 0.935 14 16 12
-25.0032 91.1861 4.3790 0.003 -0.982 0.191 16 18 17
-23.3682 97.7069 3.7924 0.797 -0.515 -0.314 17 15 16
-22.8983 93.4423 4.1662 -0.705 -0.440 -0.556 24 20 17
-22.5359 92.0927 4.2831 -0.726 -0.688 -0.006 21 15 17
-22.4029 92.0992 4.2817 -0.603 -0.753 -0.265 24 18 16
-22.2848 91.9940 4.2902 -0.618 -0.746 -0.248 22 17 12
-22.1665 91.8933 4.2983 -0.618 -0.746 -0.248 106 103 90
-22.0485 91.7930 4.3064 -0.618 -0.746 -0.248 103 100 62
-8.3722 95.9930 3.8477 -0.194 -0.811 0.552 171 175 139
-3.4440 98.8554 3.5633 -0.310 -0.796 0.520 67 70 41
-3.2918 98.8762 3.5604 -0.329 -0.791 0.516 70 73 46
-3.4702 97.9773 3.6410 -0.160 -0.915 0.371 70 72 48
-3.2938 98.0692 3.6318 -0.050 -0.933 0.356 70 72 48
-2.0504 99.0978 3.5329 0.635 -0.755 0.165 62 67 38
-1.7358 99.5505 3.4909 0.512 -0.851 -0.118 63 68 38
-1.5422 99.6771 3.4785 0.510 -0.853 -0.114 64 68 41
-1.0677 99.7702 3.4672 0.287 -0.883 -0.372 57 61 34
-0.9490 99.6975 3.4729 0.046 -0.948 -0.314 58 62 35
0.9438 101.8920 3.2669 0.684 -0.513 -0.519 44 48 23
-79.4273 114.1437 2.5312 -0.299 -0.712 0.636 100 146 152
-47.8097 96.5196 3.9164 -0.702 -0.547 0.455 110 138 145
-33.6035 84.9512 4.8676 0.358 -0.550 0.755 15 13 9
-32.8875 84.8518 4.8719 0.954 -0.275 -0.122 15 13 7
-31.8154 85.0492 4.8473 0.709 -0.694 -0.128 16 15 7
-31.6950 85.1980 4.8331 0.716 -0.688 -0.119 16 15 7
-31.5742 85.3259 4.8208 0.716 -0.688 -0.119 18 15 8
-31.4536 85.3891 4.8143 0.039 -0.916 -0.400 18 15 8
-31.3346 85.3094 4.8207 0.016 -0.922 -0.387 18 15 8
-31.2123 85.4878 4.8039 -0.027 -0.890 -0.456 18 15 8
-29.7158 87.0066 4.6574 0.162 -0.372 0.914 12 12 9
-29.0942 87.1603 4.6396 -0.541 -0.634 0.552 11 17 18
-28.9754 87.0657 4.6473 -0.541 -0.634 0.552 11 16 17
-28.8521 87.0706 4.6461 -0.044 -0.976 -0.215 11 16 17
-28.7310 87.0313 4.6488 0.380 -0.694 0.612 11 17 17
-28.3450 87.3386 4.6187 0.573 -0.614 0.543 11 17 16
-28.2200 87.3627 4.6157 0.567 -0.595 0.570 11 17 16
-27.9189 79.2536 5.3445 0.610 -0.758 0.229 20 16 14
-27.0656 81.7233 5.1165 -0.425 -0.476 0.769 12 16 11
-26.4132 83.9878 4.9082 0.755 -0.595 -0.274 11 16 11
-25.9995 85.9484 4.7289 -0.335 -0.051 0.941 13 15 11
-24.6785 91.7859 4.1944 0.927 -0.372 0.047 14 19 14
-22.5242 92.1537 4.1474 -0.720 -0.693 -0.033 16 12 6
-22.2695 92.0796 4.1524 -0.722 -0.624 -0.299 29 25 15
-22.1532 91.9621 4.1623 -0.674 -0.658 -0.336 106 103 89
-22.0394 91.8296 4.1735 -0.618 -0.746 -0.248 106 102 63
-9.0706 96.4282 3.6758 -0.763 -0.449 0.466 94 96 42
-8.5657 91.8678 4.0835 0.416 -0.126 0.901 65 68 37
-6.1090 96.4668 3.6533 0.772 -0.527 0.355 69 70 36
-5.7588 97.0931 3.5946 0.770 -0.535 0.347 69 70 36
-5.4709 95.8697 3.7030 0.576 -0.382 0.723 71 74 43
-3.4878 98.6955 3.4357 -0.225 -0.848 0.480 63 68 38
-3.3241 98.7490 3.4298 -0.320 -0.800 0.507 69 72 45
-3.4447 98.0115 3.4970 -0.074 -0.956 0.284 70 73 46
-3.2992 98.0175 3.4955 -0.050 -0.933 0.356 70 73 46
-1.0235 99.8482 3.3160 0.320 -0.843 -0.433 67 72 42
-80.0933 114.0665 2.3744 0.256 -0.890 0.378 101 137 137
-80.2126 114.6472 2.3218 -0.422 -0.616 0.665 101 141 142
-79.9958 114.5546 2.3289 -0.466 -0.556 0.688 98 139 144
-49.4556 94.5148 3.9735 0.037 -0.858 -0.513 115 145 146
-49.3301 94.5607 3.9684 0.064 -0.866 -0.495 115 146 147
-33.1143 83.9797 4.8362 -0.508 -0.008 0.861 15 14 10
-32.8727 83.3636 4.8912 0.941 -0.338 -0.034 14 13 9
-32.6443 83.9737 4.8337 0.939 -0.342 -0.040 14 13 9
-32.0553 84.9033 4.7445 0.046 -0.999 0.018 15 14 9
-31.9349 85.2399 4.7128 0.152 -0.986 -0.065 15 14 9
-31.5743 85.3818 4.6974 0.703 -0.698 -0.140 18 15 10
-31.4529 85.5181 4.6841 0.561 -0.820 -0.113 18 15 10
-31.3352 85.3101 4.7025 0.642 -0.471 0.605 18 15 10
-31.2097 85.7029 4.6656 0.496 -0.864 -0.090 18 15 10
-28.2893 88.3291 4.4055 0.671 -0.646 0.362 12 16 11
-28.1550 88.4842 4.3904 0.528 -0.812 0.250 11 16 10
-28.0127 88.7672 4.3635 0.456 -0.610 0.648 9 13 8
-27.8805 88.8659 4.3536 0.522 -0.486 0.701 9 13 8
-27.6264 86.9729 4.5258 0.281 -0.856 0.434 11 11 4
-27.5670 79.5606 5.2065 -0.097 -0.087 0.991 16 13 4
-26.3965 88.4674 4.3806 -0.003 -0.825 -0.566 10 13 4
-24.6730 89.3128 4.2919 0.404 -0.915 -0.002 10 13 3
-23.3253 100.7021 3.2368 0.200 -0.973 -0.118 10 12 3
-22.9923 98.4482 3.4418 -0.815 -0.101 0.570 14 9 2
-22.5553 98.4991 3.4343 -0.682 0.041 0.730 16 11 3
-22.5870 94.7979 3.7745 -0.959 -0.220 0.177 19 17 0
-22.5620 93.9140 3.8556 -0.922 -0.182 0.342 20 18 0
-22.5737 92.7690 3.9608 -0.750 -0.430 -0.503 19 16 0
-22.4759 92.4951 3.9854 -0.689 -0.563 -0.456 17 14 0
-22.3626 92.3460 3.9983 -0.689 -0.563 -0.456 22 20 2
-22.1464 91.9833 4.0303 -0.714 -0.635 -0.293 94 92 67
-22.0326 91.8501 4.0418 -0.714 -0.634 -0.296 106 103 61
-7.2763 96.2957 3.5384 0.727 -0.683 -0.075 54 57 26
-6.9245 96.5166 3.5158 0.740 -0.669 -0.066 59 62 31
-6.6818 96.8317 3.4853 0.725 -0.679 -0.114 58 61 30
-6.5619 96.7662 3.4905 0.691 -0.711 0.131 59 62 31
-3.5557 98.4679 3.3149 0.054 -0.653 0.755 60 65 35
-3.5534 98.0717 3.3512 0.047 -0.609 0.792 59 62 35
-3.4698 97.9053 3.3660 -0.073 -0.955 0.289 60 63 36
-3.2931 97.9975 3.3564 -0.064 -0.926 0.373 60 63 36
-1.6364 99.7411 3.1855 0.442 -0.878 -0.182 60 64 37
-1.5449 99.2074 3.2340 0.752 -0.450 0.482 59 63 36
-1.0693 99.6906 3.1865 0.509 -0.817 0.270 65 70 40
-0.0330 100.8486 3.0735 0.797 -0.551 -0.247 65 69 44
0.3090 101.3439 3.0258 0.786 -0.555 -0.273 65 69 44
1.2685 102.2526 2.9361 0.696 -0.712 0.091 67 71 46
1.4945 102.4399 2.9174 0.610 -0.787 0.087 66 70 45
-80.0851 114.0000 2.2123 0.256 -0.890 0.378 93 130 134
-80.1540 114.4791 2.1679 -0.421 -0.613 0.668 93 135 139
-79.9060 114.3231 2.1809 -0.421 -0.613 0.668 104 149 155
-56.7920 117.4892 1.7354 -0.375 -0.090 0.923 114 146 149
-56.4662 116.8834 1.7900 -0.377 -0.093 0.922 115 146 150
-47.2269 95.5842 3.7247 0.291 -0.957 0.002 114 138 113
-47.0595 95.4306 3.7380 0.370 -0.925 -0.082 111 123 88
-32.2984 86.9256 4.4391 0.407 -0.395 0.824 15 14 9
-32.0517 87.5498 4.3791 0.326 -0.392 0.860 15 14 9
-31.3374 85.1678 4.5975 0.645 -0.486 0.590 18 14 11
-31.2227 84.8186 4.6295 0.336 -0.528 0.780 18 14 11
-31.1040 84.7916 4.6313 0.264 -0.674 0.690 19 15 11
-30.9877 84.6380 4.6449 0.916 -0.299 0.266 19 15 11
-27.8258 87.6992 4.3379 0.173 -0.959 0.225 21 23 8
-27.6966 87.7741 4.3300 0.183 -0.961 0.207 21 23 8
-27.7255 80.3956 5.0211 0.888 -0.366 0.280 24 22 5
-26.6649 88.2292 4.2807 0.119 -0.799 -0.589 30 29 10
-26.5379 88.2501 4.2780 0.119 -0.799 -0.589 32 33 14
-26.3934 88.4826 4.2553 -0.026 -0.806 -0.591 33 34 15
-26.2959 88.1452 4.2862 -0.015 -0.889 -0.458 33 34 15
-26.3016 86.6186 4.4292 0.791 -0.605 0.089 33 34 16
-25.3785 91.2832 3.9865 0.382 -0.615 -0.689 36 34 17
-24.9623 91.5239 3.9613 0.713 -0.548 -0.436 35 37 18
-24.6835 89.1878 4.1782 0.411 -0.911 0.027 46 47 28
-23.3200 100.7211 3.0895 0.200 -0.973 -0.118 47 47 29
-23.3324 99.2516 3.2272 0.789 -0.553 0.268 49 48 28
-22.5529 92.9012 3.8168 -0.750 -0.430 -0.503 59 59 22
-22.4423 92.7238 3.8326 -0.747 -0.448 -0.492 64 65 27
-22.3350 92.5254 3.8505 -0.747 -0.448 -0.492 73 73 36
-22.0129 91.9641 3.9010 -0.745 -0.449 -0.493 115 113 65
-7.0053 96.2303 3.4047 0.725 -0.689 0.016 54 58 25
-6.9371 96.0082 3.4251 0.067 -0.832 0.550 53 56 25
-6.5724 96.6982 3.3581 0.682 -0.723 0.109 53 56 25
-3.8022 97.7396 3.2427 0.006 -0.696 0.718 50 55 25
-3.6622 97.7314 3.2426 -0.004 -0.700 0.714 55 58 29
-3.5668 97.5991 3.2544 0.112 -0.928 0.355 55 58 31
-3.4179 97.6161 3.2518 0.112 -0.928 0.355 55 58 31
-3.2689 97.6331 3.2493 0.112 -0.928 0.355 56 59 32
-3.1194 97.6514 3.2466 0.237 -0.956 0.172 57 60 33
-1.4948 99.3025 3.0815 0.823 -0.512 0.246 53 57 30
-1.1450 99.8391 3.0290 0.823 -0.512 0.246 55 59 32
-1.0631 99.6690 3.0444 0.512 -0.815 0.272 55 60 30
0.6055 100.9216 2.9164 0.602 -0.366 0.709 56 60 35
-80.0769 113.9335 2.0504 0.256 -0.890 0.378 83 124 128
-80.0694 114.2590 2.0193 -0.421 -0.613 0.668 83 128 134
-79.8219 114.1036 2.0325 -0.421 -0.613 0.668 111 160 167
-56.0381 115.0909 1.7845 -0.377 -0.093 0.922 109 144 150
-48.8535 94.7825 3.6754 0.159 -0.743 -0.650 119 158 165
-48.3533 93.7214 3.7734 -0.497 -0.817 -0.293 114 152 160
-47.0801 95.4936 3.5961 0.297 -0.933 -0.203 111 123 90
-35.7477 92.1838 3.8386 -0.793 -0.344 0.503 101 103 51
-35.2865 90.6822 3.9789 -0.786 -0.279 0.551 33 32 7
-35.1385 90.2338 4.0207 -0.776 -0.275 0.568 17 15 0
-34.8591 89.6492 4.0746 -0.771 -0.636 -0.045 20 15 8
-33.8173 83.7671 4.6290 0.455 -0.447 0.770 13 12 11
-33.7027 83.8802 4.6175 0.131 -0.813 0.567 13 12 11
-33.5826 83.7567 4.6285 0.302 -0.800 0.518 13 12 11
-32.4106 83.7448 4.6221 0.834 -0.472 0.287 18 18 9
-31.4691 84.0925 4.5828 0.177 -0.984 -0.009 26 23 16
-31.3506 84.1463 4.5769 0.225 -0.973 -0.046 26 23 16
-29.6290 86.0163 4.3874 -0.709 -0.651 0.270 37 40 15
-29.4997 86.2184 4.3673 -0.217 -0.919 0.329 37 40 15
-29.3704 86.4028 4.3488 0.503 -0.703 0.503 37 40 15
-29.2454 86.4726 4.3414 0.608 -0.701 0.372 37 40 15
-29.1163 86.6283 4.3257 0.520 -0.516 0.681 42 44 19
-28.8610 86.8426 4.3036 0.341 -0.176 0.923 42 45 20
-28.7267 87.0711 4.2809 0.371 -0.178 0.911 43 44 19
-28.6032 87.0759 4.2797 0.610 -0.589 0.531 47 48 22
-28.4655 87.3464 4.2530 0.748 -0.595 0.295 48 49 23
-27.1171 83.9501 4.5683 0.103 -0.791 -0.603 60 61 29
-26.3387 87.6129 4.2138 -0.019 -0.934 -0.356 66 64 35
-26.3170 86.4154 4.3279 0.756 -0.644 -0.112 66 65 36
-25.3221 91.8648 3.8016 0.474 -0.588 -0.656 69 66 37
-24.8482 88.7989 4.0910 0.382 -0.881 -0.279 73 72 42
-24.7187 88.8279 4.0874 0.439 -0.894 -0.094 73 71 41
-23.3134 100.7527 2.9407 0.212 -0.970 -0.121 73 71 41
-3.5515 97.6050 3.1132 0.035 -0.752 0.658 49 52 25
-0.8688 99.7557 2.8907 0.321 -0.809 0.492 52 56 29
-0.4428 100.0978 2.8553 0.668 -0.490 0.559 52 56 31
-86.4220 119.0561 1.4254 -0.740 -0.549 0.388 91 106 66
-80.1745 114.0784 1.8686 -0.336 -0.750 0.569 75 118 127
-79.9590 113.9874 1.8760 -0.336 -0.750 0.569 77 123 133
-79.7307 113.8698 1.8860 -0.467 -0.623 0.627 117 167 178
-56.7632 111.2538 1.9913 0.726 -0.399 0.560 114 143 150
-56.5515 115.7110 1.5568 -0.330 -0.941 0.077 121 157 166
-47.4280 95.8181 3.4306 0.249 -0.968 -0.033 109 137 126
-47.2791 95.7639 3.4349 0.422 -0.894 -0.149 107 131 109
-47.0894 95.4977 3.4595 0.318 -0.927 -0.197 111 123 91
-35.2792 90.4530 3.8731 -0.786 -0.279 0.551 45 44 14
-32.9934 83.3960 4.5440 -0.494 -0.583 -0.645 35 36 19
-32.5265 83.3182 4.5485 0.738 -0.675 -0.021 39 41 22
-32.1772 84.5501 4.4266 0.773 -0.549 0.318 40 41 22
-31.5788 85.0972 4.3695 0.529 -0.847 0.059 47 45 27
-31.1068 84.6652 4.4084 0.071 -0.997 0.026 49 48 30
-26.3082 87.9527 4.0579 0.119 -0.940 -0.320 90 87 48
-24.7931 93.1930 3.5389 0.776 -0.631 -0.022 90 87 46
-21.9916 92.0602 3.6308 -0.726 -0.440 -0.529 113 112 58
-3.4675 97.4058 2.9914 0.168 -0.497 0.851 45 48 21
-80.1308 113.9409 1.7131 -0.336 -0.750 0.569 69 113 123
-79.9145 113.8479 1.7209 -0.487 -0.713 0.505 76 121 137
-55.2262 101.4622 2.7859 0.565 -0.817 -0.114 118 149 152
-56.2062 114.2766 1.5245 -0.190 -0.123 0.974 131 165 177
-53.4871 116.7516 1.2620 0.520 -0.045 0.853 92 136 145
-47.2770 95.7091 3.3034 0.406 -0.897 0.173 107 131 111
-35.2742 90.2762 3.7629 -0.775 -0.292 0.560 67 67 31
-33.5915 84.0141 4.3715 -0.439 -0.671 0.597 48 51 24
-32.7635 83.6222 4.4049 -0.350 -0.869 -0.351 51 56 25
-32.6443 83.3392 4.4321 0.731 -0.648 -0.216 52 56 24
-31.5795 85.0885 4.2521 0.529 -0.847 0.059 73 74 41
-31.4614 84.9270 4.2673 -0.141 -0.959 -0.246 73 73 42
-30.9874 84.7125 4.2855 -0.199 -0.912 -0.358 82 83 51
-27.9353 82.2199 4.5122 0.072 -0.894 0.442 93 97 44
-23.2158 98.9036 2.8310 -0.596 -0.793 -0.126 101 102 47
-22.5426 92.8941 3.4212 -0.786 -0.614 0.068 107 110 57
-22.1458 92.8551 3.4225 -0.834 -0.552 0.022 108 111 58
-7.4605 94.7139 3.1432 -0.372 -0.927 -0.045 66 69 38
-3.9557 97.2000 2.8745 0.743 -0.584 0.327 54 59 29
-3.7251 97.4463 2.8486 0.704 -0.632 0.323 51 54 27
-3.6023 97.3911 2.8533 0.108 -0.765 0.635 52 55 28
-3.4437 97.0435 2.8866 0.809 -0.458 0.368 50 52 28
-80.0866 113.8025 1.5581 -0.364 -0.755 0.546 70 113 127
-79.8570 113.6827 1.5687 -0.509 -0.697 0.505 77 122 141
-79.4995 113.3050 1.6044 -0.680 -0.626 0.382 118 167 186
-59.1114 110.6819 1.7358 -0.236 -0.647 0.724 118 150 150
-58.5505 109.8778 1.8131 -0.156 -0.716 -0.681 118 150 151
-57.4334 107.0965 2.0859 0.505 -0.257 0.824 119 151 151
-57.1516 108.3670 1.9561 0.652 -0.365 0.664 119 151 160
-56.9993 115.3164 1.2553 -0.039 -0.394 0.918 126 161 173
-56.0561 112.9485 1.4876 -0.340 -0.136 0.930 124 162 173
-55.5515 118.7742 0.8977 -0.593 -0.560 -0.579 104 151 159
-55.2850 118.3965 0.9340 -0.017 -0.853 -0.522 99 143 152
-53.9743 114.1992 1.3481 0.600 -0.174 0.781 90 134 143
-48.0925 93.6335 3.3808 -0.396 -0.824 -0.404 80 124 134
-35.2720 90.1668 3.6464 -0.751 -0.335 0.569 94 95 53
-34.8773 89.9477 3.6659 -0.275 -0.545 0.792 74 74 38
-34.0786 84.5082 4.2085 0.346 -0.505 0.791 65 68 28
-33.9612 84.5583 4.2026 0.180 -0.489 0.853 71 73 33
-33.8335 84.2037 4.2375 -0.617 -0.463 0.637 70 72 32
-33.7119 84.0578 4.2514 -0.604 -0.468 0.646 70 72 32
-33.5915 83.9391 4.2626 -0.422 -0.578 0.699 70 73 32
-33.4733 83.9150 4.2642 0.905 -0.369 0.212 81 84 41
-33.2382 83.9288 4.2613 0.612 -0.338 0.715 88 91 47
-33.1201 83.8991 4.2635 0.579 -0.214 0.786 90 93 49
-33.0041 84.0270 4.2499 -0.704 -0.538 -0.462 86 89 46
-32.6447 83.2408 4.3267 -0.032 -0.999 0.028 87 89 45
-32.5287 83.3260 4.3174 0.534 -0.841 0.084 95 99 52
-31.5829 84.7740 4.1654 -0.077 -0.958 -0.276 100 101 57
-31.4614 84.9845 4.1434 -0.117 -0.959 -0.256 100 101 57
-30.9874 84.7325 4.1657 -0.227 -0.898 -0.376 99 100 56
-30.8679 84.7485 4.1634 0.129 -0.941 -0.313 99 101 57
-30.1564 84.6186 4.1718 0.734 -0.660 -0.163 97 99 57
-27.6287 88.7518 3.7391 0.471 -0.815 0.339 103 101 46
-27.2373 85.4624 4.0678 0.946 -0.295 0.137 100 104 43
-27.1515 84.9981 4.1140 -0.047 -0.967 -0.252 100 104 43
-26.3115 87.8671 3.8196 0.204 -0.926 -0.318 107 102 48
-24.5460 90.3859 3.5545 0.502 -0.630 0.592 106 101 44
-23.3356 94.1110 3.1715 -0.750 -0.649 -0.131 103 104 45
-23.1598 94.4458 3.1367 -0.835 -0.030 0.550 103 104 45
-22.5397 91.8620 3.3928 0.091 -0.927 -0.364 112 112 60
-9.2975 95.9222 2.8977 -0.767 -0.473 0.434 106 109 54
-2.6235 97.3019 2.7153 0.755 -0.424 0.500 58 60 36
-80.0752 113.7296 1.3969 -0.513 -0.707 0.487 71 114 129
-79.8156 113.5497 1.4136 -0.530 -0.705 0.471 79 123 145
-79.4521 113.1599 1.4512 -0.680 -0.626 0.382 123 171 192
-62.3661 118.7249 0.7694 0.110 -0.992 -0.066 117 148 151
-57.2885 102.3181 2.4175 0.688 -0.713 0.137 117 148 152
-57.1988 102.5212 2.3961 0.678 -0.686 0.263 117 148 153
-59.2627 110.5854 1.5832 -0.206 -0.676 0.707 121 153 161
-58.8742 110.3815 1.6016 -0.049 -0.749 0.661 120 153 164
-57.0687 114.8602 1.1309 -0.172 -0.601 0.781 123 168 177
-55.8046 111.8993 1.4261 -0.340 -0.136 0.930 120 167 177
-34.3493 85.4752 3.9937 -0.584 -0.317 0.747 94 96 48
-34.2196 85.1727 4.0239 -0.607 -0.245 0.756 96 98 50
-34.0788 84.4514 4.0969 0.470 -0.388 0.793 98 100 52
-33.9622 84.5258 4.0885 0.436 -0.386 0.813 93 96 47
-33.1233 84.0256 4.1343 0.731 -0.616 0.294 101 103 52
-31.9419 84.6422 4.0634 0.750 -0.617 0.236 95 99 44
-30.9900 84.6053 4.0609 0.013 -0.935 -0.354 100 101 50
-30.2102 86.9062 3.8201 0.766 -0.391 0.510 101 103 56
-26.3439 90.5464 3.4218 -0.383 -0.817 0.431 111 107 49
-26.2403 90.2272 3.4538 -0.620 -0.634 -0.463 113 108 51
-24.9864 92.5035 3.2124 -0.817 -0.406 0.410 113 108 51
-23.2656 93.5213 3.0969 -0.857 -0.049 0.513 108 109 48
-23.1171 92.5202 3.1985 -0.824 -0.030 0.566 108 109 49
-6.6824 94.4992 2.8885 0.828 -0.515 -0.222 55 58 31
-3.7833 96.8164 2.6321 -0.073 -0.658 0.749 59 61 39
-3.6322 96.8422 2.6285 -0.061 -0.667 0.743 59 61 39
-3.5229 96.7534 2.6369 0.296 -0.848 0.439 60 62 40
-3.2692 97.0591 2.6039 0.836 -0.486 0.254 64 66 44
-3.1863 96.8983 2.6198 0.318 -0.640 0.700 66 68 46
-3.0180 96.9695 2.6114 0.445 -0.531 0.721 65 67 45
-0.4814 99.0945 2.3771 -0.181 -0.953 -0.241 59 63 38
-80.0329 113.5953 1.2420 -0.500 -0.737 0.454 72 115 131
-79.7779 113.4242 1.2581 -0.631 -0.676 0.380 77 121 143
-79.0711 112.6823 1.3309 -0.690 -0.634 0.349 116 168 184
-81.1925 119.8698 0.5955 0.112 -0.991 0.079 133 189 200
-78.9684 116.7097 0.9104 0.265 -0.867 -0.421 130 179 189
-79.0172 117.1830 0.8613 -0.046 -0.981 0.188 132 179 189
-62.1005 115.4773 0.9285 0.574 -0.817 0.058 116 149 155
-59.4246 110.5256 1.4272 -0.044 -0.709 0.704 129 164 173
-58.8227 110.1533 1.4620 -0.039 -0.764 0.644 128 164 176
-58.7173 110.3567 1.4401 -0.097 -0.877 0.471 131 167 179
-55.3336 110.6346 1.3890 0.147 -0.090 0.985 89 139 146
-55.4535 119.0145 0.5163 -0.114 -0.977 -0.180 91 138 146
-53.8979 114.5121 0.9754 0.562 -0.637 0.527 93 140 148
-53.7542 114.6387 0.9613 0.552 -0.636 0.539 93 140 147
-34.2198 85.1179 3.9109 -0.550 -0.314 0.774 101 99 47
-34.0583 83.6739 4.0603 0.430 -0.148 0.891 101 99 47
-31.6920 86.4233 3.7582 0.406 -0.913 0.039 106 106 50
-30.4840 85.8075 3.8145 0.826 -0.272 0.494 107 107 52
-28.0308 86.2600 3.7513 0.674 -0.735 0.075 111 110 53
-5.9480 95.8247 2.6098 0.811 -0.522 -0.263 45 48 21
-3.2381 97.1077 2.4584 -0.144 -0.989 0.030 53 55 33
-3.0840 96.7549 2.4941 0.445 -0.531 0.721 53 55 31
-0.2836 99.1886 2.2221 -0.027 -0.860 0.510 58 62 37
1.6657 89.4340 3.2262 -0.070 -0.762 0.643 45 51 25
-79.7760 113.3706 1.0955 -0.690 -0.642 0.335 87 132 150
-79.4783 113.1129 1.1209 -0.609 -0.699 0.376 136 185 203
-81.1831 119.7969 0.4235 0.153 -0.986 -0.072 138 191 201
-80.6714 119.1081 0.4931 -0.603 -0.523 0.603 134 187 197
-78.9897 116.7027 0.7371 0.263 -0.868 -0.421 116 164 171
-61.8033 109.6870 1.3682 0.562 -0.564 0.605 115 149 151
-61.6764 109.7998 1.3554 0.562 -0.564 0.605 115 150 152
-61.5509 109.9179 1.3421 0.565 -0.562 0.604 115 150 152
-60.2485 111.0218 1.2165 -0.184 -0.625 0.758 133 168 175
-59.9405 110.5482 1.2647 -0.127 -0.770 0.626 134 169 177
-59.7255 110.3800 1.2811 -0.027 -0.746 0.665 133 168 177
-59.5495 110.3415 1.2841 -0.104 -0.710 0.696 131 167 177
-59.3783 110.3185 1.2854 -0.047 -0.696 0.716 129 167 176
-59.1757 110.1884 1.2978 -0.192 -0.643 0.741 128 167 175
-59.0160 110.2036 1.2952 -0.138 -0.669 0.731 128 166 177
-57.0090 110.6796 1.2316 -0.541 -0.840 -0.035 114 156 168
-47.4159 96.9649 2.6227 -0.333 -0.942 -0.044 107 129 109
-34.4701 85.3617 3.7679 -0.619 -0.322 0.716 104 101 48
-34.3438 85.1799 3.7864 -0.619 -0.320 0.717 104 101 48
-34.2174 84.9740 3.8074 -0.615 -0.320 0.721 104 101 48
-7.7143 95.5135 2.5162 -0.340 -0.812 0.474 89 93 61
-7.5975 95.4424 2.5230 -0.483 -0.799 0.359 199 202 171
-5.8455 95.6790 2.4864 0.263 -0.073 0.962 45 48 21
-2.7526 98.7917 2.1362 0.794 -0.448 0.411 45 47 25
-2.3980 99.3619 2.0734 0.794 -0.448 0.411 43 45 23
-0.9259 99.7635 2.0212 0.831 -0.524 0.188 45 49 22
-0.1692 99.4415 2.0503 0.418 -0.866 0.275 47 51 24
-3.9269 76.7369 4.4821 0.372 -0.533 -0.760 46 49 22
-86.3381 118.5848 0.4082 -0.504 -0.695 0.512 94 106 68
-79.7420 113.2526 0.9397 -0.690 -0.642 0.335 84 130 150
-79.4482 113.0025 0.9647 -0.609 -0.699 0.376 136 185 204
-79.0557 112.5522 1.0107 -0.690 -0.642 0.335 123 176 188
-80.6678 119.0476 0.3211 -0.606 -0.565 0.560 122 173 181
-78.9904 116.6523 0.5683 0.235 -0.889 -0.392 113 158 162
-78.8234 116.6696 0.5653 0.216 -0.892 -0.396 113 157 160
-61.9812 109.1843 1.2615 0.220 -0.763 0.607 113 148 151
-61.8884 109.3978 1.2379 0.285 -0.652 0.703 116 152 155
-61.7328 109.4198 1.2345 0.576 -0.662 0.480 119 156 160
-61.6129 109.5531 1.2193 0.409 -0.641 0.649 120 157 162
-61.8959 115.2698 0.6050 0.612 -0.738 0.285 128 168 177
-60.1840 110.7581 1.0800 -0.174 -0.648 0.742 128 167 176
-59.5058 110.1441 1.1418 -0.354 -0.620 0.701 124 165 175
-59.3371 110.1287 1.1423 -0.065 -0.537 0.841 121 164 173
-59.1261 109.9692 1.1581 -0.242 -0.623 0.744 121 164 173
-58.9621 109.9687 1.1571 -0.184 -0.620 0.763 122 164 173
-58.8133 110.0205 1.1506 0.358 -0.536 0.765 123 165 174
-34.4290 87.7389 3.3921 -0.581 -0.788 0.204 108 105 52
-34.3023 87.6768 3.3980 -0.654 -0.655 0.379 108 105 52
-34.0633 83.7193 3.8230 -0.396 -0.380 0.836 108 105 52
-33.9425 83.5985 3.8352 -0.518 -0.365 0.773 109 106 53
-7.7319 95.4227 2.3884 -0.328 -0.806 0.492 85 89 54
-7.6084 95.3728 2.3930 -0.480 -0.798 0.364 215 219 184
5.2329 107.0067 1.0546 0.835 -0.460 0.304 49 53 26
5.8356 108.0525 0.9379 0.838 -0.461 0.293 49 53 28
6.4178 109.0411 0.8275 0.838 -0.461 0.293 49 53 28
-1.3492 81.8127 3.8135 -0.783 -0.455 -0.423 47 50 21
-79.4063 112.8688 0.8112 -0.619 -0.686 0.383 137 184 205
-79.8836 119.2343 0.1169 -0.153 -0.575 0.804 116 156 157
-64.7436 113.9141 0.6001 0.368 -0.917 -0.152 115 151 155
-64.4606 113.5826 0.6346 0.338 -0.940 -0.053 114 152 157
-64.2719 113.5278 0.6393 0.415 -0.907 -0.073 114 153 157
-64.1245 113.5959 0.6309 0.415 -0.907 -0.073 114 153 156
-63.9104 113.4644 0.6439 0.315 -0.929 -0.194 119 159 161
-60.3354 107.0171 1.3268 -0.072 -0.995 -0.069 124 167 173
-59.6826 110.1362 0.9807 -0.003 -0.669 0.743 120 162 174
-59.4658 109.9594 0.9987 -0.354 -0.620 0.701 115 160 171
-59.2857 109.9049 1.0035 -0.065 -0.537 0.841 110 156 165
-59.0862 109.7832 1.0155 -0.242 -0.623 0.744 111 157 165
-58.9039 109.7193 1.0213 -0.242 -0.623 0.744 111 157 165
-58.3346 110.0164 0.9850 0.363 -0.924 0.122 97 144 152
-48.0232 95.0420 2.5578 0.065 -0.692 0.719 67 112 119
-7.6014 98.0771 1.9590 0.524 -0.724 0.449 172 177 136
-7.7496 95.3314 2.2609 -0.330 -0.806 0.492 95 100 60
-7.6199 95.3015 2.2633 -0.494 -0.784 0.376 204 209 168
-5.8369 94.8189 2.3044 -0.707 -0.520 0.480 54 57 30
-4.7732 95.0861 2.2681 0.579 -0.311 0.754 54 58 31
-4.0807 95.4630 2.2223 0.675 -0.394 0.623 52 54 33
-1.7852 97.8212 1.9488 0.656 -0.505 0.560 42 46 18
-1.3665 81.9853 3.6812 -0.781 -0.625 0.012 54 57 28
-1.2803 81.9249 3.6872 -0.836 -0.538 0.111 54 57 31
-0.9169 82.1967 3.6550 -0.875 -0.471 -0.110 54 57 32
-4.9245 73.3735 4.6482 -0.554 -0.674 -0.489 53 55 30
-86.1564 118.1434 0.1006 -0.706 -0.664 0.248 94 106 66
-79.3305 112.6672 0.6654 -0.690 -0.642 0.335 138 183 197
-81.2765 119.8298 -0.1194 0.190 -0.982 -0.016 109 153 154
-64.0147 113.7259 0.4464 0.559 -0.794 -0.239 125 168 173
-63.8941 113.8766 0.4288 0.803 -0.592 -0.069 129 172 178
-63.7745 114.0321 0.4107 0.807 -0.591 -0.015 129 171 177
-61.4157 107.3616 1.1379 -0.533 -0.841 0.093 129 171 178
-61.1179 106.9369 1.1832 -0.092 -0.894 0.438 125 169 175
-61.5689 109.8251 0.8646 -0.049 -0.912 0.407 124 168 177
-61.3293 109.5870 0.8895 0.158 -0.633 0.758 124 168 177
-58.0299 103.5467 1.5403 -0.020 -0.970 -0.242 108 154 169
-57.8740 103.5356 1.5405 0.159 -0.776 -0.611 107 152 167
-59.0762 109.1465 0.9237 -0.028 -0.254 0.967 97 145 155
-58.5991 113.8943 0.3919 -0.268 -0.691 -0.671 96 149 157
-53.1458 116.4110 0.0756 -0.852 -0.189 0.488 82 131 136
-48.1535 94.9640 2.4308 0.017 -0.697 0.717 72 119 127
-48.0165 94.9660 2.4297 0.017 -0.697 0.717 60 104 112
-47.8671 94.9073 2.4352 0.020 -0.762 0.647 73 113 120
-47.7195 94.8567 2.4399 -0.226 -0.697 0.681 109 146 153
-7.7659 95.2447 2.1329 -0.335 -0.799 0.498 99 105 61
-7.6231 95.2562 2.1307 -0.441 -0.737 0.512 208 214 168
-3.7679 95.5190 2.0760 0.663 -0.546 -0.512 55 57 35
-86.0933 117.9743 -0.0579 -0.706 -0.664 0.247 95 106 64
-79.2970 112.5505 0.5107 -0.690 -0.642 0.335 113 155 155
-66.6414 113.8636 0.2784 -0.739 -0.314 0.596 118 150 150
-64.6326 112.9879 0.3642 0.273 -0.831 0.484 126 163 171
-64.5438 113.2242 0.3369 0.485 -0.819 0.307 127 166 174
-64.4013 113.3048 0.3268 0.485 -0.819 0.307 127 167 175
-64.2586 113.3855 0.3168 0.485 -0.819 0.307 125 168 175
-63.8883 113.2953 0.3245 -0.290 -0.865 0.410 122 167 173
-63.8683 113.7470 0.2733 0.744 -0.666 0.062 120 165 171
-61.7576 113.0028 0.3435 0.631 -0.571 0.526 108 156 168
-61.6149 115.3275 0.0796 0.774 -0.609 0.174 95 142 158
-52.2882 112.3419 0.3556 -0.831 -0.209 0.516 86 133 139
-47.8600 94.8290 2.3076 -0.040 -0.716 0.697 82 121 126
-46.9860 94.5686 2.3313 -0.846 -0.531 0.052 117 139 121
-9.8157 94.8586 2.0525 -0.839 -0.402 0.367 110 112 62
-7.7768 95.1750 2.0033 -0.377 -0.747 0.547 104 110 65
-7.6530 95.1270 2.0079 -0.429 -0.735 0.525 212 218 170
-7.1907 94.8394 2.0373 -0.797 -0.524 0.301 125 131 85
-1.5479 97.9907 1.6435 0.616 -0.406 0.675 46 52 20
-67.6130 114.1299 0.0842 -0.872 -0.423 0.245 114 151 155
-65.6926 112.1112 0.3034 0.698 -0.523 0.488 127 166 171
-64.6204 112.9009 0.2056 0.276 -0.823 0.497 126 166 175
-64.5728 113.2581 0.1642 0.320 -0.867 0.381 125 167 176
-64.3980 113.2436 0.1647 0.446 -0.832 0.329 123 168 177
-64.2530 113.3176 0.1552 0.446 -0.832 0.329 122 168 178
-63.8958 113.2661 0.1588 -0.323 -0.874 0.362 119 166 174
-63.8770 113.7217 0.1063 0.744 -0.666 0.062 118 165 173
-63.7364 113.8130 0.0949 0.766 -0.643 0.026 118 165 173
-62.3818 114.3994 0.0185 -0.673 -0.583 0.455 100 150 161
-62.0799 113.9833 0.0643 -0.680 -0.578 0.451 98 147 161
-61.9080 113.9817 0.0634 0.190 -0.688 0.701 94 143 158
-61.9102 114.5436 -0.0012 0.666 -0.649 0.367 94 143 158
-61.7770 114.6713 -0.0167 0.666 -0.649 0.367 95 144 158
-61.0291 113.9074 0.0661 0.103 -0.898 -0.428 98 145 161
-53.2500 106.4386 0.8728 0.345 -0.691 0.636 96 143 151
-52.1165 111.4857 0.2853 -0.831 -0.209 0.516 83 127 132
-47.1726 94.7795 2.1723 -0.614 -0.764 0.196 122 148 143
-9.8402 94.7397 1.9293 -0.841 -0.410 0.354 111 111 61
-7.6195 97.9090 1.5504 0.549 -0.833 0.070 158 160 121
-6.6906 98.5671 1.4686 0.445 -0.877 0.180 108 114 69
-2.8588 96.7603 1.6508 0.502 -0.577 -0.644 99 106 69
-1.6440 97.7032 1.5344 0.668 -0.431 0.607 71 78 36
-1.3312 97.7678 1.5249 0.536 -0.795 -0.284 73 80 40
-1.0902 98.0169 1.4947 0.444 -0.751 -0.489 70 76 36
-0.9366 98.0404 1.4909 0.560 -0.744 -0.363 62 68 30
9.3032 113.2256 -0.3220 0.793 -0.520 -0.319 46 50 22
-66.0883 112.2274 0.1253 -0.653 -0.400 0.643 125 169 174
-64.8407 112.9981 0.0271 -0.586 -0.730 0.351 119 163 174
-64.5995 112.7890 0.0499 0.208 -0.974 0.094 118 163 174
-64.5560 113.1573 0.0066 0.386 -0.748 0.539 112 158 168
-64.3995 113.1967 0.0010 0.352 -0.773 0.528 108 156 167
-64.2414 113.2318 -0.0042 0.361 -0.770 0.526 108 157 168
-64.0929 113.2956 -0.0126 0.361 -0.770 0.526 110 157 167
-63.8807 113.1695 0.0007 -0.294 -0.879 0.376 107 154 162
-62.3332 114.1923 -0.1289 -0.678 -0.585 0.446 102 152 163
-62.0469 113.8257 -0.0881 -0.680 -0.578 0.451 101 150 164
-61.9129 113.9452 -0.1029 0.126 -0.715 0.687 99 148 163
-61.9303 114.5562 -0.1741 0.669 -0.658 0.347 99 148 162
-53.3535 106.1629 0.7484 0.392 -0.880 0.269 99 149 156
-53.2246 106.2832 0.7335 0.344 -0.690 0.637 101 147 155
-52.5499 112.6677 -0.0160 -0.888 -0.327 0.324 114 155 157
-48.1219 94.6822 2.0534 -0.109 -0.678 0.727 125 163 167
-47.9901 94.7079 2.0496 -0.272 -0.707 0.653 123 161 163
-47.3116 94.0572 2.1210 -0.597 -0.651 0.469 119 151 146
-23.3782 91.2314 2.2917 0.561 -0.074 0.824 117 114 60
-23.4300 89.7291 2.4674 0.926 -0.353 0.135 116 113 59
-22.4340 89.4680 2.4912 0.943 -0.332 -0.001 116 115 58
-9.8278 94.7475 1.7913 -0.839 -0.381 0.390 111 110 62
-6.2900 98.8733 1.2863 0.752 -0.627 0.203 147 153 105
-5.6136 94.9233 1.7428 0.651 -0.668 -0.361 79 86 52
-1.7765 97.3212 1.4374 0.611 -0.388 0.690 103 111 61
-1.6316 97.3253 1.4360 0.518 -0.444 0.732 103 111 61
-1.4105 97.5262 1.4111 0.599 -0.716 0.358 104 112 64
-1.1881 97.7284 1.3860 0.609 -0.729 0.312 104 112 64
-3.9369 71.5467 4.4597 -0.647 -0.427 0.631 64 69 37
-85.8413 117.3519 -0.5178 -0.594 -0.583 0.555 94 107 64
-67.9285 112.1541 -0.0213 0.489 -0.350 0.799 113 146 159
-67.8086 112.2810 -0.0371 0.491 -0.352 0.797 120 154 164
-67.1907 112.8851 -0.1128 -0.460 -0.657 0.598 126 169 178
-65.7418 111.6799 0.0204 -0.611 -0.564 0.555 124 171 179
-65.3217 113.3545 -0.1808 -0.558 -0.741 0.374 110 158 168
-64.8581 112.9972 -0.1416 -0.551 -0.744 0.378 109 157 167
-64.5380 113.0534 -0.1504 0.386 -0.748 0.539 101 149 159
-64.0933 113.2453 -0.1761 0.612 -0.493 0.618 99 147 157
-53.2102 106.1739 0.5893 0.182 -0.598 0.781 101 144 155
-53.0285 106.0726 0.6001 0.323 -0.262 0.910 111 149 160
-48.8943 93.1849 2.0996 -0.274 -0.899 0.342 120 155 163
-52.5016 112.3903 -0.1520 -0.888 -0.328 0.322 122 159 159
-47.7345 94.0865 1.9850 -0.391 -0.406 0.826 124 153 150
-22.6489 88.7984 2.4445 0.941 -0.338 -0.018 113 116 65
-9.9300 94.3626 1.7004 -0.403 -0.534 0.743 112 109 64
-6.0305 99.1885 1.1027 0.768 -0.600 0.225 241 247 202
-6.5330 95.8880 1.4971 -0.446 -0.824 0.350 136 143 102
-5.9783 93.4409 1.7833 0.095 -0.975 0.201 77 87 52
-5.7007 93.8452 1.7336 0.178 -0.981 0.080 77 87 52
-5.4805 94.0819 1.7041 0.303 -0.946 -0.118 78 88 53
-5.2255 94.4146 1.6629 0.202 -0.979 -0.007 78 88 53
-2.5105 98.7933 1.1260 0.628 -0.548 0.553 99 106 62
-2.3036 96.2803 1.4224 0.471 -0.251 0.846 105 112 60
-69.1323 111.3276 -0.0813 -0.047 -0.799 -0.600 113 149 150
-67.8584 111.9196 -0.1611 0.535 -0.368 0.761 121 157 169
-67.7649 112.1155 -0.1852 0.559 -0.375 0.739 125 163 172
-66.4115 112.0904 -0.1913 -0.539 -0.320 0.779 119 166 174
-65.6771 111.4494 -0.1191 -0.602 -0.550 0.579 117 164 172
-64.9717 110.4046 0.0019 -0.378 -0.712 0.592 112 160 170
-65.1277 113.2344 -0.3374 -0.532 -0.697 0.481 101 149 159
-64.9024 113.0744 -0.3197 -0.532 -0.697 0.481 102 150 160
-64.6432 112.8139 -0.2901 -0.545 -0.759 0.356 101 149 159
-64.5164 112.9389 -0.3060 0.365 -0.774 0.518 99 147 157
-64.2587 113.1800 -0.3367 0.476 -0.696 0.537 99 147 157
-53.1631 105.9278 0.4615 0.021 -0.473 0.881 119 161 170
-48.9098 93.2123 1.9625 -0.059 -0.872 0.486 124 158 164
-25.5999 85.9125 2.6848 0.807 -0.386 0.446 101 107 58
-24.2514 92.8737 1.8385 -0.049 0.100 0.994 97 104 56
-24.3309 90.8862 2.0781 -0.132 0.100 0.986 94 99 51
-9.9544 94.2446 1.5782 -0.413 -0.533 0.738 111 108 63
-6.0470 99.0999 0.9681 0.722 -0.671 0.171 241 249 202
-6.3635 95.5175 1.4011 -0.618 -0.501 0.606 71 77 39
-71.3663 117.8021 -1.0229 -0.873 -0.456 0.170 121 160 163
-68.5671 111.5371 -0.2769 0.605 -0.725 -0.328 125 164 168
-68.5271 111.8646 -0.3171 0.598 -0.772 -0.213 126 166 170
-67.7172 111.4986 -0.2779 0.261 -0.179 0.949 125 165 173
-65.8003 110.8194 -0.2078 -0.578 -0.788 0.212 112 157 163
-65.5509 110.5880 -0.1812 -0.573 -0.791 0.216 106 153 161
-65.3273 110.4260 -0.1630 -0.864 -0.386 0.323 100 147 155
-65.0427 110.0921 -0.1241 0.745 -0.636 -0.201 96 143 151
-53.2135 106.0891 0.2854 0.277 -0.688 0.671 120 160 168
-47.1660 93.8790 1.7353 -0.506 -0.592 0.627 118 147 146
-46.6343 93.2355 1.8103 -0.321 -0.763 0.561 116 138 115
-28.6229 78.1328 3.5333 0.614 -0.177 0.769 113 111 65
-26.0459 85.0198 2.6754 0.809 -0.207 0.550 111 113 73
-25.5598 85.0582 2.6675 -0.798 -0.598 0.077 114 117 86
-21.4513 92.6376 1.7148 0.963 -0.267 -0.027 123 119 70
-9.9854 94.1039 1.4591 -0.413 -0.533 0.738 110 107 62
-6.0391 99.0873 0.8244 0.549 -0.787 0.281 241 248 204
-6.3808 95.4300 1.2731 -0.589 -0.511 0.626 70 76 38
-85.8729 116.9289 -0.9954 -0.594 -0.583 0.555 88 101 57
-68.6210 111.6252 -0.4542 0.599 -0.727 -0.335 121 164 170
-65.3866 110.0837 -0.2850 -0.556 -0.310 0.771 101 146 152
-65.1345 110.2990 -0.3133 -0.676 -0.689 0.261 99 146 154
-55.2600 109.1328 -0.2351 -0.479 -0.732 0.484 124 165 177
-53.6125 105.7379 0.1743 0.099 -0.604 0.790 125 163 174
-47.1490 93.7497 1.6158 -0.501 -0.600 0.623 115 144 143
-46.6380 93.2115 1.6790 -0.335 -0.734 0.590 113 135 112
-31.6006 72.4064 4.1551 -0.737 -0.516 -0.438 116 117 60
-29.9534 74.5200 3.8822 -0.672 -0.571 -0.471 112 112 56
-27.4736 87.0464 2.3141 -0.732 -0.680 -0.045 104 108 73
-25.5588 85.0439 2.5493 -0.794 -0.604 0.067 37 37 23
-25.5235 84.1956 2.6541 -0.039 0.102 0.994 37 37 24
-23.9140 85.6613 2.4618 0.105 0.017 0.994 14 8 2
-9.5911 95.4183 1.1572 -0.377 -0.424 0.823 111 108 63
-6.0418 99.0419 0.6846 0.542 -0.784 0.304 243 250 206
-5.6207 98.9857 0.6887 -0.892 -0.318 0.322 189 196 152
-6.5628 95.6905 1.1032 -0.444 -0.821 0.360 113 120 78
-6.4028 95.3285 1.1470 -0.594 -0.515 0.619 75 81 43
-6.2265 95.4373 1.1323 -0.322 -0.786 0.528 95 101 63
-6.2799 94.8643 1.2036 -0.815 -0.302 0.495 85 91 53
3.1450 107.4403 -0.4172 -0.553 -0.706 0.443 105 113 66
3.2525 107.3035 -0.4010 -0.546 -0.714 0.438 104 112 65
3.2947 107.0043 -0.3642 -0.712 -0.654 0.257 94 102 55
4.3971 106.5523 -0.3156 0.553 -0.782 0.288 99 106 65
-85.8072 116.7562 -1.1505 -0.399 -0.677 0.619 88 101 57
-85.5593 116.6239 -1.1355 -0.399 -0.677 0.619 96 107 64
-68.6523 111.6553 -0.6249 0.599 -0.729 -0.331 122 168 174
-66.1806 110.8521 -0.5406 -0.777 -0.537 0.328 97 146 153
-57.6055 105.9184 0.0217 0.273 -0.939 -0.208 111 161 170
-33.1306 92.3197 1.5659 0.175 0.046 0.983 106 108 60
-27.2533 86.6321 2.2410 -0.799 -0.589 -0.120 22 22 15
-21.4246 92.7625 1.4316 0.963 -0.267 -0.027 113 109 65
-6.0478 98.9861 0.5462 0.478 -0.810 0.339 243 251 204
-6.5793 95.6050 0.9746 -0.452 -0.820 0.351 118 125 83
-5.3620 98.8457 0.5592 0.600 -0.669 0.438 149 155 117
-6.2415 95.3569 1.0035 -0.322 -0.786 0.528 92 98 62
-6.2981 94.7749 1.0770 -0.814 -0.304 0.494 83 89 53
3.1039 107.2948 -0.5593 -0.532 -0.723 0.441 106 114 67
4.6070 106.6300 -0.4859 0.326 -0.826 0.461 100 107 65
-85.5842 116.6181 -1.3106 -0.185 -0.706 0.684 93 106 62
-75.3746 119.9489 -1.8039 -0.771 -0.516 -0.374 110 148 146
-72.6557 119.9882 -1.8272 -0.877 -0.463 0.128 113 160 170
-68.2711 110.2069 -0.6101 0.602 -0.753 -0.265 109 158 165
-68.2863 111.0943 -0.7231 -0.774 -0.384 0.504 110 159 166
-59.9752 108.9828 -0.5100 -0.017 -0.857 0.515 101 152 163
-59.8188 109.0044 -0.5138 -0.543 -0.787 0.293 108 158 169
-57.1248 101.6314 0.4077 0.558 -0.773 0.303 108 158 169
-56.8538 101.7279 0.3936 0.545 -0.766 0.341 116 164 175
-49.5546 94.0968 1.3170 -0.403 -0.733 0.548 122 158 157
-35.1549 89.5476 1.7997 -0.604 -0.537 0.588 115 115 56
-31.7250 82.9753 2.6142 0.720 -0.441 -0.536 120 122 75
-29.4256 77.1050 3.3469 -0.384 -0.698 -0.604 16 10 0
-28.5516 77.4819 3.2930 0.725 -0.246 0.644 10 13 5
-28.1651 78.4633 3.1653 0.678 -0.708 -0.200 26 26 22
-25.7519 83.0436 2.5653 0.129 -0.456 0.881 19 17 18
-25.3073 82.8155 2.5914 -0.134 -0.897 0.420 17 16 15
-6.0560 98.9238 0.4087 0.478 -0.810 0.339 242 248 201
-6.5852 95.5515 0.8420 -0.452 -0.820 0.351 123 130 88
-5.4265 98.6145 0.4439 0.489 -0.781 0.389 151 158 119
-6.2545 95.2826 0.8741 -0.310 -0.795 0.521 87 93 57
4.7743 106.6045 -0.6432 0.327 -0.831 0.451 100 107 64
-85.5162 116.4411 -1.4643 -0.190 -0.728 0.658 92 105 61
-72.5819 119.7483 -1.9791 -0.881 -0.450 0.147 101 150 157
-59.9751 108.9329 -0.6664 -0.008 -0.823 0.569 104 150 160
-59.8218 108.9647 -0.6715 -0.553 -0.743 0.377 113 159 168
-57.1431 101.6466 0.2562 0.540 -0.771 0.337 113 159 169
-56.9646 101.5506 0.2674 0.544 -0.769 0.335 122 167 176
-56.7518 101.8454 0.2279 0.559 -0.766 0.318 127 168 180
-56.6618 102.5705 0.1336 0.477 -0.393 0.786 124 167 178
-49.5541 94.0518 1.1866 -0.495 -0.850 0.179 121 156 152
-35.4450 90.2118 1.5876 -0.328 -0.328 0.886 117 116 59
-34.7476 88.9005 1.7524 -0.761 -0.507 0.406 114 113 59
-32.4354 85.0003 2.2408 -0.150 -0.741 -0.655 113 113 86
-32.3146 84.9200 2.2504 -0.622 -0.635 -0.457 113 113 86
-32.1941 84.7669 2.2694 -0.728 -0.606 -0.320 113 113 85
-27.8262 78.6160 3.0348 -0.707 -0.369 0.604 10 9 6
-27.3171 78.1590 3.0905 -0.536 -0.256 0.804 22 16 19
-25.2627 83.2116 2.4236 -0.175 -0.934 0.311 22 18 14
-25.1272 83.3779 2.4012 -0.598 -0.596 -0.536 22 19 14
-24.8254 82.9210 2.4582 -0.207 -0.894 0.398 17 21 8
-24.6588 82.3439 2.5316 -0.550 -0.512 -0.660 15 19 4
-24.5697 82.1170 2.5604 -0.554 -0.517 -0.652 15 17 3
-23.1252 89.9054 1.5440 0.477 -0.547 0.688 13 11 0
-22.9746 90.0688 1.5219 0.534 -0.554 0.639 13 11 0
-22.3400 89.9555 1.5322 -0.055 -0.837 0.544 18 15 7
-9.6819 95.0025 0.7944 -0.619 -0.577 0.534 111 108 63
-5.6749 98.7092 0.2883 -0.905 -0.317 0.285 210 218 168
-6.2784 95.1759 0.7491 -0.341 -0.790 0.510 84 90 52
-85.4597 116.2854 -1.6203 -0.190 -0.728 0.658 92 105 60
-72.5120 119.5182 -2.1316 -0.886 -0.457 0.082 96 146 153
-60.0855 108.7129 -0.7997 0.685 -0.429 0.588 124 163 172
-59.9586 108.8294 -0.8158 -0.008 -0.823 0.569 124 163 171
-35.4422 90.0923 1.4737 -0.745 -0.432 0.508 116 115 59
-34.7465 88.8067 1.6374 -0.761 -0.507 0.406 113 110 67
-34.6160 88.7181 1.6482 -0.659 -0.505 0.558 119 118 80
-34.1553 86.0300 1.9973 -0.171 0.081 0.982 118 117 80
-33.3623 82.8759 2.4053 0.918 -0.343 -0.197 68 72 44
-32.0768 83.3844 2.3299 0.089 0.020 0.996 9 7 2
-31.9603 82.9887 2.3810 0.155 0.037 0.987 11 9 4
-31.8426 83.1247 2.3624 0.138 0.042 0.990 15 13 6
-30.0263 84.8909 2.1186 0.024 0.049 0.998 18 14 9
-29.9049 84.9161 2.1145 0.024 0.049 0.998 16 12 8
-30.1476 74.7480 3.4486 -0.731 -0.645 -0.225 16 11 7
-30.0497 74.6312 3.4633 -0.658 -0.671 -0.343 23 17 19
-29.9501 74.5715 3.4704 -0.641 -0.672 -0.372 22 16 19
-29.8489 74.5553 3.4719 -0.624 -0.670 -0.401 20 14 17
-22.4747 89.8906 1.4123 -0.215 -0.861 0.461 18 17 5
-6.2956 95.0891 0.6216 -0.325 -0.800 0.504 88 95 54
3.5601 106.6968 -0.9662 0.122 -0.832 0.542 88 96 49
3.7382 106.7391 -0.9730 0.132 -0.823 0.552 83 90 46
-85.5415 116.0619 -1.7659 -0.241 -0.772 0.589 88 101 58
-85.3956 116.1159 -1.7741 -0.262 -0.762 0.592 92 105 61
-62.0994 108.8539 -0.9674 0.197 -0.953 -0.231 113 156 164
-61.7834 108.3877 -0.9076 0.090 -0.901 -0.424 114 157 164
-60.0206 108.4530 -0.9282 0.587 -0.410 0.699 128 165 173
-59.8827 108.5323 -0.9397 -0.014 -0.605 0.796 129 166 172
-35.5347 89.2485 1.4569 0.637 -0.588 0.499 113 115 62
-35.4386 89.9553 1.3624 -0.745 -0.432 0.508 110 112 57
-35.3000 89.7478 1.3890 -0.745 -0.432 0.508 106 109 55
-34.7459 88.7270 1.5208 -0.754 -0.507 0.416 49 46 33
-34.6138 88.5933 1.5377 -0.659 -0.505 0.558 30 30 22
-33.3644 82.9067 2.2847 0.917 -0.344 -0.201 8 12 3
-27.1160 83.5257 2.1601 -0.635 -0.642 -0.430 17 16 4
-27.0071 83.4080 2.1750 -0.635 -0.642 -0.430 18 16 4
-26.8986 83.2906 2.1898 -0.635 -0.642 -0.430 31 24 6
-22.2164 89.8528 1.2863 -0.104 -0.846 0.523 20 16 7
-21.2035 93.2318 0.8305 0.865 -0.411 -0.289 113 111 57
-6.3117 95.0057 0.4939 -0.347 -0.792 0.502 90 97 56
3.5068 106.5230 -1.1028 0.066 -0.879 0.473 90 97 53
3.6869 106.5710 -1.1104 0.169 -0.804 0.570 85 94 51
4.3802 106.6924 -1.1312 0.462 -0.731 0.502 72 80 41
4.5905 106.8112 -1.1484 -0.339 -0.829 -0.444 69 79 40
-85.5119 115.9560 -1.9275 -0.262 -0.753 0.604 88 101 58
-85.3484 115.9774 -1.9315 -0.262 -0.762 0.592 93 106 62
-72.3898 115.1710 -1.9111 0.294 -0.490 0.821 99 147 157
-72.2273 115.6229 -1.9730 0.375 -0.484 0.791 97 145 155
-62.1117 104.6094 -0.5588 0.645 -0.682 0.345 106 153 161
-62.0106 108.5359 -1.0882 0.082 -0.980 -0.183 117 159 170
-61.8248 108.4647 -1.0799 0.090 -0.901 -0.424 120 160 170
-60.5184 108.4390 -1.0853 -0.076 -0.853 0.517 128 167 174
-46.9257 94.4397 0.7073 -0.281 -0.882 0.378 112 133 109
-35.5406 89.3155 1.3198 0.439 -0.892 0.111 113 116 64
-34.6117 88.4689 1.4275 -0.659 -0.505 0.558 19 19 13
-30.2259 82.2776 2.2314 0.188 -0.633 0.751 16 15 7
-25.4656 83.4543 2.0406 0.812 -0.564 -0.148 101 93 49
-25.3571 83.3616 2.0523 0.811 -0.568 -0.138 100 92 48
-22.2257 89.7570 1.1699 -0.120 -0.848 0.517 20 17 7
-21.3788 92.0021 0.8618 0.911 -0.280 0.303 113 111 56
-10.6928 91.9056 0.8022 0.920 -0.392 -0.004 110 109 63
-9.1742 95.1977 0.3486 0.906 -0.417 0.075 79 78 32
-7.4903 97.4607 0.0324 0.616 -0.705 0.352 77 81 44
4.3551 106.5898 -1.2774 0.477 -0.751 0.457 75 83 44
-85.4958 115.8751 -2.0923 -0.251 -0.751 0.611 88 101 58
-85.3269 115.8865 -2.0950 -0.276 -0.762 0.586 93 106 62
-72.3902 115.1201 -2.0785 0.219 -0.382 0.898 97 145 155
-72.2254 115.1427 -2.0827 0.331 -0.416 0.847 96 146 155
-62.8933 104.1425 -0.6453 -0.138 -0.970 0.201 106 153 161
-62.3197 104.2694 -0.6665 0.638 -0.684 0.353 110 157 163
-62.0364 108.5648 -1.2546 0.082 -0.980 -0.183 121 164 173
-61.8735 108.5637 -1.2556 0.107 -0.900 -0.423 123 163 172
-63.1566 112.9863 -1.8503 0.398 -0.832 -0.386 125 163 174
-55.0958 97.4921 0.2090 -0.305 -0.562 -0.769 133 166 173
-53.6736 95.9621 0.4081 -0.289 -0.638 -0.714 125 159 160
-46.9341 94.4394 0.5700 -0.288 -0.867 0.407 112 133 109
-30.2317 82.0819 2.1424 0.202 -0.952 -0.229 19 16 3
-28.7073 76.5824 2.8824 0.540 -0.701 -0.466 101 99 56
-28.4631 77.1026 2.8098 0.667 -0.675 -0.315 101 100 56
-28.1879 78.0324 2.6810 0.692 -0.628 -0.355 101 92 50
-25.3563 85.6850 1.6175 0.661 -0.750 0.024 102 94 47
-25.2901 85.1391 1.6916 0.347 -0.921 0.175 105 97 49
-24.3164 88.4240 1.2367 -0.567 -0.714 -0.412 108 101 47
-22.2331 89.6747 1.0518 -0.111 -0.850 0.515 20 17 7
-9.1555 95.2250 0.2054 0.906 -0.417 0.073 78 77 31
-7.4934 97.4145 -0.1047 0.611 -0.707 0.356 75 79 42
4.2726 106.3488 -1.4040 0.528 -0.716 0.457 77 85 48
4.5713 106.6814 -1.4514 0.402 -0.764 0.505 72 80 41
-85.4618 115.7614 -2.2525 -0.246 -0.755 0.608 88 101 59
-85.2729 115.7357 -2.2502 -0.463 -0.732 0.499 93 106 62
-71.9901 110.8948 -1.6716 0.133 -0.937 -0.322 101 148 156
-62.4505 104.1547 -0.8049 -0.073 -0.989 0.126 116 163 171
-62.3349 104.2662 -0.8211 0.645 -0.682 0.345 123 170 178
-62.1235 104.5495 -0.8617 0.650 -0.677 0.345 125 172 180
-60.6177 100.6357 -0.3308 0.525 -0.778 0.345 125 172 180
-46.9244 94.3458 0.4453 -0.293 -0.871 0.393 111 132 109
-35.0146 88.8943 1.1177 -0.754 -0.487 0.441 43 42 13
-34.8784 88.6781 1.1467 -0.752 -0.491 0.439 17 14 3
-34.7493 88.6326 1.1521 0.068 -0.726 0.684 22 18 12
-33.8604 88.7557 1.1290 -0.923 -0.214 0.318 14 15 9
-31.6403 79.6664 2.3705 -0.310 -0.097 0.946 25 24 5
-31.5126 81.2406 2.1520 0.125 -0.986 -0.113 25 25 4
-27.7752 88.0229 1.1887 0.459 -0.717 -0.524 100 99 43
-27.6432 88.1079 1.1761 0.508 -0.706 -0.494 100 98 41
-26.7406 85.1766 1.5752 -0.183 -0.929 -0.321 103 98 41
-25.5149 90.5887 0.8186 0.797 -0.537 0.275 109 104 47
-25.6152 85.5141 1.5209 0.147 -0.974 -0.175 106 99 46
-22.2357 89.6273 0.9291 -0.283 -0.893 0.351 21 18 6
-8.4556 96.5777 -0.1260 0.668 -0.721 0.185 204 209 159
-7.5064 97.3364 -0.2374 0.611 -0.707 0.356 76 80 43
-6.3734 94.7160 0.1172 -0.368 -0.694 0.619 88 95 54
5.2918 107.2029 -1.6889 0.718 -0.696 -0.023 70 77 36
-85.9893 116.0330 -2.4625 -0.670 -0.608 0.425 75 87 51
-85.4462 115.6813 -2.4170 -0.253 -0.761 0.598 88 100 60
-85.2353 115.6153 -2.4092 -0.465 -0.706 0.535 93 105 63
-65.2254 109.1942 -1.6468 0.496 -0.751 0.435 108 160 172
-63.7666 107.8428 -1.4674 0.009 -0.648 0.762 118 166 176
-62.2717 104.4823 -1.0070 0.601 -0.792 0.104 125 173 183
-62.1099 104.4635 -1.0055 0.648 -0.692 0.320 125 172 182
-59.9923 107.6430 -1.4653 0.080 -0.365 0.928 126 164 173
-57.2740 101.3098 -0.5968 -0.399 -0.765 -0.506 125 163 172
-46.9233 94.2962 0.3147 -0.311 -0.861 0.402 111 132 109
-46.4522 92.5579 0.5550 -0.669 -0.550 0.501 110 128 102
-35.3319 90.2397 0.8036 0.049 -0.989 0.141 101 103 52
-35.2018 90.2459 0.8018 0.049 -0.989 0.141 94 96 52
-35.0726 90.2739 0.7970 0.040 -0.987 0.153 46 45 16
-31.5138 81.1871 2.0454 -0.129 -0.990 -0.059 94 91 57
-28.5320 90.5673 0.7111 0.664 -0.595 0.452 105 99 46
-27.7648 88.1689 1.0418 0.460 -0.718 -0.523 101 100 42
-26.3877 89.5097 0.8446 0.451 -0.737 -0.503 108 103 43
-22.2378 89.5835 0.8059 -0.170 -0.858 0.486 21 18 5
-8.4408 96.5908 -0.2701 0.605 -0.740 0.293 203 209 157
-6.3996 94.6028 -0.0056 -0.358 -0.686 0.634 86 93 52
3.1116 106.5748 -1.7476 -0.476 -0.145 0.867 100 109 62
-85.9146 115.8456 -2.6128 -0.670 -0.608 0.425 75 87 51
-85.3984 115.5425 -2.5733 -0.253 -0.761 0.598 88 100 62
-85.2236 115.5424 -2.5745 -0.258 -0.751 0.607 93 104 64
-63.3483 104.4066 -1.1446 -0.005 -0.987 0.163 118 167 177
-60.2778 107.4775 -1.6014 -0.354 -0.559 -0.750 125 163 171
-46.4548 92.5287 0.4247 -0.554 -0.714 0.428 110 128 102
-35.4715 90.3828 0.6538 0.722 -0.664 0.195 103 106 53
-35.2020 90.1894 0.6794 0.021 -0.933 0.359 95 96 53
-35.0726 90.2133 0.6751 0.082 -0.949 0.305 47 46 16
-34.9439 90.2553 0.6683 0.092 -0.932 0.350 18 15 3
-34.6719 89.9389 0.7113 -0.159 -0.820 0.550 17 17 11
-33.7197 88.0054 0.9791 -0.921 -0.217 0.323 46 48 33
-33.5835 87.5267 1.0461 -0.921 -0.216 0.325 76 73 44
-31.5139 81.2302 1.9253 -0.131 -0.979 -0.156 106 101 56
-28.5370 90.4530 0.5963 0.592 -0.639 0.492 107 99 44
-27.7779 90.0100 0.6540 -0.166 -0.858 -0.485 91 91 39
-27.7134 88.9662 0.8016 0.512 -0.858 -0.027 91 91 38
-27.5679 89.2319 0.7629 0.505 -0.863 -0.019 91 90 38
-22.2473 89.4865 0.6903 -0.027 -0.775 0.631 20 17 7
-8.4421 96.5505 -0.4066 0.570 -0.794 0.212 197 202 151
-6.4341 94.4653 -0.1246 -0.150 -0.654 0.741 81 89 48
2.9015 106.4101 -1.8833 -0.435 -0.094 0.896 106 114 67
3.0165 106.2951 -1.8678 -0.474 -0.144 0.869 102 110 63
3.0367 105.9451 -1.8183 -0.463 -0.150 0.874 88 96 49
-85.3251 115.3573 -2.7228 -0.236 -0.766 0.598 88 100 64
-85.1874 115.4245 -2.7334 -0.238 -0.755 0.611 93 103 66
-65.3120 108.8847 -1.9304 0.169 -0.896 0.411 124 172 178
-46.4524 92.4736 0.2981 -0.581 -0.698 0.418 110 128 103
-35.5801 89.8609 0.5988 -0.382 -0.866 -0.322 107 109 59
-35.4709 90.3102 0.5335 0.361 -0.664 0.654 103 106 52
-34.6979 90.6159 0.4842 0.411 -0.815 0.409 17 17 12
-33.7193 87.9094 0.8664 -0.918 -0.218 0.331 78 80 61
-33.5834 87.4380 0.9332 -0.918 -0.218 0.331 100 97 53
-32.9698 78.9649 2.1465 0.548 -0.808 -0.215 102 99 47
-31.5135 81.3175 1.7984 -0.095 -0.992 -0.085 113 106 52
-31.3938 81.7526 1.7351 0.271 -0.875 -0.401 113 107 51
-28.0313 90.1145 0.5104 -0.251 -0.867 -0.431 73 70 34
-27.9006 90.1187 0.5089 -0.188 -0.844 -0.502 67 64 28
-22.2563 89.3925 0.5745 -0.027 -0.775 0.631 18 15 6
-8.4424 96.5136 -0.5437 0.570 -0.794 0.212 193 198 147
-7.3354 97.3131 -0.6662 0.514 -0.846 0.144 62 66 32
2.8055 106.1272 -2.0024 -0.433 -0.096 0.896 108 112 65
2.9053 105.9754 -1.9813 -0.474 -0.144 0.869 103 109 63
2.9873 105.7804 -1.9539 -0.485 -0.146 0.862 90 98 53
-85.2679 115.2014 -2.8760 -0.217 -0.767 0.603 89 99 65
-85.1181 115.2462 -2.8835 -0.233 -0.757 0.611 93 103 68
-67.5853 112.7239 -2.6373 -0.826 -0.529 0.193 128 169 179
-46.4505 92.4207 0.1713 -0.575 -0.705 0.414 109 127 102
-33.8565 88.2848 0.6863 -0.927 -0.226 0.301 106 108 94
-33.7179 87.7692 0.7603 -0.911 -0.216 0.350 102 104 80
-33.5813 87.2563 0.8340 -0.914 -0.221 0.339 112 108 56
-27.8963 90.1711 0.3707 -0.187 -0.851 -0.491 65 62 31
-27.7675 90.1408 0.3743 -0.187 -0.851 -0.491 65 62 32
-22.3899 89.3332 0.4547 -0.059 -0.795 0.604 12 14 8
-22.2638 89.3104 0.4572 -0.049 -0.799 0.600 16 12 5
-10.6900 91.2576 0.0941 0.931 -0.332 0.153 105 104 58
-8.4972 96.2968 -0.6542 0.699 -0.704 0.128 198 204 152
-7.3333 97.2832 -0.8058 0.535 -0.844 0.035 55 59 25
2.6725 105.7515 -2.1069 -0.433 -0.096 0.896 109 111 64
3.1119 105.2578 -2.0381 -0.672 -0.388 0.631 84 96 53
-84.9899 114.6424 -2.9709 -0.581 -0.680 0.447 87 99 63
-85.0696 115.1060 -3.0387 -0.233 -0.757 0.611 93 103 66
-61.7329 104.0829 -1.5759 0.112 -0.954 -0.278 130 163 163
-61.5321 103.9490 -1.5575 -0.048 -0.933 -0.357 130 162 160
-61.4082 104.0394 -1.5717 -0.096 -0.964 -0.246 130 162 159
-61.2606 104.0607 -1.5759 -0.098 -0.964 -0.248 130 163 159
-61.1140 104.0851 -1.5805 -0.077 -0.963 -0.257 128 161 157
-47.0372 92.6291 0.0100 0.348 -0.858 0.378 108 143 140
