ply
format ascii 1.0
element vertex 874
property float x
property float y
property float z
property float nx
property float ny
property float nz
property uchar diffuse_red
property uchar diffuse_green
property uchar diffuse_blue
end_header
17.2521 71.7706 -21.4750 -0.178 -0.972 0.153 88 95 44
17.5128 71.8565 -21.6103 -0.083 -0.851 -0.518 92 99 47
17.6038 71.8712 -21.6489 -0.083 -0.851 -0.518 91 98 47
17.7351 71.7437 -21.6214 -0.001 -0.922 -0.387 91 97 49
17.8374 71.7178 -21.6410 -0.033 -0.937 -0.348 91 97 50
17.9460 71.6684 -21.6497 -0.054 -0.990 -0.132 91 97 51
18.0430 71.6605 -21.6776 -0.041 -0.987 -0.153 91 97 51
18.1375 71.6614 -21.7097 -0.041 -0.987 -0.153 92 98 51
18.2301 71.6691 -21.7450 -0.053 -0.989 -0.138 92 98 51
18.3179 71.6945 -21.7885 0.195 -0.962 -0.191 92 98 51
18.4816 71.7908 -21.8972 0.249 -0.951 -0.182 97 101 50
18.5718 71.8085 -21.9373 0.046 -0.986 -0.160 97 102 49
18.6541 71.8561 -21.9915 0.042 -0.983 -0.180 97 102 49
18.7519 71.8455 -22.0182 0.200 -0.979 -0.032 98 103 50
18.8194 71.9510 -22.0999 -0.019 -0.967 -0.252 101 106 53
18.9032 71.9950 -22.1525 -0.084 -0.956 -0.281 101 105 53
18.9799 72.0669 -22.2184 0.129 -0.893 -0.432 101 105 53
19.4372 72.1438 -22.4143 -0.082 -0.943 -0.323 99 106 53
20.8337 71.4242 -22.4779 -0.352 -0.919 -0.177 102 109 53
22.2307 69.1380 -21.6639 -0.236 -0.847 0.477 103 111 52
22.6032 68.6003 -21.4872 -0.137 -0.980 0.143 105 113 54
22.6920 68.5962 -21.5146 -0.153 -0.979 0.136 105 113 54
23.8218 73.2226 -24.4839 0.720 -0.680 0.139 112 120 62
23.8931 73.3865 -24.5997 0.678 -0.678 0.284 110 118 60
24.4009 71.8976 -23.9352 0.654 -0.651 -0.385 109 117 59
25.7757 70.5981 -23.6666 0.294 -0.951 -0.091 119 127 67
-7.2298 75.9572 -15.7698 0.155 -0.929 -0.336 30 45 24
-6.9680 76.0462 -15.9073 0.196 -0.923 -0.330 30 45 23
-6.8347 76.0122 -15.9327 0.167 -0.986 0.006 29 45 21
-6.7456 76.0394 -15.9778 -0.441 -0.872 0.212 29 44 21
-6.1593 75.6747 -15.9685 -0.538 -0.794 0.284 33 46 26
-6.0144 75.6227 -15.9877 -0.312 -0.893 0.325 32 46 25
-5.8509 75.5443 -15.9981 0.017 -0.863 -0.505 32 46 25
-5.7243 75.5173 -16.0253 0.042 -0.864 -0.502 35 48 28
-5.6385 75.5483 -16.0713 0.042 -0.864 -0.502 35 48 28
-5.5263 75.5416 -16.1051 0.139 -0.900 -0.412 35 48 28
-5.5088 75.6702 -16.1833 -0.365 -0.589 0.721 35 48 30
2.8795 72.9738 -17.4684 0.170 -0.914 -0.370 50 58 37
2.9316 73.0592 -17.5339 -0.016 -0.941 -0.337 50 58 37
3.7875 72.9704 -17.7698 0.811 -0.421 0.406 49 56 38
5.3623 73.4178 -18.5475 -0.611 -0.785 -0.099 69 76 35
7.2426 70.5203 -17.5456 0.625 -0.733 0.269 79 86 42
11.1819 71.9761 -19.6804 -0.188 -0.945 0.267 100 107 55
11.5582 71.7670 -19.6885 -0.378 -0.871 0.315 94 105 45
11.6769 71.7123 -19.6974 -0.378 -0.871 0.315 89 99 47
11.7993 71.6479 -19.7021 -0.262 -0.909 0.323 75 84 42
11.9107 71.6102 -19.7180 -0.262 -0.909 0.323 49 56 21
12.0219 71.5724 -19.7340 -0.262 -0.909 0.323 43 50 16
15.6397 71.9128 -21.1340 0.949 -0.281 0.145 103 112 59
16.7248 71.4936 -21.2606 0.678 -0.332 0.655 93 100 49
16.8826 71.5990 -21.3726 0.692 -0.339 0.637 93 100 49
17.2342 72.0206 -21.7273 0.142 -0.940 0.311 96 103 51
17.3308 72.0174 -21.7577 -0.044 -0.868 0.494 96 103 51
17.4130 72.0641 -21.8114 0.011 -0.990 0.141 96 103 51
17.7151 71.6737 -21.6927 0.652 -0.737 -0.178 96 103 52
17.8022 71.7011 -21.7372 0.269 -0.956 -0.119 96 103 52
17.8857 71.7419 -21.7881 -0.065 -0.984 -0.164 96 103 52
18.1575 71.7899 -21.9059 -0.081 -0.990 -0.119 97 104 53
18.4939 71.9531 -22.1101 -0.198 -0.980 0.002 102 107 51
18.5977 71.9209 -22.1266 -0.149 -0.987 0.054 102 107 51
18.7023 71.8849 -22.1413 0.186 -0.982 -0.029 102 107 51
18.8533 72.0360 -22.2767 -0.084 -0.956 -0.281 103 108 52
18.9546 72.0128 -22.2975 0.077 -0.988 -0.136 103 108 52
19.1813 72.2478 -22.5055 0.094 -0.885 -0.455 102 110 53
19.2710 72.2715 -22.5488 -0.097 -0.920 -0.379 102 110 53
22.0860 69.2376 -21.7823 -0.248 -0.869 0.429 107 115 56
21.5736 72.2074 -23.2819 0.222 -0.932 -0.286 107 115 56
23.7372 72.9129 -24.4015 0.789 -0.608 0.086 114 122 63
-13.8688 80.8825 -16.4666 -0.424 -0.244 0.872 64 79 39
-7.2362 75.8834 -15.8570 0.401 -0.835 0.378 38 55 23
-7.2094 75.9958 -15.9295 0.436 -0.856 0.277 40 55 24
-7.1210 76.0240 -15.9749 0.376 -0.839 0.393 38 53 22
-6.9986 76.0053 -16.0052 0.377 -0.847 0.374 37 52 21
-6.2424 75.7081 -16.0898 -0.518 -0.798 0.308 27 40 10
-6.0624 75.6071 -16.0929 -0.319 -0.885 0.340 27 40 13
-5.9530 75.6048 -16.1282 0.062 -0.997 0.050 27 41 15
-5.8305 75.5842 -16.1574 -0.069 -0.892 -0.446 27 41 18
-5.7167 75.5757 -16.1905 -0.069 -0.887 -0.457 28 42 19
-5.5844 75.5407 -16.2150 -0.003 -0.904 -0.428 28 41 21
-5.4529 75.5067 -16.2397 -0.238 -0.968 0.081 28 41 21
-3.1936 74.5401 -16.4480 -0.094 -0.202 0.975 31 42 25
-2.5829 74.2534 -16.4900 0.402 -0.391 0.828 36 47 30
-2.4435 74.2008 -16.5067 0.793 -0.551 0.260 36 47 30
-2.3943 74.2844 -16.5704 0.514 -0.639 0.572 36 47 30
-2.2865 74.2795 -16.6036 -0.095 -0.814 0.572 37 49 29
-1.5199 73.9017 -16.6462 -0.488 -0.788 0.376 38 47 26
-1.3482 73.7961 -16.6439 -0.479 -0.788 0.386 38 47 26
2.8085 73.0086 -17.5869 0.170 -0.914 -0.370 52 60 39
5.7655 71.6037 -17.7806 -0.784 -0.591 0.189 55 61 35
6.8930 70.3697 -17.4599 -0.779 -0.461 0.424 72 79 38
7.1630 70.2142 -17.4622 -0.042 -0.792 -0.609 76 83 41
11.1436 71.9607 -19.7780 -0.306 -0.909 0.283 100 107 55
11.3961 71.8185 -19.7820 -0.406 -0.839 0.362 99 108 53
11.5215 71.7483 -19.7842 -0.378 -0.871 0.315 88 99 42
11.6404 71.6936 -19.7930 -0.378 -0.871 0.315 78 88 39
11.8762 71.5869 -19.8114 -0.262 -0.909 0.323 39 46 13
11.9874 71.5492 -19.8273 -0.262 -0.909 0.323 55 62 29
15.9021 71.5639 -21.1427 0.702 -0.706 -0.096 102 110 59
16.2007 71.2228 -21.0497 -0.373 -0.686 0.625 100 108 57
16.6028 70.8415 -20.9686 -0.378 -0.657 0.652 99 106 53
16.7115 70.7930 -20.9775 -0.188 -0.970 0.155 99 106 53
16.7824 70.8664 -21.0426 -0.080 -0.989 -0.123 97 104 51
16.8775 70.8617 -21.0717 -0.077 -0.990 -0.121 97 104 51
16.9722 70.8580 -21.1012 -0.077 -0.990 -0.121 97 104 51
17.0826 70.8025 -21.1068 0.292 -0.948 -0.129 97 104 51
16.9606 71.5206 -21.4717 -0.187 -0.975 0.116 100 107 53
17.0514 71.5342 -21.5097 -0.260 -0.961 0.094 99 106 52
17.1516 71.5161 -21.5329 -0.241 -0.940 0.243 99 106 52
17.1888 71.7120 -21.6560 -0.241 -0.968 0.070 100 107 53
17.2833 71.7139 -21.6887 -0.035 -0.985 0.169 100 107 53
17.3038 71.9713 -21.8409 -0.044 -0.868 0.494 100 107 53
17.5770 72.0186 -21.9589 0.238 -0.912 0.335 99 106 54
17.7426 72.1101 -22.0659 0.132 -0.915 0.380 99 106 54
17.8606 72.3758 -22.2553 0.315 -0.896 0.313 100 107 55
17.9597 72.3654 -22.2826 0.231 -0.869 0.437 100 107 55
18.3424 72.3727 -22.4144 -0.413 -0.871 -0.267 105 110 54
18.4527 72.3188 -22.4209 -0.414 -0.870 -0.268 105 110 54
18.7145 72.0514 -22.3572 -0.097 -0.958 -0.269 106 111 55
18.7886 72.1339 -22.4285 -0.075 -0.952 -0.297 106 111 55
18.8689 72.1931 -22.4888 0.044 -0.942 -0.334 106 111 55
19.0861 72.4702 -22.7179 0.038 -0.842 -0.538 105 113 56
19.2173 72.3296 -22.6822 -0.102 -0.922 -0.374 105 113 56
19.3557 72.5465 -22.8510 -0.447 -0.786 -0.428 106 114 57
19.7160 72.6488 -23.0291 0.421 -0.719 -0.553 107 115 58
19.8385 72.9481 -23.2391 0.441 -0.707 -0.553 107 115 58
19.9143 73.0390 -23.3157 0.342 -0.737 -0.583 107 115 58
20.0148 73.0238 -23.3407 0.203 -0.761 -0.616 107 115 58
20.7224 70.7552 -22.2953 0.339 -0.906 0.254 107 115 58
20.8101 70.7765 -22.3367 0.339 -0.906 0.254 107 115 58
20.8979 70.7978 -22.3780 0.339 -0.906 0.254 109 117 60
21.7028 69.6143 -21.9782 -0.332 -0.785 0.523 111 119 62
-13.8674 80.7937 -16.5605 -0.525 -0.398 0.752 68 83 41
-13.2713 80.1833 -16.4132 -0.546 -0.413 0.729 66 83 41
-10.4090 77.5274 -15.8618 -0.555 -0.575 0.601 54 70 31
-9.8281 76.9148 -15.7081 -0.478 -0.760 0.441 55 71 30
-7.8751 76.0773 -15.8849 -0.113 -0.834 0.540 48 64 28
-5.9440 75.6610 -16.2932 -0.069 -0.892 -0.446 37 49 25
-5.6908 75.6081 -16.3477 -0.021 -0.900 -0.435 36 48 26
-5.5159 75.5128 -16.3520 -0.238 -0.968 0.081 37 49 27
-2.5601 74.1350 -16.5569 0.402 -0.391 0.828 32 43 26
-2.4320 74.0991 -16.5793 0.787 -0.559 0.260 32 43 26
-2.2601 74.1546 -16.6682 -0.152 -0.788 0.596 33 45 24
-2.1323 74.1189 -16.6905 -0.150 -0.802 0.578 35 44 23
-2.0143 74.0978 -16.7180 -0.131 -0.799 0.587 35 44 22
-1.8966 74.0770 -16.7455 -0.368 -0.740 0.563 35 44 21
-1.7305 73.9816 -16.7468 -0.433 -0.724 0.537 34 43 21
-1.3947 73.7834 -16.7464 -0.435 -0.725 0.534 33 42 21
-0.9592 73.5875 -16.7806 -0.283 -0.378 0.881 27 36 15
0.9809 73.1006 -17.1519 0.625 -0.610 0.487 37 44 26
1.0776 73.1085 -17.1887 0.698 -0.633 0.334 39 46 28
1.5302 73.2010 -17.3922 -0.293 -0.685 0.667 40 48 27
2.0446 72.8454 -17.3622 -0.165 -0.979 0.120 39 47 26
5.1510 72.2988 -18.0889 -0.550 -0.591 0.590 49 54 31
5.3360 72.1372 -18.0589 -0.665 -0.582 0.467 51 56 35
5.6810 71.8574 -18.0154 -0.749 -0.487 0.449 51 57 31
7.0222 70.3973 -17.6347 0.041 -0.746 -0.665 80 87 45
10.1635 69.9484 -18.4285 -0.415 -0.909 -0.049 70 78 37
10.2866 69.8830 -18.4324 -0.467 -0.884 0.025 56 64 27
10.9551 72.0723 -19.8976 -0.347 -0.903 0.255 100 107 57
11.1062 71.9432 -19.8748 -0.306 -0.909 0.283 101 107 58
11.6111 71.6569 -19.8809 -0.374 -0.879 0.296 68 77 34
11.7224 71.6203 -19.8972 -0.378 -0.871 0.315 48 55 20
11.8433 71.5595 -19.9031 -0.224 -0.935 0.275 30 36 7
11.9538 71.5238 -19.9197 -0.196 -0.944 0.264 68 75 44
12.0610 71.4959 -19.9397 -0.196 -0.944 0.264 101 108 73
16.9072 71.8818 -21.7761 0.389 -0.898 0.205 102 109 55
16.9481 72.0659 -21.8942 0.249 -0.945 0.214 102 109 55
17.0228 72.1379 -21.9600 0.181 -0.969 0.166 102 109 55
17.0992 72.2048 -22.0234 -0.219 -0.960 0.176 103 110 56
17.2064 72.1670 -22.0377 0.177 -0.966 0.187 103 110 56
17.3629 72.2908 -22.1602 0.702 -0.713 -0.002 103 110 56
-12.9789 80.0250 -16.5627 -0.463 -0.378 0.802 64 81 37
-9.3265 76.3213 -15.6714 -0.439 -0.629 0.642 56 73 31
-9.1062 76.1766 -15.6624 -0.439 -0.629 0.642 55 72 30
-7.9432 76.0870 -15.9994 -0.104 -0.808 0.580 52 68 29
-7.4092 76.1040 -16.1872 0.227 -0.968 0.109 53 70 28
-7.3105 76.1184 -16.2284 0.235 -0.966 0.106 52 67 28
-7.1039 75.9845 -16.2210 0.359 -0.927 0.106 53 65 29
-6.1209 75.6743 -16.3723 0.051 -0.943 0.329 56 66 37
-5.9894 75.6415 -16.3974 0.034 -0.944 0.329 50 60 35
-5.9490 75.7369 -16.4653 -0.122 -0.991 -0.061 50 60 35
-5.7220 75.5687 -16.4452 0.023 -0.989 0.146 48 60 37
-2.2918 74.1184 -16.7633 -0.131 -0.815 0.564 38 50 26
-1.7507 73.9279 -16.8354 -0.433 -0.724 0.537 38 48 23
-1.5822 73.8284 -16.8349 -0.432 -0.733 0.525 38 48 22
-1.4228 73.7422 -16.8389 -0.430 -0.726 0.536 38 48 23
0.5749 73.1790 -17.1846 -0.101 -0.992 -0.069 37 45 23
0.9722 73.0283 -17.2313 0.625 -0.610 0.487 35 43 20
1.0584 73.0535 -17.2744 0.700 -0.633 0.332 32 40 18
1.1292 73.1043 -17.3270 0.700 -0.633 0.332 33 41 18
3.6304 72.6203 -17.8857 -0.310 -0.943 0.122 33 42 15
4.7385 72.6050 -18.2467 0.654 -0.193 0.732 44 49 26
5.0986 72.3047 -18.1957 -0.465 -0.566 0.681 45 50 30
5.2568 72.1940 -18.1854 -0.489 -0.576 0.655 48 52 34
5.6397 71.8436 -18.1136 -0.701 -0.512 0.497 49 55 30
5.8979 71.5398 -18.0266 -0.761 -0.469 0.449 55 60 30
10.2331 69.9038 -18.5410 -0.476 -0.878 0.045 69 78 37
11.4915 70.4607 -19.2780 -0.141 -0.946 -0.292 97 103 59
11.5830 71.6176 -19.9676 -0.349 -0.897 0.270 57 65 28
11.6961 71.5764 -19.9819 -0.223 -0.896 0.383 40 46 18
11.8066 71.5415 -19.9988 -0.174 -0.935 0.309 39 44 20
11.9159 71.5090 -20.0168 0.039 -0.925 0.377 78 84 58
12.0199 71.4892 -20.0402 0.027 -0.926 0.376 105 112 77
40.0477 71.0087 -29.1171 -0.133 -0.921 0.366 109 118 61
-10.1410 77.0132 -15.9282 -0.522 -0.545 0.656 62 79 35
-9.4555 76.2648 -15.7287 -0.612 -0.720 0.327 62 79 37
-9.1399 75.9960 -15.6802 -0.604 -0.714 0.353 60 77 35
-7.8837 76.2203 -16.2274 0.601 -0.532 0.596 58 75 33
-5.8866 75.7179 -16.6060 0.186 -0.981 0.061 56 69 42
-5.8166 75.7721 -16.6604 -0.447 -0.879 -0.168 55 68 41
-2.3245 74.0835 -16.8590 -0.157 -0.849 0.504 48 61 33
-1.7816 73.8906 -16.9297 -0.426 -0.728 0.536 48 59 29
3.5409 72.6897 -18.0176 -0.498 -0.867 -0.013 40 49 18
3.6841 72.6130 -18.0215 -0.376 -0.913 0.161 40 49 20
3.7944 72.5948 -18.0479 -0.360 -0.928 0.095 41 50 22
4.6290 72.3473 -18.1846 0.418 -0.282 0.864 39 48 20
4.7470 72.4972 -18.3097 0.655 -0.195 0.730 39 45 20
4.7865 72.6092 -18.3869 0.653 -0.198 0.731 40 45 20
5.0845 72.2390 -18.2746 -0.439 -0.549 0.711 42 48 23
5.2490 72.1165 -18.2593 -0.489 -0.576 0.655 47 52 28
11.0670 69.6061 -18.7635 0.081 -0.711 0.699 49 55 18
11.5447 71.6031 -20.0651 -0.349 -0.897 0.270 48 54 26
11.6674 71.5388 -20.0692 -0.052 -0.951 0.303 42 47 25
11.7693 71.5249 -20.0953 -0.052 -0.951 0.303 65 69 49
11.8868 71.4721 -20.1043 0.039 -0.925 0.377 98 104 79
-9.1535 76.8042 -16.2719 -0.334 -0.862 0.380 62 79 37
-6.4667 76.4532 -16.9659 0.351 -0.921 0.172 58 71 39
-6.2590 76.3146 -16.9555 -0.356 -0.488 0.797 58 71 39
-5.5763 75.9639 -16.9816 0.412 -0.516 0.751 58 71 39
-5.4975 76.0067 -17.0325 0.155 -0.721 0.676 58 71 39
-5.3843 76.0003 -17.0666 0.139 -0.750 0.647 60 71 39
-5.2513 75.9652 -17.0907 0.148 -0.746 0.649 61 72 40
-2.0981 74.1308 -17.0881 -0.324 -0.447 0.834 59 70 36
-0.5045 73.5885 -17.3078 -0.088 -0.907 0.411 57 68 34
-0.0239 73.3139 -17.3103 0.434 -0.706 0.559 55 64 33
0.0814 73.3093 -17.3427 -0.057 -0.744 0.666 55 64 33
0.1988 73.2850 -17.3679 -0.147 -0.732 0.665 55 64 33
0.3128 73.2661 -17.3951 -0.143 -0.721 0.678 53 63 31
0.3271 73.4086 -17.4817 -0.032 -0.978 -0.208 53 62 31
0.4279 73.4113 -17.5169 -0.022 -0.978 -0.206 54 63 32
0.5654 73.3541 -17.5298 0.081 -0.979 -0.189 54 63 32
0.6584 73.3695 -17.5697 0.081 -0.979 -0.189 54 63 32
0.7568 73.3759 -17.6061 0.165 -0.973 -0.164 55 64 33
0.8457 73.3981 -17.6485 0.165 -0.973 -0.164 54 64 32
1.1472 73.0687 -17.5598 0.119 -0.511 0.852 55 64 32
2.3340 73.1230 -17.9866 0.074 -0.966 -0.248 51 61 28
2.4188 73.1519 -18.0315 0.039 -0.977 -0.209 52 61 28
2.5168 73.1580 -18.0676 0.046 -0.976 -0.213 52 62 27
2.6231 73.1496 -18.0983 -0.172 -0.983 0.062 52 62 26
3.6321 72.6157 -18.1279 -0.376 -0.913 0.161 56 65 32
3.7380 72.6054 -18.1573 -0.360 -0.928 0.095 56 66 33
3.8692 72.5498 -18.1691 -0.177 -0.979 0.105 57 66 34
5.0696 72.1750 -18.3540 -0.447 -0.551 0.704 60 68 32
10.2642 69.8468 -18.7481 -0.311 -0.948 0.061 84 93 48
10.9783 69.7095 -18.9073 0.522 -0.758 0.391 62 68 31
11.5063 71.5887 -20.1627 -0.349 -0.897 0.270 40 45 23
11.6404 71.4967 -20.1546 0.014 -0.896 0.444 48 52 36
11.7452 71.4759 -20.1775 0.028 -0.862 0.506 67 71 55
11.8474 71.4609 -20.2030 0.033 -0.884 0.467 88 93 70
11.9394 71.4712 -20.2396 0.020 -0.884 0.467 91 99 64
12.8780 70.7879 -20.1600 -0.064 -0.594 0.802 107 115 64
-7.2748 77.8249 -17.6207 -0.568 -0.780 0.262 59 75 38
-7.0102 77.7687 -17.6765 0.391 -0.907 -0.157 60 74 38
-6.9697 77.8717 -17.7494 0.394 -0.907 -0.148 60 74 38
-6.9247 77.9687 -17.8203 0.352 -0.876 -0.329 60 75 38
-2.3818 73.0736 -16.5106 0.312 -0.568 0.762 60 74 41
-2.2700 73.0598 -16.5399 0.140 -0.620 0.772 60 74 41
-2.0630 73.6769 -16.9648 0.177 -0.811 0.557 61 73 37
-2.0369 73.7947 -17.0414 -0.089 -0.898 0.432 61 73 37
-1.9345 73.7968 -17.0768 -0.387 -0.773 0.503 61 73 37
0.0195 73.3226 -17.4543 -0.072 -0.770 0.634 61 71 37
0.0014 73.5164 -17.5601 -0.214 -0.746 0.631 61 71 36
0.0741 73.5651 -17.6124 -0.220 -0.752 0.621 60 70 36
0.1663 73.5824 -17.6531 -0.233 -0.745 0.625 60 70 35
0.3165 73.5056 -17.6588 -0.214 -0.755 0.620 60 70 35
0.4661 73.4293 -17.6646 -0.205 -0.753 0.626 60 70 35
0.5258 73.4994 -17.7249 0.160 -0.962 0.223 60 70 35
0.6506 73.4630 -17.7456 0.197 -0.941 0.276 61 71 36
0.8330 73.3317 -17.7306 0.017 -0.985 0.172 61 71 36
2.1640 73.1514 -18.0701 0.107 -0.887 -0.450 63 73 38
2.2679 73.1477 -18.1025 0.074 -0.966 -0.248 63 73 38
2.6657 73.1623 -18.2436 -0.433 -0.900 -0.053 65 76 36
2.8077 73.0916 -18.2501 -0.428 -0.902 -0.050 65 76 36
10.8490 69.6926 -18.9689 0.490 -0.770 0.408 63 68 36
11.5103 71.4715 -20.2152 0.021 -0.884 0.467 32 37 19
11.6137 71.4540 -20.2396 0.014 -0.896 0.444 40 44 30
12.4821 70.7227 -20.1071 -0.081 -0.806 0.586 101 109 60
12.6345 70.8162 -20.2119 0.033 -0.630 0.776 108 116 67
13.5703 69.8556 -19.9696 0.109 -0.954 -0.281 109 116 62
-1.9989 73.3408 -16.9173 0.490 -0.341 0.803 63 77 40
-2.0698 73.6036 -17.0459 -0.065 -0.665 0.744 63 78 39
-2.1127 73.8257 -17.1602 -0.496 -0.775 0.392 63 78 39
-1.9648 73.7587 -17.1707 -0.548 -0.747 0.375 65 77 39
-1.7645 73.6115 -17.1522 -0.598 -0.695 0.399 65 77 38
-1.2085 73.7119 -17.3955 0.565 -0.367 0.739 67 79 39
-1.6672 74.5886 -17.7505 0.910 -0.192 0.367 66 78 39
-1.3026 74.3469 -17.7319 0.960 -0.078 0.267 64 76 36
-1.0055 74.3741 -17.8466 0.417 -0.556 0.719 64 76 36
-0.9067 74.3834 -17.8849 0.665 -0.544 0.512 67 79 41
-0.0864 73.2423 -17.4973 0.644 -0.700 0.308 67 79 42
-0.9167 75.2451 -18.3806 -0.369 -0.843 0.392 66 76 41
0.5061 74.1229 -18.2046 0.105 -0.994 0.022 67 79 41
0.6923 73.9863 -18.1875 -0.155 -0.955 0.252 65 77 39
1.0610 73.5452 -18.0548 -0.504 -0.713 0.488 65 77 39
1.2806 73.3500 -18.0148 -0.553 -0.697 0.456 66 76 39
2.0229 73.1300 -18.1347 0.259 -0.756 -0.601 66 76 39
2.0117 73.3232 -18.2428 0.022 -0.757 -0.653 66 76 39
2.1696 73.2273 -18.2399 0.062 -0.971 -0.230 66 76 38
2.2470 73.2694 -18.2900 0.053 -0.970 -0.239 66 77 38
2.3402 73.2843 -18.3297 0.053 -0.970 -0.239 66 77 37
2.4583 73.2562 -18.3528 -0.308 -0.937 0.162 67 78 38
2.5343 73.3012 -18.4042 -0.433 -0.901 -0.017 67 78 36
2.7530 73.2750 -18.4618 -0.457 -0.888 -0.061 68 79 37
2.9809 73.0531 -18.4092 -0.537 -0.805 0.252 68 79 37
10.5458 69.8564 -19.0773 -0.394 -0.919 -0.014 53 57 34
11.4994 71.3906 -20.2834 0.154 -0.750 0.644 32 34 20
11.5974 71.3861 -20.3135 0.171 -0.751 0.637 36 38 24
12.3624 70.6772 -20.1577 -0.399 -0.768 0.500 45 50 19
12.5385 70.7105 -20.2356 -0.108 -0.678 0.727 63 70 31
12.6293 70.7202 -20.2715 0.105 -0.705 0.701 79 85 47
12.7376 70.6857 -20.2875 0.009 -0.894 0.448 89 95 57
12.8554 70.6264 -20.2924 -0.005 -0.888 0.460 98 105 67
12.9624 70.5941 -20.3094 -0.233 -0.920 0.314 99 106 67
-1.2517 74.3448 -17.8751 0.942 -0.116 0.314 68 81 38
-1.2374 74.4876 -17.9629 0.318 -0.560 0.765 68 81 38
-1.0495 74.3566 -17.9493 0.253 -0.568 0.783 68 80 40
-0.2672 73.4448 -17.6795 0.188 -0.505 0.843 71 83 45
0.5897 74.9415 -18.8351 -0.346 -0.937 0.047 73 81 41
3.3906 72.7747 -18.5075 -0.206 -0.130 0.970 77 85 46
4.0984 73.1379 -18.9544 0.243 -0.111 0.964 81 90 45
4.2289 73.0842 -18.9665 -0.097 -0.132 0.986 80 89 43
4.5370 73.2641 -19.1737 0.021 -0.142 0.990 84 93 47
4.6543 73.2344 -19.1955 0.141 -0.102 0.985 84 93 46
10.0351 70.0586 -19.1400 -0.163 -0.966 0.200 96 106 54
10.1509 70.0106 -19.1506 -0.161 -0.962 0.219 91 101 54
11.1313 69.0668 -18.9281 -0.517 -0.574 0.635 36 41 23
11.1912 70.6528 -19.8704 0.366 -0.846 0.388 39 42 26
11.4789 71.3333 -20.3619 0.167 -0.745 0.645 34 36 23
11.9567 70.8689 -20.2509 -0.279 -0.890 0.361 36 38 23
12.3245 70.6640 -20.2542 -0.103 -0.675 0.731 36 40 16
12.5330 70.6161 -20.2957 -0.109 -0.681 0.724 44 49 16
12.6188 70.6381 -20.3371 0.098 -0.701 0.707 51 56 23
12.7211 70.6184 -20.3597 0.002 -0.881 0.474 62 68 36
12.8293 70.5835 -20.3754 -0.005 -0.888 0.460 75 80 49
12.9296 70.5685 -20.4001 -0.244 -0.915 0.322 85 90 58
13.0344 70.5418 -20.4194 -0.270 -0.950 0.160 95 101 65
13.1450 70.4995 -20.4317 -0.244 -0.965 0.094 103 110 68
13.2592 70.4475 -20.4394 -0.257 -0.959 0.119 108 115 61
13.5769 70.3534 -20.4905 -0.323 -0.938 -0.124 108 115 61
-0.4860 76.1141 -19.2906 0.169 -0.975 -0.143 69 80 37
10.3479 69.8924 -19.2628 -0.252 -0.910 0.330 63 67 42
11.5509 71.2846 -20.4760 0.184 -0.760 0.623 35 37 26
11.6653 71.2401 -20.4881 0.186 -0.749 0.636 35 37 26
11.8785 70.9535 -20.3917 -0.246 -0.829 0.503 36 38 27
12.6263 70.5109 -20.3821 -0.035 -0.741 0.671 41 45 18
12.7164 70.5217 -20.4184 0.003 -0.744 0.669 43 47 21
12.9065 70.5182 -20.4796 -0.234 -0.916 0.327 64 68 42
12.9976 70.5267 -20.5149 -0.084 -0.969 0.233 80 85 55
13.0861 70.5418 -20.5531 0.292 -0.940 0.180 91 97 61
13.1920 70.5116 -20.5708 0.116 -0.969 0.218 99 108 58
12.9624 70.5073 -20.6084 -0.084 -0.969 0.233 55 59 34
13.0540 70.5146 -20.6431 0.292 -0.940 0.180 70 75 45
13.1548 70.4976 -20.6668 0.323 -0.935 0.145 92 99 55
13.2124 70.5933 -20.7420 0.561 -0.827 -0.043 99 107 60
13.5637 70.4135 -20.7534 -0.412 -0.911 -0.030 107 116 63
8.1745 72.5265 -20.3220 0.408 -0.859 0.310 99 107 57
11.0490 68.9604 -19.1784 -0.564 -0.508 0.651 30 37 19
13.0320 70.4612 -20.7211 0.220 -0.962 0.160 49 52 28
13.1133 70.4950 -20.7680 0.211 -0.968 0.133 73 79 44
13.1477 70.6506 -20.8711 -0.259 -0.964 -0.053 91 97 58
13.2147 70.7228 -20.9359 0.562 -0.723 -0.402 103 110 68
13.3658 70.5750 -20.8991 -0.407 -0.913 0.003 106 113 67
40.3770 70.9576 -30.1047 0.263 -0.951 -0.163 111 120 65
12.8744 70.7560 -20.9597 -0.287 -0.958 -0.025 38 41 21
12.9811 70.7257 -20.9773 -0.297 -0.955 -0.021 52 57 30
13.0934 70.6805 -20.9879 -0.254 -0.967 -0.030 79 84 53
13.1565 70.7631 -21.0577 0.507 -0.777 -0.372 94 100 65
13.3172 70.5908 -21.0093 -0.406 -0.914 -0.002 102 109 67
40.3526 70.9576 -30.2106 0.185 -0.927 -0.327 114 123 68
8.3333 72.4094 -20.5501 0.402 -0.912 0.077 84 89 59
9.9634 69.1259 -19.1430 0.455 0.011 0.890 61 65 39
12.8231 70.7770 -21.0728 -0.297 -0.955 -0.021 37 39 24
12.9311 70.7437 -21.0889 -0.297 -0.955 -0.021 43 46 27
13.0442 70.6969 -21.0987 -0.254 -0.967 -0.030 63 67 44
13.1511 70.6658 -21.1157 -0.210 -0.977 -0.039 84 89 58
13.5125 70.4624 -21.1151 -0.292 -0.956 0.015 107 116 64
40.3360 71.0002 -30.3444 0.099 -0.861 -0.499 119 128 73
40.4315 71.0346 -30.3966 -0.235 -0.810 -0.537 112 121 66
8.2016 72.3779 -20.6099 0.376 -0.810 0.450 82 88 51
8.2919 72.3969 -20.6513 0.376 -0.810 0.450 61 65 41
8.4211 72.3329 -20.6560 0.219 -0.930 0.296 39 43 22
13.4652 70.4751 -21.2239 -0.292 -0.956 0.015 107 116 65
8.0839 72.3166 -20.6567 0.418 -0.788 0.453 90 98 59
8.1829 72.3170 -20.6898 0.386 -0.803 0.453 60 66 39
8.0698 72.2463 -20.7322 0.411 -0.788 0.457 69 76 43
40.5070 71.3582 -30.9597 -0.047 -0.866 -0.498 108 117 62
40.5715 71.2204 -30.8983 -0.203 -0.840 -0.502 101 110 55
40.6505 71.1630 -30.8901 -0.200 -0.839 -0.505 101 110 55
7.9620 72.1647 -20.7698 0.445 -0.721 0.532 78 84 48
8.0530 72.1818 -20.8102 0.435 -0.724 0.535 56 61 37
40.4334 71.5849 -31.1876 -0.511 -0.785 -0.350 120 129 72
40.5003 71.4561 -31.1321 -0.180 -0.883 -0.434 115 124 67
40.5706 71.3479 -31.0902 -0.261 -0.871 -0.417 108 117 62
40.6449 71.2635 -31.0639 -0.300 -0.871 -0.390 106 115 60
40.7279 71.2272 -31.0696 -0.307 -0.872 -0.382 100 109 54
7.9393 72.1129 -20.8533 0.487 -0.684 0.543 68 74 38
40.4312 71.7104 -31.3792 -0.520 -0.783 -0.342 122 131 74
40.5020 71.6005 -31.3361 -0.529 -0.781 -0.331 119 128 71
40.5699 71.4772 -31.2839 -0.527 -0.783 -0.331 112 121 64
40.6324 71.3277 -31.2142 -0.515 -0.792 -0.328 107 116 61
40.7122 71.2731 -31.2075 -0.515 -0.792 -0.328 99 108 53
7.9244 72.0449 -20.9295 0.699 -0.582 0.415 60 66 29
8.0731 71.9409 -20.9155 0.707 -0.396 0.585 30 36 8
13.2276 70.5389 -21.7710 -0.292 -0.956 0.015 106 115 60
40.4259 71.8187 -31.5600 -0.494 -0.807 -0.324 122 132 72
40.4908 71.6750 -31.4941 -0.529 -0.781 -0.331 120 129 72
40.5588 71.5511 -31.4414 -0.527 -0.783 -0.331 112 121 64
40.6264 71.4273 -31.3885 -0.514 -0.795 -0.323 107 116 61
40.7011 71.3445 -31.3629 -0.515 -0.792 -0.328 100 109 54
7.9722 71.8466 -20.9467 0.693 -0.374 0.616 51 57 18
8.0716 71.8451 -20.9787 0.707 -0.396 0.585 28 34 5
8.1741 71.8370 -21.0077 0.604 -0.448 0.659 26 30 13
8.2586 71.8666 -21.0537 0.608 -0.447 0.656 24 30 17
13.3400 70.3816 -21.8303 -0.288 -0.958 0.011 108 117 59
40.3447 72.0157 -31.7705 -0.404 -0.775 -0.486 126 136 76
40.4188 71.9186 -31.7358 -0.297 -0.814 -0.499 123 133 73
40.4806 71.7555 -31.6566 -0.528 -0.782 -0.332 119 128 71
40.5383 71.5737 -31.5648 -0.529 -0.786 -0.319 112 121 64
40.6126 71.4854 -31.5355 -0.215 -0.852 -0.478 107 116 61
40.6966 71.4511 -31.5424 -0.228 -0.853 -0.469 100 109 54
40.7553 71.2832 -31.4594 -0.198 -0.838 -0.509 96 105 50
8.1723 71.7418 -21.0708 0.604 -0.448 0.659 26 30 16
40.4919 71.9562 -31.9005 -0.326 -0.750 -0.576 116 125 68
40.5533 71.7915 -31.8199 -0.126 -0.804 -0.581 108 117 60
40.6194 71.6558 -31.7587 -0.028 -0.817 -0.576 103 112 57
40.7524 71.3979 -31.6447 -0.203 -0.840 -0.503 95 104 49
40.7081 71.7778 -31.9801 -0.295 -0.732 -0.614 98 107 52
8.7315 70.3794 -20.6585 -0.442 -0.060 0.895 26 30 14
9.3401 69.5030 -20.3186 -0.446 -0.073 0.892 24 30 16
39.2269 70.6551 -30.9143 0.817 -0.565 -0.121 122 132 72
39.3455 70.8371 -31.0660 0.500 -0.855 -0.137 122 132 72
39.4604 70.9924 -31.1999 0.038 -0.954 -0.297 122 132 72
39.5496 70.9877 -31.2264 0.058 -0.954 -0.294 121 131 71
40.6676 72.1894 -32.3383 -0.281 -0.711 -0.645 102 111 56
40.7299 72.0293 -32.2600 -0.273 -0.722 -0.636 98 107 52
8.5187 70.5259 -20.7979 -0.251 -0.038 0.967 34 41 4
8.6634 70.4251 -20.7832 -0.242 -0.035 0.970 24 29 8
8.9029 70.1254 -20.6766 -0.332 -0.077 0.940 24 28 15
38.5241 69.6980 -30.2038 -0.239 -0.545 0.804 129 139 79
38.8677 70.2243 -30.6436 0.644 -0.700 -0.308 121 131 71
41.0416 74.3729 -33.9342 0.781 -0.514 -0.355 102 111 56
40.7388 72.2126 -32.4948 -0.270 -0.719 -0.640 98 107 52
38.0241 69.4371 -29.9891 0.558 -0.367 0.744 124 133 76
38.1160 69.4690 -30.0393 0.563 -0.364 0.742 123 132 75
38.2084 69.5046 -30.0921 0.563 -0.364 0.742 119 128 71
40.8709 74.6401 -34.1680 0.769 -0.519 -0.374 106 115 58
41.2026 75.3999 -34.7505 0.722 -0.581 -0.375 100 109 54
13.0349 66.8732 -20.2462 -0.290 -0.132 0.948 28 29 21
37.6271 69.2673 -29.8645 0.717 -0.679 0.160 123 132 75
37.7238 69.3397 -29.9416 0.719 -0.677 0.158 123 132 75
37.8297 69.4794 -30.0639 0.774 -0.630 0.063 122 131 74
37.9238 69.5276 -30.1251 0.703 -0.691 0.166 121 130 75
40.8330 75.1249 -34.5832 0.707 -0.542 -0.454 108 118 58
41.2744 75.9426 -35.2399 0.692 -0.601 -0.400 97 106 51
9.3030 69.2038 -20.5861 -0.371 -0.102 0.923 30 37 7
9.8388 68.6659 -20.4257 -0.370 -0.172 0.913 24 29 11
36.9077 69.3092 -29.7656 0.817 -0.569 0.094 125 134 77
37.1568 69.1977 -29.7779 0.411 -0.447 0.795 122 131 74
40.8551 75.4033 -34.8913 0.699 -0.547 -0.460 108 118 58
8.7223 69.5318 -20.7176 -0.222 -0.080 0.972 98 107 50
8.8771 69.4080 -20.6907 -0.251 -0.084 0.964 97 107 54
37.5070 81.6750 -37.8625 0.016 -0.449 0.893 127 137 77
37.6077 81.5739 -37.8320 0.090 -0.527 0.845 128 138 78
38.3319 82.1040 -38.4048 0.496 -0.538 0.682 123 132 75
10.2152 68.2676 -20.5284 -0.431 -0.194 0.881 27 31 14
37.5363 81.1970 -37.7129 -0.065 -0.526 0.848 121 131 71
37.6438 81.1721 -37.7326 0.379 -0.374 0.847 120 130 70
37.7439 81.0775 -37.7059 0.057 -0.508 0.859 120 130 70
37.8458 81.0025 -37.6921 -0.000 -0.536 0.844 116 126 66
37.9565 81.0125 -37.7349 0.013 -0.531 0.847 115 125 65
41.2307 77.2809 -36.4561 -0.518 -0.682 -0.515 104 113 56
9.2274 68.6949 -20.5882 -0.417 -0.137 0.898 102 112 62
9.3990 68.5327 -20.5418 -0.301 -0.076 0.951 97 107 56
37.5858 80.9272 -37.6999 0.302 -0.418 0.857 118 128 68
37.6729 80.7117 -37.5919 0.254 -0.374 0.892 118 128 68
37.7615 80.5183 -37.4984 0.207 -0.370 0.905 115 125 65
37.8491 80.3218 -37.4025 0.341 -0.252 0.906 115 125 65
9.4774 68.2794 -20.5216 -0.313 -0.087 0.946 101 109 56
40.8551 77.2012 -36.5453 0.471 -0.727 -0.500 110 120 60
41.1350 77.6402 -36.9171 0.412 -0.755 -0.509 103 113 53
9.4624 68.2189 -20.5928 -0.340 -0.261 0.903 100 110 51
9.6070 68.1105 -20.5711 -0.297 -0.285 0.911 100 109 53
10.0248 67.8131 -20.5185 0.004 -0.262 0.965 97 107 52
34.0128 67.0654 -27.9421 -0.509 -0.709 -0.488 127 136 79
40.8649 77.4257 -36.8240 0.404 -0.747 -0.528 109 119 59
41.1347 77.8019 -37.1534 0.401 -0.758 -0.515 103 113 53
9.4125 68.2302 -20.6983 0.044 -0.381 0.924 103 113 54
9.5257 68.1868 -20.7078 0.009 -0.346 0.938 104 113 54
9.7391 67.9357 -20.6169 -0.217 -0.301 0.929 103 113 53
10.0589 67.6506 -20.5391 0.013 -0.261 0.965 101 113 50
33.0694 67.3870 -27.9462 -0.389 -0.919 -0.067 130 138 79
33.2377 67.3398 -27.9713 -0.394 -0.916 -0.068 129 139 78
33.3202 67.2772 -27.9583 0.262 -0.963 -0.055 130 140 79
33.4019 67.2019 -27.9369 0.529 -0.780 -0.334 128 138 77
33.4865 67.2010 -27.9642 0.465 -0.814 -0.349 125 135 74
33.5708 67.1954 -27.9883 0.347 -0.867 -0.356 123 133 73
33.6524 67.1321 -27.9746 -0.058 -0.903 -0.426 124 134 74
40.8702 77.6253 -37.0866 0.215 -0.742 -0.635 108 117 60
9.5404 68.0653 -20.7491 -0.019 -0.252 0.967 107 116 61
9.9915 67.3237 -20.4198 -0.095 -0.177 0.980 107 116 61
10.0626 67.3638 -20.4690 -0.237 -0.152 0.959 106 115 58
12.3571 65.6670 -20.1308 -0.018 -0.197 0.980 100 109 54
12.5408 65.4496 -20.0511 0.367 -0.021 0.930 101 110 55
32.8065 80.6156 -36.4929 0.092 -0.563 0.822 129 137 80
33.2393 80.3049 -36.4351 0.432 -0.789 0.437 132 140 83
33.3476 80.2573 -36.4401 0.620 -0.721 0.309 132 140 83
33.0445 67.4628 -28.0963 -0.541 -0.773 0.332 131 139 82
33.1287 67.4307 -28.1032 -0.584 -0.806 0.094 123 133 73
33.2128 67.4014 -28.1121 -0.370 -0.926 -0.080 123 133 73
33.2951 67.3303 -28.0933 0.255 -0.966 -0.050 123 133 73
33.3787 67.2972 -28.0995 0.525 -0.766 -0.370 123 133 73
33.4659 67.3529 -28.1641 0.523 -0.744 -0.415 121 131 71
33.5508 67.3527 -28.1919 0.412 -0.843 -0.346 121 131 71
40.9202 78.0920 -37.5371 -0.382 -0.739 0.556 103 112 55
11.9874 65.8179 -20.2152 -0.408 -0.165 0.898 103 113 54
12.1358 65.6826 -20.1765 -0.450 -0.206 0.869 105 114 58
32.3348 81.1294 -36.8121 0.008 -0.838 -0.545 131 141 81
32.7694 80.5563 -36.5844 0.089 -0.569 0.818 126 134 77
33.0948 80.3347 -36.5481 -0.403 -0.519 0.754 125 133 76
33.2020 80.2373 -36.5204 0.432 -0.789 0.437 125 133 76
33.3112 80.2218 -36.5463 0.622 -0.707 0.338 125 133 76
33.0166 67.4444 -28.1849 -0.541 -0.773 0.332 124 132 75
33.1874 67.4556 -28.2483 -0.381 -0.921 -0.076 116 126 66
32.8451 80.6092 -36.7857 -0.112 -0.980 0.166 121 129 72
32.9500 80.3657 -36.6621 -0.415 -0.525 0.743 120 128 71
-7.6359 71.6587 -17.7904 0.307 -0.858 0.412 73 92 49
-7.5440 71.6727 -17.8297 0.307 -0.858 0.412 73 91 49
-7.3829 71.5999 -17.8352 -0.007 -0.940 0.341 74 92 50
30.6982 80.8789 -36.3982 -0.634 -0.770 -0.064 130 140 79
32.9124 80.2846 -36.7386 -0.325 -0.701 0.635 116 124 67
33.0211 80.2324 -36.7404 -0.319 -0.721 0.615 114 122 65
33.1280 80.1189 -36.7015 0.437 -0.793 0.425 114 122 65
-7.7321 71.7046 -17.9153 0.169 -0.955 0.244 69 85 48
-7.5685 71.6294 -17.9198 0.209 -0.862 0.461 68 84 46
-7.4694 71.6342 -17.9556 0.209 -0.862 0.461 69 87 48
-7.2691 71.5121 -17.9415 -0.090 -0.975 0.205 73 91 53
-7.1154 71.4481 -17.9501 -0.031 -0.980 0.199 72 90 53
-6.1920 70.9241 -17.9107 -0.060 -0.980 -0.191 77 93 56
-6.1385 70.9854 -17.9683 -0.237 -0.904 0.355 77 93 56
-5.9878 70.9223 -17.9765 -0.204 -0.903 0.378 78 94 57
-4.7832 70.1439 -17.8631 -0.132 -0.446 0.885 79 95 56
-4.6538 70.1049 -17.8801 -0.054 -0.383 0.922 79 96 54
26.0352 68.8862 -27.1644 -0.538 -0.712 -0.451 130 138 78
26.1688 68.5170 -26.9667 -0.286 -0.823 -0.490 128 136 76
25.7757 72.6499 -29.5413 0.776 -0.393 0.494 122 130 71
26.1667 72.6242 -29.6530 0.785 -0.524 0.329 130 139 81
26.2427 72.8199 -29.8059 0.810 -0.507 0.296 129 138 81
40.3654 76.0510 -36.5592 -0.605 -0.771 -0.199 102 111 58
40.4533 75.9770 -36.5396 -0.605 -0.771 -0.199 93 102 47
-7.5681 71.6837 -18.0822 -0.127 -0.812 0.570 60 77 41
-7.3910 71.5910 -18.0795 0.105 -0.832 0.545 64 81 46
-7.2436 71.5352 -18.0912 0.286 -0.855 0.433 64 81 47
-6.4045 70.9918 -18.0099 -0.103 -0.803 0.588 72 88 51
-5.8572 70.8107 -18.0707 -0.138 -0.890 0.435 75 91 54
-4.8312 70.1333 -17.9628 -0.487 -0.810 0.326 76 93 51
-4.7448 70.1504 -18.0024 -0.235 -0.803 0.548 76 93 51
29.0369 81.2984 -36.4154 -0.277 -0.446 0.851 131 141 80
29.1532 81.2178 -36.4007 -0.279 -0.429 0.859 131 141 80
29.2725 81.0543 -36.3325 -0.160 -0.393 0.905 125 135 74
29.3861 81.0248 -36.3504 -0.159 -0.392 0.906 124 134 73
44.0246 73.5766 -36.2662 0.845 -0.320 0.428 76 83 41
-7.6304 71.6873 -18.1910 0.017 -0.971 0.238 59 76 43
-7.4045 71.5339 -18.1640 0.105 -0.832 0.545 61 78 46
-7.2624 71.4848 -18.1783 0.286 -0.855 0.433 61 78 46
-5.9173 70.8141 -18.1777 -0.211 -0.902 0.377 68 84 47
-4.9151 70.1690 -18.0814 -0.509 -0.812 0.284 69 85 46
-4.7613 70.0985 -18.0855 -0.235 -0.803 0.548 69 85 46
-4.5882 70.0024 -18.0789 -0.105 -0.806 0.583 69 85 46
-4.1154 69.7721 -18.0823 -0.565 -0.703 0.432 72 88 49
-3.9209 69.6457 -18.0628 -0.637 -0.685 0.354 71 88 46
-3.6783 69.4548 -18.0166 -0.631 -0.683 0.367 73 90 48
26.9659 73.7177 -30.8842 0.830 -0.529 0.179 132 142 82
28.1575 82.1324 -36.8217 -0.343 -0.621 -0.705 129 139 79
29.2382 80.9459 -36.3943 -0.227 -0.453 0.862 115 125 65
29.3514 80.9209 -36.4150 -0.228 -0.412 0.882 115 125 65
34.4756 69.8193 -30.7794 0.657 -0.747 0.101 112 121 67
34.5635 69.7901 -30.7890 0.657 -0.736 0.162 112 121 66
35.7583 80.0962 -37.9742 -0.392 -0.912 0.120 113 122 65
35.8623 80.0273 -37.9630 -0.400 -0.904 0.150 112 121 65
36.1631 79.6999 -37.8459 -0.563 -0.666 -0.490 105 114 59
36.4378 79.1157 -37.5510 -0.620 -0.667 -0.413 101 110 57
-7.4473 71.6424 -18.3484 0.528 -0.716 0.456 57 73 44
-7.3973 71.7093 -18.4091 -0.176 -0.929 0.324 57 73 45
-6.6134 71.1093 -18.2692 0.210 -0.966 0.153 60 76 40
-5.9571 70.7912 -18.2741 -0.210 -0.904 0.371 62 78 41
-5.9207 70.8745 -18.3411 -0.541 -0.841 0.005 62 78 42
-4.5479 69.8767 -18.1314 -0.173 -0.817 0.550 64 80 43
-4.3610 69.7619 -18.1167 -0.256 -0.826 0.502 66 82 45
-4.1552 69.6216 -18.0915 -0.366 -0.659 0.657 66 82 45
-3.9581 69.6217 -18.1561 -0.639 -0.665 0.388 66 82 43
-3.7024 69.4137 -18.1024 -0.615 -0.651 0.446 69 86 45
-3.7630 69.7552 -18.3085 0.824 -0.425 0.376 70 87 45
26.0689 74.3546 -31.1382 0.707 -0.620 -0.341 137 145 88
28.9749 80.9392 -36.4479 -0.225 -0.421 0.879 115 123 64
29.2060 80.7871 -36.4231 -0.225 -0.418 0.880 114 122 63
29.3187 80.7724 -36.4503 -0.218 -0.415 0.884 114 122 63
29.4345 80.6696 -36.4204 -0.225 -0.418 0.880 114 122 63
35.1612 79.8263 -37.7411 0.897 -0.323 0.302 110 117 66
35.3860 79.9336 -37.8858 0.615 -0.497 0.612 111 118 66
39.4620 72.7536 -34.4727 -0.492 -0.515 0.702 112 121 66
39.5404 72.6535 -34.4322 -0.457 -0.540 0.706 108 117 62
39.6257 72.5992 -34.4242 -0.488 -0.504 0.713 104 113 60
39.7096 72.5372 -34.4107 -0.488 -0.504 0.713 102 111 56
-6.1605 70.9775 -18.4559 -0.289 -0.877 0.383 58 74 38
-6.1395 71.0810 -18.5315 -0.457 -0.874 0.164 58 74 38
-5.6430 70.7039 -18.4438 -0.652 -0.743 0.149 58 74 38
-4.4132 69.7572 -18.2184 -0.269 -0.772 0.576 59 75 39
-4.1823 69.5843 -18.1793 -0.329 -0.665 0.671 59 75 39
25.8029 69.6898 -28.0819 0.303 -0.922 0.243 130 137 85
26.5885 69.1958 -28.0114 -0.064 -0.996 -0.056 135 143 86
29.1573 81.0281 -36.7114 -0.180 -0.330 0.927 114 122 65
33.9495 80.3695 -37.8455 0.519 -0.854 0.019 111 120 65
35.4567 79.8675 -38.0063 0.217 -0.348 0.912 101 107 59
39.5843 72.5051 -34.4706 -0.376 -0.411 0.830 97 106 53
39.7477 72.3575 -34.4262 -0.448 -0.506 0.737 89 98 45
-4.4070 69.9354 -18.4613 -0.347 -0.317 0.883 58 72 40
-3.2393 69.8325 -18.7754 -0.475 -0.163 0.865 76 87 53
26.3413 69.4884 -28.2415 -0.270 -0.948 0.169 116 123 72
26.5569 69.1824 -28.1082 -0.067 -0.993 -0.099 126 133 79
34.1393 80.4674 -38.1156 -0.597 -0.707 -0.378 104 111 59
39.3746 72.5332 -34.5428 -0.186 -0.459 0.868 109 118 65
39.5455 72.4266 -34.5278 -0.370 -0.408 0.835 97 106 53
44.2954 72.7774 -36.3185 0.365 -0.265 0.893 33 38 18
44.3419 72.5939 -36.2114 0.319 -0.339 0.885 32 36 21
24.0969 66.3718 -25.5380 -0.304 -0.928 0.217 127 136 80
25.9316 69.5807 -28.2859 -0.280 -0.945 0.171 80 86 42
26.0267 69.5504 -28.2969 -0.280 -0.945 0.171 48 53 12
26.3088 69.4797 -28.3420 -0.270 -0.948 0.169 109 116 66
26.4004 69.4768 -28.3700 0.304 -0.880 0.364 119 126 73
26.5174 69.2405 -28.2503 0.028 -0.986 -0.166 112 119 65
32.9553 67.9566 -29.5004 0.363 -0.529 0.767 109 118 63
39.3335 72.4395 -34.5893 -0.171 -0.428 0.888 110 119 66
39.5050 72.3377 -34.5773 -0.230 -0.375 0.898 97 105 54
39.5938 72.3077 -34.5863 -0.217 -0.384 0.897 92 101 48
44.2553 72.3450 -36.1385 0.410 -0.326 0.852 30 34 19
44.3296 72.2741 -36.1154 0.112 -0.443 0.889 31 34 23
44.3973 72.1783 -36.0734 0.133 -0.519 0.844 30 34 21
25.8003 69.6283 -28.3923 -0.235 -0.953 0.190 109 115 67
25.8978 69.5804 -28.3920 -0.185 -0.979 0.087 78 84 40
25.9917 69.5603 -28.4093 -0.175 -0.982 0.077 45 50 9
26.0854 69.5422 -28.4278 -0.175 -0.982 0.077 52 57 16
26.1789 69.5241 -28.4463 -0.175 -0.982 0.077 79 85 39
26.2723 69.5060 -28.4648 -0.175 -0.982 0.077 106 113 63
26.3639 69.5034 -28.4930 0.177 -0.933 -0.315 115 122 69
26.4836 69.2454 -28.3589 0.026 -0.982 -0.185 110 118 61
31.7396 80.1257 -37.3866 -0.287 -0.835 0.469 113 122 67
32.3924 79.4261 -37.1305 -0.520 -0.850 0.084 113 120 66
32.8287 79.4508 -37.2899 0.517 -0.786 -0.339 105 112 58
39.2961 72.3686 -34.6519 -0.114 -0.399 0.910 110 119 66
39.3843 72.3327 -34.6566 -0.114 -0.399 0.910 105 114 61
39.4723 72.2968 -34.6613 -0.114 -0.399 0.910 97 106 53
39.5600 72.2599 -34.6653 -0.170 -0.424 0.889 92 101 48
41.8297 72.4093 -35.5088 0.445 -0.799 -0.405 80 90 39
42.0623 72.6289 -35.7325 0.319 -0.875 -0.365 79 88 39
42.1473 72.5880 -35.7329 0.268 -0.904 -0.333 74 83 34
25.7678 69.6159 -28.4910 -0.230 -0.957 0.177 105 111 64
25.8640 69.5793 -28.4978 -0.201 -0.971 0.130 75 80 37
25.9620 69.5261 -28.4940 -0.068 -0.982 -0.176 42 47 7
26.0508 69.5494 -28.5387 0.002 -0.994 -0.113 47 52 13
26.1426 69.5466 -28.5669 -0.073 -0.992 0.101 74 80 35
26.2370 69.5214 -28.5808 -0.049 -0.997 0.066 103 109 59
26.3263 69.5400 -28.6226 0.177 -0.933 -0.315 112 120 65
26.4421 69.3197 -28.5120 -0.039 -0.949 -0.314 106 113 58
31.1524 79.7997 -37.1175 0.657 -0.734 -0.170 112 119 65
31.8124 79.7989 -37.3330 0.001 -0.884 0.467 107 116 61
31.9212 79.5992 -37.2340 0.239 -0.971 -0.000 108 117 62
32.3579 79.5179 -37.3222 -0.467 -0.884 -0.022 103 110 56
39.1845 72.4262 -34.7766 -0.549 -0.601 0.581 106 115 60
39.2655 72.3417 -34.7462 -0.435 -0.508 0.743 105 114 61
39.3504 72.2846 -34.7355 -0.435 -0.508 0.743 102 111 58
39.4351 72.2277 -34.7248 -0.435 -0.508 0.743 98 107 54
39.5195 72.1709 -34.7142 -0.435 -0.508 0.743 95 104 51
25.7351 69.6052 -28.5908 -0.230 -0.957 0.177 103 109 62
25.8345 69.5433 -28.5815 -0.028 -0.992 -0.121 71 77 35
25.9260 69.5445 -28.6122 -0.028 -0.992 -0.121 39 44 5
26.0174 69.5456 -28.6429 -0.028 -0.992 -0.121 44 48 12
26.1088 69.5467 -28.6735 -0.028 -0.992 -0.121 71 76 35
26.2003 69.5479 -28.7042 -0.028 -0.992 -0.121 100 107 53
26.4043 69.3592 -28.6433 -0.021 -0.948 -0.319 103 110 56
30.1090 80.3467 -37.2886 -0.276 -0.326 0.904 114 122 65
31.0058 79.7641 -37.1878 0.502 -0.809 -0.308 112 119 65
31.1147 79.8981 -37.3141 0.510 -0.809 -0.292 112 119 65
31.2244 80.0023 -37.4205 0.188 -0.973 -0.131 109 116 62
31.7758 79.7210 -37.4106 -0.008 -0.879 0.477 100 109 54
31.8846 79.5097 -37.3032 0.270 -0.962 0.033 101 110 55
31.9940 79.5070 -37.3372 0.267 -0.964 0.011 102 109 55
39.1437 72.3326 -34.8228 -0.606 -0.666 0.436 106 115 62
39.2289 72.2761 -34.8124 -0.549 -0.600 0.581 101 110 57
39.3120 72.2078 -34.7933 -0.549 -0.601 0.581 100 109 56
39.3941 72.1345 -34.7706 -0.552 -0.599 0.580 96 105 52
39.4776 72.0721 -34.7557 -0.552 -0.599 0.580 93 101 50
46.3379 89.7431 -48.9548 0.800 -0.463 0.381 42 49 16
25.7024 69.5946 -28.6908 -0.230 -0.957 0.177 106 113 69
25.8013 69.5371 -28.6841 0.029 -0.997 -0.074 66 73 34
25.8923 69.5422 -28.7174 0.029 -0.997 -0.074 33 39 5
25.9834 69.5474 -28.7506 0.029 -0.997 -0.074 41 46 15
26.0744 69.5521 -28.7836 0.020 -0.995 -0.103 84 91 50
26.1662 69.5512 -28.8130 0.003 -0.993 -0.119 100 109 54
26.2520 69.6020 -28.8756 0.236 -0.883 -0.406 104 114 55
30.1907 80.0166 -37.2352 0.063 -0.590 0.805 111 120 63
31.1873 80.0335 -37.5726 0.184 -0.975 -0.125 102 109 55
39.1125 72.3014 -34.9140 -0.606 -0.666 0.436 106 115 62
39.1916 72.2049 -34.8744 -0.642 -0.490 0.589 98 107 52
39.2692 72.1018 -34.8297 -0.650 -0.494 0.577 96 105 50
39.3425 71.9731 -34.7663 -0.560 -0.526 0.640 93 102 47
39.4199 71.8741 -34.7244 -0.549 -0.572 0.609 89 98 45
45.2604 88.9537 -48.2315 0.113 -0.544 0.831 61 67 38
25.6700 69.5810 -28.7890 -0.236 -0.955 0.179 106 113 71
25.7669 69.5406 -28.7931 0.047 -0.996 -0.071 66 72 37
25.8578 69.5474 -28.8274 0.047 -0.996 -0.071 32 37 9
25.9487 69.5541 -28.8618 0.047 -0.996 -0.071 41 44 20
26.0396 69.5604 -28.8957 0.044 -0.997 -0.070 85 91 53
28.3652 80.1871 -36.8981 -0.039 -0.783 0.621 114 121 67
28.4793 80.1426 -36.9051 -0.054 -0.804 0.593 113 120 66
29.1119 80.9945 -37.6924 -0.373 -0.507 0.777 115 122 68
29.2280 80.9182 -37.6784 -0.438 -0.504 0.744 115 122 68
29.3441 80.8354 -37.6599 -0.438 -0.505 0.744 110 117 63
29.4626 80.6799 -37.5926 -0.410 -0.431 0.803 107 116 59
29.5777 80.5994 -37.5754 -0.416 -0.430 0.801 108 117 60
29.6927 80.5162 -37.5563 -0.559 -0.460 0.690 108 117 60
29.8113 80.3017 -37.4488 -0.552 -0.448 0.704 104 113 56
44.9158 89.2668 -48.4957 -0.148 -0.839 -0.524 60 68 31
45.0015 89.0702 -48.3897 -0.187 -0.903 -0.387 57 64 35
8.5960 64.5778 -19.9067 -0.360 -0.933 -0.027 99 109 57
17.3569 63.6654 -22.1448 -0.199 -0.653 0.730 122 129 73
25.7335 69.5353 -28.8966 0.213 -0.975 0.056 67 72 39
25.8231 69.5525 -28.9377 0.213 -0.975 0.056 32 36 10
25.9128 69.5698 -28.9788 0.213 -0.975 0.056 41 44 21
26.0026 69.5870 -29.0199 0.213 -0.975 0.056 85 92 54
27.8627 80.4383 -37.0500 -0.096 -0.681 0.726 111 118 64
27.9930 80.1521 -36.8968 -0.034 -0.556 0.831 114 121 67
28.1047 80.1536 -36.9343 -0.045 -0.569 0.821 115 122 68
28.2200 80.0925 -36.9302 -0.079 -0.607 0.790 115 122 68
28.3328 80.0713 -36.9526 -0.045 -0.805 0.592 115 122 68
28.4455 80.0491 -36.9742 -0.045 -0.805 0.592 112 119 65
28.7762 80.1233 -37.1330 0.544 -0.637 -0.546 111 118 64
40.0303 70.8758 -34.4844 0.594 -0.723 0.354 80 90 40
39.9988 70.1828 -34.0001 0.559 -0.716 0.419 78 88 36
40.6019 71.0135 -34.7654 0.748 -0.603 0.276 71 77 42
40.6696 70.8887 -34.7021 0.728 -0.444 0.523 69 77 38
44.9990 89.2231 -48.6575 0.188 -0.550 0.814 48 54 29
45.0850 89.0299 -48.5534 0.138 -0.533 0.835 45 50 29
45.6067 89.1348 -48.7956 -0.432 -0.659 0.615 35 39 20
45.8287 89.0047 -48.7792 -0.432 -0.659 0.615 29 34 14
8.4764 64.7165 -20.0712 -0.226 -0.974 0.016 98 107 59
8.5728 64.6988 -20.0905 -0.224 -0.974 -0.009 101 110 64
9.5366 64.3492 -20.1653 0.592 -0.511 0.623 105 115 62
9.6458 64.3047 -20.1703 0.190 -0.712 0.676 105 115 63
10.2005 64.0591 -20.1829 -0.230 -0.736 -0.636 106 114 65
10.3714 64.0571 -20.2373 -0.291 -0.718 -0.632 108 116 67
15.0816 65.8416 -23.0006 -0.774 -0.516 0.367 115 124 68
15.4233 65.8604 -23.1251 -0.711 -0.702 -0.043 114 123 68
15.5639 65.7172 -23.0727 -0.709 -0.704 -0.037 114 123 68
25.7898 69.5465 -29.0409 0.307 -0.945 0.110 32 37 7
25.8788 69.5701 -29.0861 0.307 -0.945 0.110 40 44 18
25.9678 69.5937 -29.1314 0.307 -0.945 0.110 84 91 53
26.0608 69.5848 -29.1557 0.128 -0.988 -0.090 101 109 55
27.6313 79.9612 -36.7921 0.441 -0.855 -0.273 111 118 64
27.7118 80.4211 -37.1341 -0.031 -0.767 0.641 111 118 64
28.1768 80.1608 -37.1072 -0.514 -0.552 0.657 107 114 60
28.2925 80.0941 -37.0992 -0.532 -0.551 0.643 106 113 59
28.4101 79.9857 -37.0632 -0.045 -0.805 0.592 101 108 54
28.7290 80.2929 -37.3782 0.544 -0.637 -0.546 100 107 53
31.5377 67.3079 -29.3810 0.357 -0.934 -0.003 107 117 57
31.6239 67.4054 -29.4761 0.585 -0.798 -0.144 108 118 58
39.0700 71.9280 -35.0126 -0.049 -0.336 0.941 94 104 51
39.2967 71.5891 -34.8539 -0.127 -0.605 0.786 87 98 41
39.3871 71.5754 -34.8741 -0.008 -0.398 0.917 85 96 38
39.8333 70.4076 -34.2180 0.679 -0.734 0.020 77 86 38
40.1597 70.7202 -34.5392 -0.326 -0.945 0.017 76 86 35
40.6245 70.7798 -34.7319 0.728 -0.444 0.523 59 63 44
44.2577 89.4613 -48.7435 0.506 -0.720 -0.475 56 61 40
40.9424 71.0154 -34.9975 0.454 -0.750 0.481 53 57 34
41.0387 71.0419 -35.0471 0.627 -0.464 0.625 49 55 32
41.1393 71.0895 -35.1126 0.627 -0.464 0.625 46 51 29
41.2284 71.0791 -35.1346 0.704 -0.443 0.555 39 44 25
41.3093 71.0276 -35.1256 0.695 -0.459 0.553 30 37 20
41.4250 71.1492 -35.2469 0.372 -0.696 0.615 30 37 20
10.2849 64.3106 -20.4907 -0.313 -0.721 -0.618 105 113 64
10.3734 64.3046 -20.5154 -0.262 -0.731 -0.630 104 112 61
10.7005 64.1642 -20.5254 -0.115 -0.778 -0.617 104 112 61
10.7903 64.1548 -20.5483 -0.120 -0.767 -0.630 104 112 61
10.8636 64.1783 -20.5884 -0.127 -0.766 -0.630 109 117 66
10.9398 64.1960 -20.6255 -0.045 -0.739 -0.672 108 116 67
11.0343 64.1771 -20.6433 -0.105 -0.770 -0.629 109 117 67
11.1521 64.1108 -20.6361 -0.428 -0.880 -0.204 108 117 64
11.3251 68.9234 -24.0085 0.755 -0.640 0.140 113 121 70
10.5627 73.7359 -27.0756 0.326 -0.706 0.629 111 121 69
15.2390 66.0138 -23.2813 -0.551 -0.834 -0.027 114 122 69
15.3528 65.9440 -23.2703 -0.705 -0.706 -0.068 110 119 64
25.8476 69.5474 -29.1787 0.326 -0.931 0.164 49 53 27
26.2204 69.5003 -29.2679 0.451 -0.872 -0.189 106 115 57
27.5900 79.9878 -36.9410 0.451 -0.854 -0.259 102 109 55
27.6769 80.3511 -37.2198 -0.043 -0.777 0.628 104 111 57
28.0212 80.2328 -37.2506 0.001 -0.781 0.624 93 100 46
28.1414 80.0979 -37.1969 -0.504 -0.546 0.669 93 100 46
28.3748 79.9223 -37.1521 -0.045 -0.805 0.592 95 102 48
39.1786 71.5939 -34.9401 -0.143 -0.637 0.757 86 95 46
39.2627 71.5388 -34.9296 -0.158 -0.653 0.741 82 92 41
39.3460 71.4797 -34.9160 -0.008 -0.398 0.917 80 91 37
39.5497 71.0320 -34.6740 0.133 -0.548 0.826 80 90 39
39.6193 70.9003 -34.6060 0.599 -0.459 0.656 79 89 41
40.1267 70.6749 -34.6163 -0.269 -0.960 0.074 70 79 34
40.2107 70.6369 -34.6176 -0.379 -0.913 0.147 67 75 34
40.2964 70.6096 -34.6267 -0.101 -0.978 0.185 65 72 37
40.3925 70.6399 -34.6789 0.273 -0.961 -0.037 56 61 37
40.4989 70.7251 -34.7724 0.664 -0.705 0.249 54 58 41
40.5788 70.6673 -34.7587 0.730 -0.446 0.517 50 53 41
40.6607 70.6211 -34.7535 0.680 -0.439 0.587 47 51 37
40.7625 70.6800 -34.8274 0.680 -0.439 0.587 41 45 30
40.8737 70.7870 -34.9374 0.575 -0.707 0.411 37 41 25
40.9804 70.8685 -35.0284 0.650 -0.606 0.458 37 41 24
41.0760 70.8924 -35.0761 0.634 -0.651 0.416 35 39 22
41.1368 70.7407 -34.9913 0.702 -0.563 0.435 32 39 22
41.2342 70.7743 -35.0463 0.711 -0.565 0.419 30 37 21
41.3286 70.7925 -35.0896 0.691 -0.562 0.454 30 36 22
4.4988 66.2054 -20.0209 0.252 -0.962 -0.110 61 71 36
4.5525 66.2647 -20.0795 -0.037 -0.994 -0.105 62 72 37
4.6923 66.1854 -20.0703 -0.229 -0.971 0.075 63 73 38
10.0046 64.7748 -20.8279 -0.287 -0.732 -0.618 99 107 58
10.0995 64.7583 -20.8475 -0.204 -0.722 -0.661 99 107 56
10.2641 64.6050 -20.7951 -0.073 -0.695 -0.715 98 106 55
10.4125 64.4821 -20.7586 -0.146 -0.733 -0.664 98 106 57
10.5615 64.3571 -20.7207 -0.102 -0.748 -0.655 99 107 56
10.6811 64.2895 -20.7130 -0.101 -0.752 -0.651 99 107 56
10.7556 64.3111 -20.7523 -0.096 -0.752 -0.652 103 111 60
10.8185 64.3562 -20.8040 -0.058 -0.735 -0.676 103 111 62
10.8842 64.3962 -20.8530 -0.058 -0.735 -0.676 103 111 61
25.5491 69.4578 -29.1378 0.297 -0.940 0.164 99 106 62
28.1648 66.4697 -27.9248 -0.195 -0.756 -0.624 91 98 44
28.2502 66.4707 -27.9534 -0.194 -0.755 -0.626 92 99 45
28.3347 66.4833 -27.9896 -0.008 -0.797 -0.604 92 99 45
27.9870 80.1510 -37.3279 -0.014 -0.787 0.617 95 102 48
28.1068 80.0226 -37.2782 -0.514 -0.552 0.657 94 101 47
28.3391 79.8661 -37.2457 -0.031 -0.757 0.652 101 108 54
38.6719 72.1295 -35.2667 -0.352 -0.570 0.742 108 116 65
38.7394 71.9471 -35.1626 -0.325 -0.588 0.740 105 113 62
38.8264 71.9023 -35.1600 -0.325 -0.588 0.740 101 109 58
38.9122 71.8509 -35.1525 -0.318 -0.572 0.756 98 108 58
38.9932 71.7688 -35.1221 -0.421 -0.583 0.695 89 98 51
39.0722 71.6759 -35.0836 -0.436 -0.584 0.685 86 95 50
39.1529 71.5965 -35.0551 -0.442 -0.586 0.680 82 91 47
39.3643 71.1785 -34.8350 -0.015 -0.391 0.920 76 86 38
39.4458 71.1142 -34.8171 0.049 -0.389 0.920 77 86 39
39.5467 70.6154 -34.5050 0.384 -0.602 0.700 74 82 41
39.8911 70.5076 -34.5429 0.672 -0.738 -0.061 60 68 33
39.9869 70.5376 -34.5949 0.313 -0.922 -0.229 55 63 28
40.1016 70.6735 -34.7263 -0.269 -0.960 0.074 53 61 24
40.1847 70.6306 -34.7237 -0.379 -0.913 0.147 50 57 22
40.2669 70.5838 -34.7182 -0.101 -0.976 0.191 47 53 23
40.3498 70.5415 -34.7160 0.407 -0.907 0.107 46 51 29
40.4401 70.5405 -34.7447 0.612 -0.768 0.191 43 47 30
40.5215 70.4920 -34.7378 0.705 -0.523 0.479 40 44 28
40.6099 70.4818 -34.7595 0.699 -0.431 0.570 37 42 23
40.7024 70.4932 -34.7976 0.473 -0.532 0.702 31 35 16
40.8036 70.5498 -34.8698 0.417 -0.636 0.650 28 33 12
40.9239 70.7033 -35.0152 0.489 -0.681 0.545 31 36 16
9.9814 64.9061 -21.0205 -0.243 -0.732 -0.636 93 101 50
7.5010 73.1852 -25.9577 0.141 -0.502 -0.853 88 95 54
16.1163 63.4958 -22.0422 -0.709 -0.313 0.632 96 104 56
16.2527 63.3533 -21.9878 -0.669 -0.319 0.671 96 105 51
16.8510 63.2911 -22.1398 0.830 -0.372 0.415 100 109 57
16.9051 63.3685 -22.2111 0.833 -0.369 0.413 102 107 65
17.1984 63.4682 -22.3760 0.028 -0.635 0.772 97 102 61
