ply
format ascii 1.0
element vertex 889
property float x
property float y
property float z
property float nx
property float ny
property float nz
property uchar diffuse_red
property uchar diffuse_green
property uchar diffuse_blue
end_header
52.2494 12.3999 -44.0845 0.551 -0.684 0.478 69 75 47
52.3792 12.4387 -44.1787 0.551 -0.684 0.478 71 79 42
52.7035 12.3980 -44.3498 -0.654 -0.454 0.605 28 31 14
52.7755 12.2994 -44.3460 -0.654 -0.454 0.605 26 29 18
52.8402 12.1842 -44.3302 -0.501 -0.419 0.758 25 28 22
52.6790 11.5430 -43.9362 0.261 -0.184 0.948 19 21 19
52.7546 11.4577 -43.9407 0.270 -0.187 0.945 19 21 21
52.8300 11.3723 -43.9450 0.436 -0.273 0.857 23 25 21
52.9599 11.4131 -44.0402 0.738 -0.333 0.587 26 30 19
53.1404 11.5691 -44.2189 0.740 -0.335 0.582 31 35 18
53.2384 11.5354 -44.2607 0.733 -0.350 0.583 29 34 13
53.3955 11.6361 -44.3998 0.730 -0.349 0.587 24 29 6
53.4949 11.6051 -44.4436 0.648 -0.358 0.672 31 37 11
53.5906 11.5662 -44.4816 0.039 -0.523 0.852 42 48 17
38.0332 84.0482 -69.5280 -0.643 -0.766 0.010 39 42 27
38.2491 83.8642 -69.5683 0.072 -0.989 0.127 37 39 25
38.4746 83.8156 -69.6778 0.125 -0.985 0.118 36 38 25
38.7235 84.0741 -69.9452 0.435 -0.897 0.074 36 38 25
39.0112 84.8148 -70.4618 0.455 -0.885 0.102 36 38 27
44.2319 79.9040 -71.2199 -0.289 -0.363 0.886 34 36 22
44.3674 79.1809 -70.9599 -0.560 -0.565 0.606 36 38 26
44.5069 78.5086 -70.7261 -0.542 -0.495 0.679 21 22 15
44.6772 78.0934 -70.6311 -0.573 -0.568 0.591 16 16 14
50.1976 17.2858 -45.3225 -0.428 -0.359 0.829 124 134 84
50.3955 16.1483 -44.9046 -0.583 -0.148 0.799 16 18 13
50.4755 16.0402 -44.9008 -0.478 -0.201 0.855 16 18 16
50.5222 15.8408 -44.8346 -0.497 -0.211 0.841 28 31 22
50.6759 15.6129 -44.8178 -0.197 -0.344 0.918 30 34 13
51.3689 13.4428 -44.2056 -0.244 -0.229 0.942 22 25 16
51.4355 13.0300 -44.0509 -0.450 -0.567 0.690 21 24 11
51.5181 12.9507 -44.0622 -0.450 -0.567 0.690 24 29 9
51.9278 12.2764 -43.9860 0.463 -0.739 0.489 22 26 2
52.0413 12.2769 -44.0528 0.484 -0.734 0.477 25 28 12
52.1660 12.3046 -44.1390 0.544 -0.675 0.499 30 33 12
52.6762 12.4373 -44.5007 -0.663 -0.453 0.596 18 20 10
52.7482 12.3380 -44.4963 -0.663 -0.453 0.596 19 20 16
52.4912 11.4669 -43.9366 0.253 -0.187 0.949 18 19 23
52.5585 11.3620 -43.9268 0.265 -0.185 0.946 20 23 31
52.6520 11.3188 -43.9614 0.265 -0.185 0.946 17 22 26
52.7122 11.1986 -43.9403 0.436 -0.273 0.857 18 25 15
52.8602 11.2820 -44.0663 0.702 -0.315 0.639 24 32 8
53.0044 11.3554 -44.1854 0.740 -0.338 0.581 34 40 9
53.1669 11.2138 -44.2142 0.628 -0.396 0.670 48 56 22
53.1351 10.8879 -44.0426 0.204 -0.405 0.891 36 44 9
37.4230 83.5086 -69.2329 -0.406 -0.512 -0.757 48 51 34
44.4037 78.5523 -70.9935 -0.532 -0.498 0.685 24 23 17
44.6175 78.4726 -71.0814 -0.541 -0.491 0.683 19 18 15
49.6054 19.6866 -46.2673 -0.151 -0.987 0.064 79 84 44
50.3177 16.0656 -44.9767 -0.583 -0.148 0.799 15 17 14
50.3948 15.9495 -44.9672 -0.478 -0.201 0.855 21 24 15
50.5230 15.6486 -44.9005 -0.218 -0.356 0.909 91 98 65
50.6057 15.5511 -44.9030 -0.212 -0.355 0.910 77 83 50
51.1794 13.6639 -44.3493 -0.421 -0.172 0.891 17 19 16
51.2400 13.5234 -44.3186 -0.282 -0.183 0.942 20 23 14
51.2573 13.2733 -44.2107 -0.283 -0.221 0.933 20 24 7
51.2627 12.9952 -44.0826 -0.515 -0.570 0.640 23 28 7
51.3720 12.9832 -44.1412 -0.460 -0.581 0.671 40 46 18
51.8563 12.2092 -44.0603 0.480 -0.732 0.483 32 36 11
51.9710 12.2129 -44.1294 0.478 -0.731 0.487 20 21 11
52.0973 12.2446 -44.2185 0.589 -0.721 0.366 22 23 12
52.4678 11.2500 -43.9667 0.318 -0.187 0.930 17 21 24
52.8090 10.7492 -43.9307 0.219 -0.423 0.879 95 104 58
52.8400 10.5665 -43.8627 -0.463 -0.477 0.747 93 102 55
52.9150 10.4850 -43.8683 -0.463 -0.477 0.747 67 76 28
36.8214 83.0282 -68.9683 -0.301 -0.484 -0.822 48 51 30
37.0803 83.5277 -69.3574 -0.301 -0.484 -0.822 48 51 32
44.1541 79.2262 -71.4742 -0.306 -0.372 0.876 30 30 18
44.3310 78.8412 -71.3955 -0.326 -0.513 0.794 23 23 16
44.5077 78.4642 -71.3205 -0.464 -0.518 0.718 21 17 15
45.8714 55.9043 -61.4196 -0.044 -0.531 0.846 20 10 13
46.0675 55.9661 -61.5642 0.049 -0.618 0.784 25 13 16
49.5561 19.6948 -46.4075 -0.508 -0.845 -0.168 79 84 45
49.6623 19.6380 -46.4430 -0.508 -0.845 -0.168 76 82 49
49.5355 18.8721 -46.0051 -0.858 -0.352 0.373 71 75 50
50.1350 16.3585 -45.1651 -0.575 -0.121 0.809 19 22 17
50.3035 15.8288 -45.0128 -0.471 -0.199 0.860 33 37 20
50.4322 15.5297 -44.9466 -0.417 -0.745 0.520 119 129 81
50.4335 15.2091 -44.7952 -0.589 -0.223 0.777 119 127 81
51.0367 13.7111 -44.4391 -0.355 -0.203 0.913 17 22 16
51.0957 13.5653 -44.4046 -0.349 -0.185 0.919 19 22 14
51.1518 13.4134 -44.3655 -0.274 -0.216 0.937 27 32 12
51.1393 13.0866 -44.2031 -0.561 -0.613 0.556 41 47 17
51.2317 13.0310 -44.2310 -0.541 -0.623 0.565 65 73 36
51.3204 12.9662 -44.2524 -0.535 -0.635 0.558 92 100 54
51.8101 12.2039 -44.1786 0.516 -0.791 0.329 24 29 9
51.9005 12.1484 -44.2054 0.493 -0.728 0.477 19 21 15
52.0721 10.6823 -43.6107 -0.431 -0.563 0.705 13 18 14
52.1402 10.5824 -43.6034 -0.399 -0.594 0.699 13 19 11
52.6369 10.7064 -43.9541 0.471 -0.852 0.228 100 114 55
52.7357 10.6781 -43.9987 0.368 -0.915 0.166 110 123 64
52.8238 10.6255 -44.0256 -0.267 -0.680 0.683 113 128 65
52.8865 10.5156 -44.0103 -0.798 -0.572 0.190 110 124 64
53.7499 9.9736 -44.2606 -0.477 -0.217 0.851 78 88 35
53.7105 8.9458 -43.7499 -0.194 -0.452 0.871 82 93 33
44.2050 78.7061 -71.5658 -0.333 -0.513 0.791 26 23 17
44.4143 78.5863 -71.6318 -0.477 -0.522 0.707 22 17 14
46.2229 57.3884 -62.5871 -0.056 -0.591 0.805 31 15 19
49.4767 19.6099 -46.4859 -0.554 -0.809 -0.196 77 81 45
50.1516 15.8701 -45.0996 -0.631 -0.267 0.728 18 22 8
50.3597 15.1365 -44.8721 -0.589 -0.223 0.777 131 140 83
50.8789 13.7195 -44.5017 -0.331 -0.187 0.925 20 24 22
50.9515 13.6082 -44.4914 -0.354 -0.205 0.912 18 23 19
51.0058 13.4504 -44.4481 -0.354 -0.197 0.914 25 32 15
51.0293 13.2144 -44.3493 -0.508 -0.394 0.766 52 59 26
51.0748 13.0372 -44.2917 -0.542 -0.623 0.564 76 85 39
51.8878 11.9491 -44.2509 -0.244 -0.751 0.613 17 19 14
51.9217 10.6888 -43.6699 -0.442 -0.552 0.707 14 18 15
52.0003 10.6130 -43.6800 -0.442 -0.552 0.707 13 18 11
52.0295 10.4217 -43.6059 0.371 -0.900 0.229 10 16 2
52.1644 10.4794 -43.7128 0.455 -0.888 -0.074 30 41 10
52.3120 10.5656 -43.8407 0.455 -0.888 -0.074 74 88 40
52.4596 10.6511 -43.9683 0.487 -0.840 0.239 99 115 54
52.5694 10.6483 -44.0315 0.471 -0.852 0.228 118 134 69
52.7004 10.6942 -44.1305 0.471 -0.852 0.228 116 131 66
52.7668 10.5917 -44.1206 -0.663 -0.653 0.365 113 128 63
52.8398 10.5051 -44.1223 -0.794 -0.575 0.196 114 128 66
53.8560 9.5772 -44.2775 -0.577 -0.701 0.419 82 92 40
35.4966 88.4205 -71.4051 0.524 -0.492 -0.696 45 48 27
43.8847 78.8154 -71.7386 -0.323 -0.485 0.813 33 29 21
44.0762 78.5474 -71.7228 -0.333 -0.513 0.791 27 22 18
44.2257 77.9519 -71.5253 -0.573 -0.480 0.665 24 15 16
49.4693 19.7483 -46.7135 -0.415 -0.781 -0.467 74 80 43
49.5184 18.3843 -46.0885 -0.849 -0.350 0.396 15 17 7
49.5537 18.1222 -45.9837 -0.852 -0.348 0.392 75 77 60
50.1791 15.4195 -45.0563 -0.706 -0.196 0.680 120 129 83
50.2459 15.2779 -45.0278 -0.706 -0.196 0.680 126 137 83
50.2860 15.0639 -44.9488 -0.589 -0.223 0.777 122 132 71
50.7966 13.6240 -44.5592 -0.328 -0.187 0.926 19 23 26
50.8679 13.5092 -44.5461 -0.354 -0.205 0.912 21 25 22
50.8910 13.2703 -44.4452 -0.326 -0.189 0.926 54 62 38
50.9320 13.0799 -44.3781 -0.512 -0.386 0.767 89 97 53
51.0152 12.9998 -44.3887 -0.539 -0.622 0.568 113 123 70
51.2377 12.1237 -44.0997 -0.342 -0.151 0.928 128 136 84
51.5636 10.4626 -43.4953 -0.438 -0.393 0.809 16 18 16
51.6801 10.4779 -43.5712 0.110 -0.416 0.903 15 17 19
51.7667 10.4218 -43.5953 0.105 -0.413 0.905 13 18 13
51.8620 10.3864 -43.6345 0.088 -0.574 0.814 11 17 7
51.9411 10.3132 -43.6459 0.439 -0.888 0.138 5 14 0
52.0990 10.4252 -43.7925 0.439 -0.884 -0.163 57 67 36
52.2519 10.5244 -43.9301 0.431 -0.887 -0.165 105 118 72
52.3665 10.5334 -44.0019 0.431 -0.879 0.202 116 130 75
52.4951 10.5746 -44.0973 0.431 -0.879 0.202 123 139 79
52.6128 10.5900 -44.1740 0.381 -0.889 0.254 119 134 75
52.7319 10.6084 -44.2529 -0.601 -0.784 -0.155 116 129 76
53.7459 9.4283 -44.2841 -0.187 -0.832 0.522 75 83 44
53.8716 9.4623 -44.3744 -0.148 -0.840 0.521 80 89 43
53.9635 9.4239 -44.4101 -0.148 -0.840 0.521 82 92 42
44.0499 77.4120 -71.4691 -0.733 -0.405 0.547 24 14 15
49.4407 18.3029 -46.1663 -0.830 -0.375 0.412 19 20 11
49.4939 18.0943 -46.0971 -0.849 -0.350 0.396 40 43 32
50.1776 15.2204 -45.1153 -0.706 -0.196 0.680 125 135 83
50.6973 13.4832 -44.5844 -0.354 -0.201 0.913 15 19 18
50.7461 13.3099 -44.5297 -0.357 -0.201 0.912 18 23 18
50.7883 13.1213 -44.4637 -0.515 -0.381 0.767 72 77 55
50.8542 12.9957 -44.4420 -0.502 -0.384 0.775 107 115 73
51.5690 10.3137 -43.5709 -0.357 -0.398 0.845 19 22 12
51.6721 10.2976 -43.6239 0.113 -0.414 0.903 17 23 11
51.7563 10.2364 -43.6440 0.145 -0.485 0.862 15 21 8
51.8595 10.2206 -43.6972 0.492 -0.567 0.661 12 19 3
52.2267 10.3068 -43.9550 0.566 -0.457 0.686 109 121 81
52.4310 10.5241 -44.1801 0.431 -0.879 0.202 108 121 77
52.5461 10.5338 -44.2525 0.376 -0.889 0.261 96 109 66
53.6845 9.1488 -44.2558 0.015 -0.461 0.887 79 87 47
48.7379 18.5586 -46.0386 -0.505 -0.566 0.651 75 82 38
48.8843 18.6335 -46.1611 -0.516 -0.657 0.549 74 81 38
48.9553 18.4727 -46.1252 -0.506 -0.179 0.844 73 80 38
49.5615 17.7177 -46.1169 -0.837 -0.372 0.401 26 28 22
50.5490 13.2126 -44.5174 -0.552 -0.443 0.706 22 28 18
50.6370 13.1432 -44.5356 -0.565 -0.445 0.695 20 25 18
50.7065 13.0261 -44.5199 -0.276 -0.162 0.947 49 53 37
50.7676 12.8883 -44.4892 -0.239 -0.177 0.955 100 107 75
50.9831 11.9890 -44.1807 -0.335 -0.153 0.930 119 127 85
51.5895 10.2017 -43.6727 0.039 -0.562 0.827 28 35 15
51.6982 10.1990 -43.7355 0.138 -0.569 0.811 23 30 13
51.7956 10.1695 -43.7786 0.482 -0.552 0.680 23 30 14
51.9105 10.1812 -43.8520 0.492 -0.555 0.670 29 35 20
52.0250 10.1916 -43.9245 0.484 -0.557 0.674 55 62 44
52.1287 10.1768 -43.9785 0.572 -0.459 0.680 65 74 52
52.3670 10.4738 -44.2628 0.431 -0.879 0.202 59 70 43
52.4979 10.5202 -44.3624 0.329 -0.917 0.224 50 60 33
52.6648 10.6484 -44.5229 -0.515 -0.834 0.196 40 47 29
44.4218 51.9352 -59.9012 0.211 -0.902 0.378 24 10 14
48.8738 18.3780 -46.1941 -0.506 -0.179 0.844 71 79 35
48.9919 18.3649 -46.2574 -0.450 -0.179 0.875 78 86 47
50.4830 13.1585 -44.6030 -0.552 -0.443 0.706 27 34 14
50.5518 13.0387 -44.5852 -0.547 -0.445 0.709 17 20 11
51.6216 10.1174 -43.7944 -0.399 -0.394 0.828 67 75 52
51.7139 10.0760 -43.8288 0.135 -0.578 0.805 30 37 20
51.8190 10.0651 -43.8855 0.131 -0.565 0.814 22 28 17
51.9034 10.0055 -43.9062 0.138 -0.569 0.811 25 30 22
52.3003 10.4172 -44.3408 0.347 -0.933 0.097 24 33 19
52.4356 10.4739 -44.4482 0.330 -0.923 0.199 19 27 13
52.6344 10.6761 -44.6639 -0.533 -0.823 0.198 16 21 12
53.4800 7.0719 -43.4085 0.381 -0.212 0.900 83 93 41
53.6024 7.1061 -43.4974 0.387 -0.205 0.899 86 96 44
40.1348 70.1718 -66.5359 0.574 -0.664 -0.480 22 23 19
50.3710 12.9827 -44.6017 -0.640 -0.211 0.739 64 72 35
51.8180 9.9038 -43.9498 0.238 -0.645 0.727 18 24 20
52.3858 10.4567 -44.5556 0.321 -0.923 0.214 14 20 15
52.6424 10.7923 -44.8712 -0.514 -0.837 0.186 14 19 14
53.5307 8.1539 -44.1049 -0.588 -0.352 0.729 78 86 43
53.1271 6.4188 -43.0178 0.514 -0.325 0.794 82 92 42
53.1673 6.2859 -42.9765 0.433 -0.260 0.863 82 92 40
50.2938 12.8986 -44.6653 -0.614 -0.168 0.771 121 129 85
50.2241 12.4133 -44.3855 -0.713 -0.206 0.670 83 90 57
50.2869 12.2814 -44.3578 -0.374 -0.166 0.912 42 47 25
50.3588 12.1745 -44.3477 -0.374 -0.166 0.912 23 28 10
50.4305 12.0680 -44.3377 -0.374 -0.166 0.912 21 25 12
51.6593 9.8870 -43.9914 0.077 -0.581 0.810 20 25 17
52.4615 10.4729 -44.7535 -0.241 -0.650 0.721 15 20 14
53.4674 8.1038 -44.1829 -0.593 -0.350 0.725 67 75 38
53.5332 8.0156 -44.1785 -0.160 -0.148 0.976 67 74 37
53.5683 7.8634 -44.1244 -0.181 -0.149 0.972 70 79 37
39.1546 68.4970 -65.7048 0.663 -0.688 -0.294 11 12 7
39.6470 69.3852 -66.4348 0.668 -0.685 -0.291 14 15 9
39.9184 70.0632 -66.9303 0.648 -0.700 -0.301 19 20 14
48.9121 17.8357 -46.4387 -0.524 -0.162 0.836 47 54 26
50.1978 12.7640 -44.6926 -0.622 -0.170 0.764 126 135 84
50.1737 12.3991 -44.4980 -0.722 -0.215 0.658 119 128 84
50.2095 12.1958 -44.4187 -0.733 -0.218 0.645 95 103 67
50.4390 11.9139 -44.4151 -0.489 -0.360 0.794 20 25 19
51.1119 10.2546 -43.9930 -0.327 -0.165 0.930 127 138 78
51.8534 8.6669 -43.6469 -0.117 -0.585 0.803 14 19 14
51.9385 8.6156 -43.6719 -0.117 -0.585 0.803 10 17 4
53.4444 8.1392 -44.3269 -0.590 -0.351 0.727 45 50 25
53.5085 8.0471 -44.3193 -0.590 -0.351 0.727 45 51 25
53.5761 7.9628 -44.3176 -0.590 -0.359 0.723 53 60 29
53.9033 7.9715 -44.5154 -0.584 -0.372 0.722 82 92 42
39.4780 68.6737 -66.2679 -0.425 -0.905 -0.003 14 15 10
50.0865 12.8923 -44.8408 -0.498 -0.191 0.846 119 130 75
50.1263 12.6947 -44.7662 -0.622 -0.170 0.764 123 133 78
50.1251 12.3902 -44.6143 -0.763 -0.207 0.612 125 136 82
50.1400 12.1310 -44.4944 -0.779 -0.241 0.579 121 130 84
50.1981 11.9880 -44.4578 -0.765 -0.240 0.598 86 93 62
50.3596 11.8234 -44.4716 -0.563 -0.429 0.706 13 18 11
50.9809 10.3077 -44.0865 -0.332 -0.164 0.929 123 133 81
51.0508 10.2097 -44.0791 -0.337 -0.163 0.927 127 137 78
51.1108 10.0885 -44.0545 -0.327 -0.173 0.929 128 138 80
51.8534 8.5144 -43.7121 -0.145 -0.497 0.856 11 18 5
51.9438 8.4756 -43.7463 -0.011 -0.650 0.760 32 40 14
53.3432 8.0088 -44.3426 0.739 -0.412 0.532 28 31 20
53.6140 7.8995 -44.4486 -0.558 -0.371 0.742 53 59 31
53.7806 7.7983 -44.4969 -0.578 -0.381 0.722 74 84 36
35.3370 90.6101 -75.0503 -0.673 -0.697 -0.248 19 20 14
39.7546 70.5131 -67.6348 0.646 -0.691 -0.325 18 19 14
43.7746 53.9822 -61.7641 0.887 -0.302 0.350 16 12 13
47.4657 17.3996 -45.6894 -0.134 -0.981 -0.139 70 76 40
48.4672 15.3181 -45.2436 -0.270 -0.926 -0.265 13 15 16
48.6138 15.4071 -45.3748 -0.183 -0.889 -0.419 14 15 20
50.0402 12.5860 -44.8114 -0.631 -0.186 0.753 124 134 82
50.0482 12.3055 -44.6761 -0.741 -0.189 0.644 122 133 80
50.0809 12.0934 -44.5896 -0.779 -0.241 0.579 113 122 79
50.1381 11.9478 -44.5508 -0.765 -0.240 0.598 80 87 57
50.2633 11.6886 -44.4955 -0.643 -0.416 0.642 14 20 10
50.3893 10.8665 -44.1598 -0.565 -0.173 0.807 14 20 10
50.4538 10.7496 -44.1397 -0.565 -0.173 0.807 13 21 8
50.5034 10.5959 -44.0923 -0.075 0.004 0.997 47 56 39
50.5592 10.4592 -44.0571 -0.035 -0.002 0.999 101 113 74
50.6324 10.3674 -44.0547 -0.035 -0.002 0.999 109 122 76
50.7011 10.2649 -44.0442 -0.037 -0.001 0.999 122 134 85
50.8248 10.2995 -44.1347 0.173 -0.122 0.977 125 137 87
50.8900 10.1894 -44.1184 -0.042 -0.103 0.994 131 141 89
50.9523 10.0731 -44.0972 -0.313 -0.165 0.936 130 139 83
51.8811 8.1822 -43.7035 0.619 -0.434 0.655 82 91 58
53.1376 7.6559 -44.1849 0.652 -0.229 0.723 21 23 18
53.2623 7.6936 -44.2775 0.646 -0.243 0.723 25 28 20
53.2988 7.5448 -44.2248 0.420 -0.317 0.850 34 38 25
3.5907 66.0409 -44.2471 -0.725 -0.582 0.368 79 86 43
37.7071 78.1423 -70.5386 0.289 -0.584 -0.759 17 18 11
39.6497 70.5004 -67.8564 0.874 -0.481 0.068 19 19 17
47.3730 16.8664 -45.5281 -0.056 -0.995 -0.083 73 80 38
49.9590 12.1882 -44.7139 -0.779 -0.241 0.579 101 110 68
50.0218 12.0558 -44.6847 -0.779 -0.241 0.579 83 90 57
50.0543 11.8449 -44.5982 -0.756 -0.241 0.609 51 56 35
50.2320 10.8585 -44.2087 -0.481 -0.329 0.812 20 23 15
50.3698 10.6468 -44.1842 -0.571 -0.176 0.802 11 16 8
50.3995 10.4429 -44.0995 -0.075 0.004 0.997 30 38 26
50.4763 10.3593 -44.1030 -0.011 0.003 1.000 87 98 64
50.5613 10.2971 -44.1222 0.064 -0.047 0.997 115 128 83
50.6405 10.2209 -44.1309 0.064 -0.047 0.997 131 143 95
50.7264 10.1620 -44.1523 0.175 -0.122 0.977 125 137 88
50.7920 10.0533 -44.1367 -0.042 -0.103 0.994 129 139 88
52.9925 7.4307 -44.1253 0.652 -0.229 0.723 35 39 23
52.9785 7.1750 -43.9887 0.447 -0.313 0.838 31 35 21
53.0253 7.0501 -43.9538 0.108 -0.334 0.936 41 46 29
53.1381 7.0647 -44.0279 0.082 -0.348 0.934 55 60 36
53.6771 6.4338 -44.0309 -0.117 -0.278 0.953 81 89 42
53.7640 6.3967 -44.0638 -0.108 -0.267 0.958 81 89 40
34.0182 67.1293 -63.1069 0.940 -0.316 0.125 25 26 13
37.6958 79.5587 -71.5546 0.434 -0.591 -0.680 19 21 8
39.4347 71.5703 -68.5586 0.846 -0.415 0.334 15 15 11
47.3054 16.8100 -45.6195 -0.056 -0.998 -0.015 74 81 40
49.3128 15.3275 -46.0628 -0.341 -0.869 0.359 17 23 20
50.1615 10.7896 -44.2784 -0.481 -0.329 0.812 45 49 32
50.1967 10.5971 -44.2022 -0.586 -0.190 0.788 38 42 26
50.2818 10.5331 -44.2204 -0.618 -0.182 0.765 25 31 18
50.2961 10.2905 -44.1066 -0.075 0.004 0.997 25 31 18
50.3694 10.1986 -44.1037 -0.011 0.003 1.000 30 40 15
50.4543 10.1367 -44.1229 0.064 -0.047 0.997 80 92 57
50.5334 10.0609 -44.1316 0.064 -0.047 0.997 110 122 81
50.9439 9.7264 -44.2064 -0.295 -0.289 0.911 41 46 25
52.7298 6.9539 -43.8680 0.355 -0.349 0.867 75 82 46
52.7852 6.8473 -43.8471 0.186 -0.288 0.939 58 65 33
52.8858 6.8373 -43.9017 0.168 -0.295 0.941 52 59 29
53.6692 6.2819 -44.0864 -0.481 -0.296 0.825 78 87 41
34.1755 95.2489 -77.7271 0.270 -0.595 -0.757 71 48 36
47.4378 18.2226 -46.5738 0.028 -0.729 -0.684 69 75 36
47.6753 18.6087 -46.9103 0.029 -0.739 -0.673 67 75 35
49.2916 15.4065 -46.2474 -0.420 -0.631 0.652 9 15 13
49.5291 15.4105 -46.3904 -0.451 -0.866 0.215 11 15 18
50.0285 10.8445 -44.3734 -0.505 -0.320 0.802 62 66 39
50.0930 10.7259 -44.3517 -0.475 -0.330 0.816 91 95 67
50.1263 10.5281 -44.2712 -0.586 -0.190 0.788 83 89 63
50.1786 10.3805 -44.2275 -0.644 -0.156 0.749 49 54 33
50.1891 10.1284 -44.1060 -0.071 0.002 0.997 18 26 7
50.2511 10.0086 -44.0821 -0.044 -0.003 0.999 13 21 5
50.3242 9.9179 -44.0795 -0.041 -0.004 0.999 25 35 13
50.4186 9.8811 -44.1169 0.066 -0.048 0.997 68 78 49
50.7749 9.6836 -44.2284 -0.218 -0.281 0.934 58 63 42
50.8177 9.5219 -44.1718 -0.114 -0.081 0.990 34 37 29
51.2732 8.2940 -43.8201 -0.696 -0.310 0.647 95 107 60
51.3258 8.1677 -43.7873 -0.714 -0.321 0.622 105 118 65
51.3872 8.0631 -43.7708 -0.714 -0.321 0.622 110 122 73
52.6934 6.7348 -43.8732 -0.266 -0.708 0.654 89 98 51
52.8104 6.7598 -43.9553 -0.210 -0.695 0.687 64 73 32
52.9084 6.7444 -44.0056 -0.186 -0.710 0.679 60 68 29
53.5999 6.2183 -44.1496 -0.481 -0.296 0.825 75 84 39
33.9465 65.6902 -62.8915 0.873 -0.483 0.071 46 42 29
47.5073 18.6310 -46.9867 0.035 -0.728 -0.685 67 73 38
47.7220 18.9390 -47.2711 0.029 -0.739 -0.673 63 70 36
47.9047 19.1368 -47.4804 0.029 -0.739 -0.673 64 70 45
49.9441 10.7393 -44.4163 -0.633 -0.279 0.722 95 101 62
50.0225 10.6567 -44.4208 -0.475 -0.330 0.816 122 130 86
50.0488 10.4407 -44.3264 -0.644 -0.156 0.749 124 133 92
50.1102 10.3165 -44.2996 -0.644 -0.156 0.749 101 108 73
50.2088 9.7352 -44.0623 -0.165 -0.279 0.946 23 31 16
50.3050 9.7035 -44.1033 -0.155 -0.400 0.903 30 38 24
50.7193 9.3849 -44.1872 -0.118 -0.082 0.990 28 29 23
51.2141 8.2515 -43.9040 -0.696 -0.310 0.647 122 136 84
51.2682 8.1286 -43.8736 -0.714 -0.321 0.622 122 135 80
51.3297 8.0240 -43.8569 -0.714 -0.321 0.622 113 126 75
52.6833 6.7961 -44.0358 -0.187 -0.724 0.664 115 126 69
52.7924 6.8042 -44.1047 -0.544 -0.600 0.587 100 110 62
53.5946 6.0720 -44.2085 -0.483 -0.297 0.824 73 84 40
33.8355 65.4748 -62.9921 0.873 -0.483 0.071 57 44 30
47.5640 18.9988 -47.3737 0.040 -0.724 -0.689 61 67 33
47.7845 19.3246 -47.6715 0.031 -0.735 -0.677 55 62 32
47.9597 19.4950 -47.8629 0.039 -0.740 -0.671 43 47 28
47.7617 14.9729 -45.4313 -0.820 -0.209 0.533 13 17 15
49.8767 10.6778 -44.4911 -0.634 -0.277 0.722 117 125 77
49.9328 10.5375 -44.4527 -0.648 -0.183 0.739 118 127 73
49.9873 10.3943 -44.4118 -0.583 -0.189 0.790 123 133 79
50.0419 10.2525 -44.3717 -0.644 -0.156 0.749 118 128 80
50.1546 9.7062 -44.1592 -0.690 -0.294 0.662 31 38 20
50.2443 9.6582 -44.1879 -0.651 -0.317 0.689 22 27 19
50.6837 9.1365 -44.1822 -0.084 -0.094 0.992 15 20 4
50.7679 9.0784 -44.2026 0.041 -0.164 0.986 25 30 8
50.7534 8.7826 -44.0426 -0.270 -0.272 0.923 46 53 20
50.8247 8.6957 -44.0405 -0.263 -0.271 0.926 70 79 34
53.7691 6.2892 -44.5597 -0.320 -0.306 0.897 68 80 34
47.9987 19.8021 -48.2116 0.161 -0.749 -0.643 25 30 13
49.8504 10.4369 -44.4980 -0.562 -0.153 0.813 126 137 72
49.9166 10.3240 -44.4793 -0.581 -0.186 0.793 123 136 70
50.1159 9.7164 -44.2855 -0.648 -0.312 0.695 50 58 34
50.1925 9.6355 -44.2895 -0.647 -0.310 0.696 18 23 16
50.4978 9.0486 -44.1693 -0.085 -0.096 0.992 15 21 6
50.6037 9.0438 -44.2299 -0.102 -0.103 0.989 24 30 6
50.6114 8.8001 -44.1091 -0.273 -0.264 0.925 50 58 21
50.6711 8.6845 -44.0853 -0.228 -0.256 0.939 86 96 43
50.8553 8.3552 -44.0255 0.014 -0.061 0.998 122 134 71
53.3601 6.1759 -44.3953 0.603 -0.321 0.730 28 38 15
47.8170 19.7908 -48.2663 -0.056 -0.868 -0.494 36 42 15
47.9697 19.8833 -48.4050 0.019 -0.862 -0.507 19 23 7
47.5081 15.2168 -45.7190 -0.855 -0.246 0.457 9 14 10
47.6037 14.7829 -45.5517 -0.837 -0.251 0.487 13 19 6
49.8386 10.2347 -44.5324 -0.572 -0.162 0.804 120 133 64
50.3153 9.2355 -44.3000 0.202 -0.147 0.968 16 23 16
50.3343 9.0152 -44.1975 -0.109 -0.097 0.989 14 20 8
50.4036 8.9204 -44.1898 -0.085 -0.096 0.992 13 20 4
50.4427 8.7527 -44.1265 -0.104 -0.088 0.991 35 41 11
50.4807 8.5836 -44.0616 -0.105 -0.088 0.991 86 95 51
50.5609 8.5185 -44.0758 -0.100 -0.088 0.991 115 126 66
50.6335 8.4352 -44.0759 -0.100 -0.088 0.991 123 136 66
50.7164 8.3775 -44.0956 0.194 -0.122 0.973 127 140 69
50.7542 8.2124 -44.0327 0.014 -0.061 0.998 130 143 75
50.8154 8.1043 -44.0133 0.019 -0.062 0.998 127 139 76
53.1257 5.5607 -44.0747 0.282 -0.274 0.919 40 54 21
53.0784 5.2537 -43.8879 0.498 -0.342 0.797 49 61 23
53.4112 5.3003 -44.1102 0.238 -0.116 0.964 68 81 35
46.6530 17.6683 -46.6394 -0.842 -0.515 0.161 65 69 35
47.5017 19.7498 -48.2259 0.265 -0.868 -0.420 77 84 40
47.6378 19.7882 -48.3269 0.264 -0.868 -0.420 79 87 41
50.0989 9.0706 -44.2288 -0.003 -0.195 0.981 14 19 12
50.1332 8.8876 -44.1542 -0.362 -0.238 0.901 16 24 11
50.1888 8.7591 -44.1206 -0.412 -0.250 0.876 17 26 10
50.2585 8.6666 -44.1142 -0.412 -0.250 0.876 14 20 5
50.3148 8.5416 -44.0828 -0.402 -0.253 0.880 24 33 5
50.2719 8.1760 -43.8674 0.414 -0.139 0.900 77 86 44
50.4326 8.3079 -44.0317 0.280 -0.089 0.956 110 120 65
50.5492 8.3318 -44.1135 0.250 -0.088 0.964 125 137 71
50.6282 8.2649 -44.1259 0.252 -0.086 0.964 127 140 71
50.6651 8.0978 -44.0611 -0.129 -0.118 0.985 129 141 75
50.7302 7.9992 -44.0487 -0.124 -0.136 0.983 127 138 77
50.8961 7.8889 -44.0903 -0.221 -0.203 0.954 93 103 67
52.8381 5.2602 -43.8827 0.404 -0.231 0.885 36 50 14
52.8323 5.0377 -43.7637 0.475 -0.213 0.854 51 66 28
53.3146 5.1810 -44.1255 0.777 -0.234 0.584 68 81 39
53.3740 4.6835 -43.9026 0.011 -0.265 0.964 69 82 37
53.4486 4.6285 -43.9185 0.011 -0.265 0.964 69 82 37
46.6138 17.7125 -46.8022 -0.851 -0.524 0.032 65 69 34
46.6955 17.5772 -46.7803 -0.842 -0.511 0.173 69 73 34
47.4734 19.8365 -48.4230 0.265 -0.868 -0.420 87 95 49
47.6087 19.4465 -48.3002 -0.553 -0.375 0.744 90 98 57
49.9993 8.9271 -44.2376 -0.395 -0.246 0.885 15 22 6
50.0620 8.8152 -44.2166 -0.377 -0.249 0.892 31 39 17
50.1153 8.6809 -44.1783 -0.406 -0.252 0.878 27 35 11
50.1681 8.5465 -44.1397 -0.409 -0.242 0.880 23 31 9
50.1811 8.3157 -44.0270 0.078 -0.129 0.989 25 33 9
50.1810 8.0550 -43.8909 0.518 -0.109 0.849 40 49 17
50.2881 8.0572 -43.9559 0.518 -0.109 0.849 78 87 44
50.4199 8.1190 -44.0668 0.550 -0.146 0.823 115 126 72
50.5071 8.0727 -44.0946 0.272 -0.084 0.959 125 136 75
50.5605 7.9457 -44.0602 0.042 -0.150 0.988 125 136 77
50.6207 7.8361 -44.0389 -0.227 -0.296 0.928 121 131 79
50.7128 7.8030 -44.0766 -0.153 -0.200 0.968 107 116 72
50.7922 7.7400 -44.0911 -0.161 -0.203 0.966 60 69 41
52.5732 4.7923 -43.6153 0.474 -0.213 0.854 44 60 17
53.1419 4.9081 -44.0149 0.770 -0.229 0.595 77 89 51
53.2965 5.0123 -44.1615 0.749 -0.226 0.622 76 88 48
53.3027 4.6149 -43.9578 -0.008 -0.269 0.963 65 76 36
53.3601 4.5260 -43.9456 0.011 -0.265 0.964 66 77 37
54.4751 5.9007 -45.3278 0.825 -0.423 0.374 71 80 37
46.8935 19.7424 -48.1968 -0.801 -0.590 0.103 61 64 34
46.5803 17.7764 -46.9791 -0.851 -0.525 0.030 63 67 33
46.8797 16.7428 -46.6160 -0.816 -0.325 0.478 96 105 62
49.9885 8.7367 -44.2741 -0.399 -0.247 0.883 67 77 42
50.0416 8.6018 -44.2351 -0.406 -0.252 0.878 68 75 39
50.0627 8.3892 -44.1362 -0.695 -0.191 0.693 40 47 13
50.0605 8.1212 -43.9944 -0.763 -0.117 0.636 23 32 3
50.0157 7.7513 -43.7737 0.522 -0.150 0.839 26 35 9
50.1566 7.8374 -43.9030 0.520 -0.146 0.842 37 42 16
50.2872 7.8974 -44.0124 0.551 -0.160 0.819 72 79 44
50.3556 7.8068 -44.0057 0.555 -0.170 0.814 99 108 62
50.4114 7.6864 -43.9759 0.213 -0.257 0.943 118 128 80
50.5272 7.7105 -44.0577 -0.083 -0.257 0.963 117 125 84
50.6281 7.6986 -44.1116 -0.153 -0.200 0.968 81 88 56
52.3488 4.8275 -43.6334 0.201 -0.333 0.921 102 118 67
53.1962 4.8853 -44.1694 0.754 -0.346 0.559 74 84 49
53.2580 4.8034 -44.1634 0.026 -0.196 0.980 60 70 34
53.2901 4.6629 -44.1089 -0.021 -0.260 0.965 61 69 34
53.2720 4.4238 -43.9727 0.011 -0.265 0.964 64 71 36
54.3764 5.7814 -45.3436 0.764 -0.510 0.395 71 77 38
54.4438 5.7080 -45.3454 0.250 -0.560 0.790 71 79 40
54.5262 5.6640 -45.3715 0.275 -0.561 0.781 71 79 40
40.3918 60.0023 -65.6907 -0.741 -0.615 0.270 21 14 14
46.8429 19.7536 -48.3414 -0.806 -0.580 0.116 61 64 36
46.8486 16.8099 -46.7941 -0.799 -0.256 0.545 108 118 67
46.8978 16.5734 -46.6989 -0.720 -0.416 0.556 86 94 57
46.9803 16.4509 -46.6836 -0.720 -0.416 0.556 37 40 26
49.9144 8.6564 -44.3301 -0.399 -0.247 0.883 99 108 65
49.9380 8.4482 -44.2345 -0.720 -0.193 0.666 107 117 68
49.9586 8.2345 -44.1342 -0.790 -0.127 0.600 86 96 48
49.9470 7.9436 -43.9740 -0.774 -0.115 0.622 50 60 21
49.9455 7.6800 -43.8343 -0.775 -0.111 0.622 25 32 6
50.0558 7.6917 -43.9063 0.041 -0.180 0.983 26 30 14
50.1585 7.6849 -43.9641 0.218 -0.256 0.942 36 40 22
50.2473 7.6442 -43.9957 0.218 -0.256 0.942 62 69 40
50.3161 7.5556 -43.9901 0.213 -0.257 0.943 91 99 64
50.4044 7.5145 -44.0212 0.213 -0.257 0.943 88 95 62
51.9045 4.8290 -43.5025 0.707 -0.558 0.435 32 44 28
52.0377 4.8952 -43.6169 0.733 -0.533 0.423 68 83 53
52.1755 4.9703 -43.7388 0.742 -0.528 0.412 91 106 63
52.3075 5.0325 -43.8504 0.747 -0.516 0.419 105 122 68
52.3999 5.0117 -43.8947 0.668 -0.558 0.492 104 122 62
52.4810 4.7557 -43.8082 -0.764 -0.513 0.391 90 105 50
52.5386 4.6642 -43.7944 -0.744 -0.570 0.348 71 85 34
53.2242 4.6048 -44.1726 0.049 -0.265 0.963 44 51 20
53.2052 4.3637 -44.0343 0.032 -0.264 0.964 52 59 28
54.3713 5.4361 -45.2958 0.454 -0.464 0.761 68 76 39
30.7010 89.8830 -75.9825 -0.140 -0.133 0.981 31 20 15
40.4299 66.8197 -69.5902 -0.823 -0.496 0.276 44 18 19
46.3856 18.3153 -47.4758 -0.866 -0.484 0.126 58 61 34
46.8398 16.5489 -46.8123 -0.719 -0.415 0.557 90 97 64
49.8769 8.4001 -44.3144 -0.720 -0.193 0.666 122 132 72
49.9005 8.1938 -44.2194 -0.790 -0.127 0.600 120 130 70
50.0867 7.6098 -44.0215 -0.241 -0.267 0.933 25 27 16
50.1688 7.5532 -44.0406 -0.242 -0.263 0.934 30 32 19
50.2400 7.4705 -44.0394 0.222 -0.256 0.941 38 41 25
50.3093 7.3842 -44.0352 0.213 -0.257 0.943 43 46 31
53.1126 4.4553 -44.1605 0.033 -0.267 0.963 29 33 15
53.1782 4.3827 -44.1613 0.032 -0.266 0.963 36 40 21
40.4286 58.5882 -65.4971 -0.721 -0.487 0.494 22 8 11
46.9448 19.6122 -48.6656 -0.920 -0.260 0.293 64 67 37
46.7603 16.4518 -46.8744 -0.718 -0.419 0.556 61 66 44
46.8257 16.2716 -46.8177 -0.714 -0.430 0.553 30 33 23
49.8636 8.2054 -44.3449 -0.785 -0.127 0.606 124 134 69
50.0475 7.6142 -44.1405 -0.344 -0.263 0.901 31 33 21
50.1296 7.5573 -44.1594 -0.249 -0.255 0.934 24 25 16
50.1469 7.3445 -44.0566 0.227 -0.259 0.939 18 20 10
50.2076 7.2377 -44.0361 0.411 -0.290 0.864 22 24 14
51.4412 4.6504 -43.3980 -0.597 -0.175 0.783 14 21 13
51.7063 4.7837 -43.6274 -0.122 -0.801 0.587 27 35 18
52.2776 4.7001 -43.9248 -0.865 -0.489 -0.112 92 103 59
52.3142 4.5647 -43.8746 -0.862 -0.495 -0.108 82 92 53
46.7456 19.9843 -48.9145 -0.917 -0.252 0.310 58 61 31
46.8176 19.7944 -48.8561 -0.917 -0.252 0.310 53 57 24
46.8744 19.5532 -48.7612 -0.924 -0.269 0.272 69 73 38
46.9383 19.3400 -48.6856 -0.924 -0.268 0.272 91 95 58
30.0749 88.7526 -76.0208 -0.138 -0.130 0.982 23 21 17
30.3103 88.6341 -76.0982 -0.135 -0.131 0.982 29 18 14
40.5787 65.3040 -69.7237 -0.337 -0.518 0.786 47 15 19
41.0909 64.4687 -69.5821 -0.889 -0.389 0.242 35 9 13
41.1637 63.3463 -69.0231 -0.835 -0.461 0.301 33 9 13
94.4547 81.7529 -110.8352 -0.527 -0.722 0.447 32 39 22
30.4099 87.5472 -75.9092 -0.095 -0.314 0.945 49 26 22
40.9957 64.4991 -69.8226 -0.889 -0.403 0.217 44 12 17
40.6783 55.0420 -64.5304 -0.528 -0.728 0.436 43 11 17
41.5558 53.2949 -64.1140 0.116 -0.983 -0.143 50 10 16
46.8184 19.2949 -48.9272 -0.923 -0.267 0.277 89 96 56
46.8976 19.1367 -48.8893 -0.907 -0.293 0.304 91 97 63
46.9712 18.9610 -48.8387 -0.907 -0.293 0.304 73 78 53
49.9569 6.6756 -44.0012 -0.513 -0.132 0.848 30 33 21
50.0157 6.5672 -43.9780 -0.465 -0.126 0.877 21 24 11
51.4705 4.3037 -43.6292 0.575 -0.769 0.280 20 27 11
94.4143 81.3440 -110.9404 -0.533 -0.721 0.443 44 52 33
40.3769 65.2781 -70.1551 -0.324 -0.498 0.805 57 19 22
46.7693 19.3108 -49.0755 -0.923 -0.267 0.277 89 96 61
46.8380 19.1148 -49.0105 -0.906 -0.293 0.306 78 84 57
46.9206 18.9698 -48.9814 -0.907 -0.293 0.304 43 47 33
49.9039 6.6447 -44.0911 -0.439 -0.161 0.884 54 62 36
49.9421 6.4870 -44.0285 -0.465 -0.126 0.877 40 46 20
51.5026 4.2366 -43.7451 0.693 -0.587 0.419 14 20 11
52.7385 3.0712 -43.8551 0.281 -0.202 0.938 87 99 54
52.8156 3.0269 -43.8773 0.309 -0.196 0.930 84 95 53
52.9424 3.0798 -43.9821 0.472 -0.320 0.821 78 88 53
29.9188 86.4574 -75.6920 -0.345 -0.241 0.907 31 20 17
46.6482 19.5142 -49.2829 -0.923 -0.267 0.277 80 87 55
46.7202 19.3266 -49.2239 -0.923 -0.267 0.277 77 84 53
46.4246 20.2625 -49.7279 -0.951 -0.286 0.115 44 47 27
46.6709 19.3425 -49.3726 -0.923 -0.267 0.277 48 56 31
52.4688 3.2727 -44.0648 -0.419 -0.143 0.896 89 99 49
52.2634 3.1329 -43.9958 -0.444 -0.150 0.884 99 112 58
46.4160 20.1706 -50.0163 -0.949 -0.301 0.094 23 26 11
46.6307 17.1763 -48.6567 -0.709 -0.318 0.629 25 30 12
29.2933 83.6115 -75.3996 0.049 0.024 0.999 22 16 12
46.1254 18.7908 -49.5860 -0.537 -0.644 0.545 7 10 17
46.3196 17.7255 -49.1066 -0.658 -0.725 -0.204 12 12 14
46.8710 15.8998 -48.4170 -0.743 -0.619 0.255 18 21 13
29.0493 81.7944 -74.8864 0.026 0.001 1.000 26 20 10
46.0612 18.7522 -49.6948 -0.537 -0.644 0.545 8 9 16
1.9752 63.4675 -48.4928 -0.148 -0.157 0.976 39 44 12
26.0991 100.0782 -83.7602 0.553 -0.178 0.814 39 41 27
28.9300 79.7126 -73.9619 -0.027 0.065 0.997 27 20 10
28.8138 78.3361 -73.4291 0.047 0.050 0.998 27 20 11
28.4791 78.0884 -73.4011 0.047 0.050 0.998 22 22 14
28.6981 77.8536 -73.3997 0.047 0.050 0.998 27 20 11
28.9162 78.0012 -73.6160 0.028 0.045 0.999 45 23 17
45.6778 21.2462 -51.3939 -0.801 -0.341 0.492 50 50 25
46.1502 17.0076 -49.2626 -0.603 -0.457 0.654 15 15 14
11.8508 118.8263 -86.9825 -0.653 -0.338 0.678 69 70 38
12.5677 117.3056 -86.5456 0.610 -0.553 0.568 68 69 35
28.8004 77.5330 -73.5930 0.031 0.045 0.999 45 23 17
29.0184 77.7510 -73.8500 0.012 0.044 0.999 69 26 24
45.6790 21.4709 -51.6998 -0.815 -0.346 0.465 49 49 27
45.7343 17.4399 -49.4240 -0.778 -0.611 -0.144 10 11 13
11.1905 118.2578 -86.6688 0.573 -0.461 0.677 68 72 37
28.4722 76.1294 -72.9010 0.134 0.036 0.990 28 21 12
28.6872 76.2781 -73.1168 0.076 0.055 0.996 46 23 18
28.9024 77.1442 -73.7457 0.016 0.043 0.999 70 27 25
29.1201 77.4231 -74.0382 -0.285 -0.558 0.779 78 21 25
45.5529 21.7034 -51.9343 -0.819 -0.347 0.457 50 51 32
45.6231 21.4735 -51.8446 -0.815 -0.348 0.464 46 48 28
45.6150 17.6412 -49.6343 -0.776 -0.615 -0.142 13 14 18
45.7048 17.5249 -49.6218 -0.776 -0.615 -0.142 10 13 9
45.8262 17.5243 -49.6950 -0.760 -0.630 0.158 21 24 13
46.3771 16.8975 -49.6683 -0.851 -0.503 0.151 7 12 8
28.3597 75.6526 -72.8683 0.134 0.036 0.990 28 22 13
28.5734 75.8816 -73.1303 0.070 0.056 0.996 46 24 18
28.7881 76.1344 -73.4067 0.110 0.031 0.993 70 27 25
29.0037 76.1910 -73.5702 0.012 0.038 0.999 79 22 25
45.4149 21.8938 -52.1387 -0.822 -0.348 0.450 43 46 29
45.5708 21.4903 -52.0000 -0.816 -0.343 0.465 38 39 21
45.4795 20.6329 -51.4490 -0.919 -0.376 -0.117 48 50 30
45.6176 20.1870 -51.2750 -0.895 -0.434 -0.106 71 74 52
45.5459 17.5816 -49.7254 -0.832 -0.528 -0.170 10 11 12
45.6621 17.5618 -49.7844 -0.785 -0.606 -0.129 11 14 5
28.2471 75.3148 -72.9141 0.113 0.031 0.993 28 22 13
28.4605 75.4405 -73.1167 0.068 0.057 0.996 46 24 18
28.6740 75.7601 -73.4319 0.019 0.038 0.999 70 27 26
45.3377 21.8137 -52.2239 -0.813 -0.347 0.468 43 46 29
45.5005 21.4369 -52.1040 -0.818 -0.349 0.458 31 34 17
45.4459 20.7203 -51.6547 -0.919 -0.377 -0.118 37 38 20
45.5242 20.5301 -51.5918 -0.916 -0.379 -0.129 60 61 43
45.5852 20.2761 -51.4813 -0.911 -0.391 -0.130 66 69 51
45.6460 20.0246 -51.3722 -0.889 -0.457 -0.035 35 37 25
45.5565 17.8173 -50.0362 -0.804 -0.581 -0.125 12 14 9
45.7784 17.2921 -49.8659 -0.835 -0.456 0.307 73 80 46
28.5615 75.1245 -73.3040 -0.004 0.038 0.999 70 27 26
28.7756 74.9961 -73.3592 -0.009 0.038 0.999 79 22 26
45.3489 21.5709 -52.2677 -0.818 -0.346 0.461 41 44 25
45.4118 20.8064 -51.8601 -0.911 -0.391 -0.130 23 24 8
45.4878 20.6058 -51.7892 -0.911 -0.391 -0.130 47 48 34
45.5633 20.4062 -51.7187 -0.911 -0.391 -0.130 55 57 44
45.5185 17.8743 -50.2147 -0.795 -0.591 -0.138 17 20 11
45.7366 17.3314 -50.0305 -0.735 -0.431 0.523 79 86 51
46.0045 16.5585 -49.7425 -0.652 -0.289 0.701 7 11 10
47.3085 10.3760 -46.9287 -0.794 -0.316 0.520 6 10 10
28.6630 74.4346 -73.2714 -0.002 0.037 0.999 79 22 25
45.3678 20.8542 -52.0376 -0.917 -0.396 -0.048 18 19 4
45.4566 20.7024 -52.0027 -0.914 -0.402 -0.054 33 33 23
45.5355 20.5146 -51.9406 -0.914 -0.402 -0.054 35 36 30
45.6709 17.2841 -50.1302 -0.716 -0.427 0.552 77 84 52
45.9460 16.5351 -49.8587 -0.641 -0.296 0.709 7 11 10
46.2980 14.4778 -48.8674 -0.898 -0.429 0.097 72 79 62
46.3715 14.3331 -48.8273 -0.898 -0.429 0.097 74 82 60
46.4446 14.1890 -48.7874 -0.898 -0.429 0.097 51 59 39
28.3403 73.7304 -72.9692 -0.145 -0.007 0.989 69 26 25
28.5516 73.8288 -73.1557 -0.003 0.038 0.999 78 21 25
45.2053 21.4520 -52.4672 -0.446 -0.189 0.875 43 47 24
45.3030 20.8205 -52.1550 -0.886 -0.461 0.040 21 21 7
45.4062 20.7248 -52.1614 -0.885 -0.464 0.036 23 23 15
45.6134 17.2665 -50.2523 -0.717 -0.425 0.552 80 86 57
45.7010 17.1435 -50.2333 -0.717 -0.425 0.552 46 51 33
46.2606 14.5194 -49.0296 -0.898 -0.429 0.097 45 51 38
46.3342 14.3745 -48.9891 -0.898 -0.429 0.097 49 55 40
46.4075 14.2302 -48.9488 -0.898 -0.429 0.097 31 37 26
27.6415 69.5723 -70.3927 0.205 -0.057 0.977 28 23 13
45.2298 20.7535 -52.2475 -0.700 -0.100 0.707 30 32 20
45.3118 20.5746 -52.1917 -0.700 -0.100 0.707 16 16 12
45.3547 18.3235 -50.8872 -0.857 -0.469 0.215 35 39 22
46.3704 14.2714 -49.1105 -0.898 -0.429 0.097 14 18 16
27.5423 68.7654 -70.1493 0.219 -0.067 0.973 27 24 12
27.7364 69.5240 -70.7181 0.200 -0.050 0.978 35 21 12
27.9379 69.7935 -71.0009 0.005 -0.007 1.000 55 26 22
45.0141 35.5918 -61.1028 0.078 -0.788 0.611 66 20 22
45.3480 35.7151 -61.3795 -0.634 -0.543 0.550 66 21 23
45.4735 35.5752 -61.3729 -0.634 -0.543 0.550 65 21 23
45.9049 35.4238 -61.5459 -0.681 -0.529 0.506 58 23 22
45.9936 35.1192 -61.4192 -0.559 -0.553 0.618 54 26 22
46.1197 34.9909 -61.4198 -0.559 -0.553 0.618 51 33 24
46.2454 34.8629 -61.4205 -0.559 -0.553 0.618 47 38 25
45.1051 20.9908 -52.4892 -0.646 -0.081 0.759 60 64 39
45.1675 20.7297 -52.3722 -0.691 -0.104 0.716 41 44 29
45.2365 20.4986 -52.2771 -0.700 -0.100 0.707 14 15 8
45.1653 18.7510 -51.1960 -0.865 -0.499 0.049 9 11 6
45.2512 18.6053 -51.1619 -0.865 -0.499 0.049 28 31 23
45.3305 18.4366 -51.1101 -0.854 -0.478 0.207 55 60 40
27.4475 67.7393 -69.7741 0.161 -0.079 0.984 27 24 13
27.6396 68.4566 -70.3190 0.219 -0.061 0.974 35 21 12
28.0405 68.8549 -70.8011 -0.006 -0.014 1.000 69 22 24
43.1797 35.1811 -59.9546 0.068 -0.906 -0.417 67 21 26
43.8226 35.3574 -60.4520 -0.077 -0.756 -0.650 66 23 27
44.7299 35.2941 -60.9676 -0.588 -0.381 0.714 63 20 24
44.9442 35.5958 -61.2783 0.062 -0.790 0.610 61 19 23
45.1263 35.7332 -61.4714 -0.441 -0.580 0.685 61 18 23
46.0369 34.9309 -61.5483 -0.559 -0.553 0.618 42 26 18
46.1627 34.8031 -61.5488 -0.559 -0.553 0.618 42 33 22
45.1612 20.4228 -52.3623 -0.700 -0.100 0.707 13 14 8
45.1985 18.6115 -51.3049 -0.865 -0.497 0.067 41 44 35
45.9285 14.6967 -49.4156 -0.409 -0.321 0.854 26 29 21
46.0168 14.5977 -49.4105 -0.409 -0.321 0.854 14 16 11
46.4428 14.0668 -49.3537 -0.713 -0.318 0.625 10 13 18
5.7955 84.7545 -67.0397 -0.447 -0.891 -0.079 71 75 40
6.0330 84.6421 -67.1173 -0.447 -0.891 -0.079 71 75 40
6.5333 84.2684 -67.1990 -0.186 -0.722 0.666 71 75 40
27.3540 66.7472 -69.4149 0.166 -0.073 0.983 27 24 13
27.5437 67.4710 -69.9641 0.158 -0.061 0.985 36 22 13
27.7384 67.9787 -70.3872 0.011 -0.009 1.000 57 25 22
27.9404 67.9119 -70.4705 0.010 -0.009 1.000 69 22 24
43.0905 45.6285 -66.3721 0.500 -0.811 0.304 61 19 23
43.3157 35.4834 -60.4330 0.069 -0.882 -0.467 58 20 25
43.4960 35.6322 -60.6321 0.112 -0.800 -0.590 58 19 25
44.8846 35.6519 -61.4916 0.216 -0.788 0.577 47 13 18
45.0572 35.7421 -61.6511 -0.606 -0.584 0.540 47 13 18
45.4219 35.2630 -61.5867 -0.754 -0.473 0.455 43 12 16
45.8352 35.0331 -61.7013 -0.675 -0.540 0.502 37 16 14
45.9582 34.8897 -61.6905 -0.675 -0.540 0.502 38 21 15
46.0840 34.7617 -61.6906 -0.675 -0.531 0.512 42 32 22
45.0733 20.2961 -52.4091 -0.693 -0.100 0.714 14 16 14
45.1515 18.6395 -51.4646 -0.867 -0.489 0.094 36 39 29
45.2624 17.1986 -50.6692 -0.857 -0.342 0.385 74 82 42
46.1040 14.2690 -49.4283 -0.680 -0.281 0.677 8 12 14
27.4432 66.9467 -69.8792 0.148 -0.060 0.987 37 23 14
27.6355 67.5507 -70.3601 0.008 -0.016 1.000 57 26 23
27.8363 67.5341 -70.4727 0.010 -0.009 1.000 68 23 25
43.3575 45.6630 -66.7979 0.398 -0.851 0.342 52 18 22
43.2822 44.1470 -65.8398 0.148 -0.627 0.765 54 20 25
43.4819 35.9474 -61.0289 0.118 -0.797 -0.593 44 13 19
45.3725 35.3644 -61.8333 -0.681 -0.492 0.542 36 9 14
45.7491 34.9578 -61.8188 -0.843 -0.522 0.128 33 13 13
45.8647 34.7800 -61.7824 -0.843 -0.522 0.128 36 21 15
44.9771 20.1359 -52.4302 -0.691 -0.099 0.716 12 13 16
45.1052 18.6709 -51.6271 -0.868 -0.486 0.104 26 29 19
45.2072 17.1905 -50.7989 -0.857 -0.342 0.385 65 72 42
45.2703 16.9733 -50.7067 -0.833 -0.363 0.417 33 37 19
45.4276 15.3614 -49.8331 -0.768 -0.377 0.518 11 13 6
46.0365 14.2086 -49.5116 -0.782 -0.326 0.530 9 13 15
48.4930 3.9450 -44.8378 0.160 -0.409 0.899 12 17 10
5.4702 107.7244 -81.3741 -0.214 -0.950 -0.227 73 77 40
5.8176 107.1481 -81.2383 -0.480 -0.840 -0.255 70 74 39
43.6520 36.4265 -61.6393 0.118 -0.797 -0.593 33 9 15
45.5975 35.3010 -62.1488 -0.850 -0.520 0.085 28 10 13
45.8328 34.9571 -62.0849 -0.830 -0.544 0.123 36 23 17
44.7926 20.6420 -52.7992 -0.659 -0.086 0.748 40 43 32
44.8471 20.3476 -52.6546 -0.697 -0.103 0.709 16 18 16
45.1376 17.1279 -50.8868 -0.855 -0.336 0.394 59 63 45
45.2027 16.9177 -50.7996 -0.827 -0.373 0.421 28 31 20
45.4596 15.2357 -49.9404 -0.814 -0.341 0.469 43 46 25
5.3575 107.4627 -81.5344 -0.407 -0.884 -0.231 70 74 37
5.6173 107.4554 -81.6890 -0.487 -0.835 -0.257 68 72 37
36.6495 39.1000 -59.1954 0.159 -0.900 0.406 60 16 20
43.5109 36.9054 -62.0622 0.090 -0.769 -0.633 34 11 19
45.5632 34.7415 -62.0048 0.432 -0.715 -0.549 26 15 14
45.8326 35.2841 -62.4989 0.432 -0.715 -0.549 36 27 20
46.0681 35.6596 -62.8710 0.412 -0.720 -0.558 46 40 28
44.0299 20.3435 -52.3288 -0.653 -0.393 0.648 43 48 28
44.6588 20.8487 -53.0203 -0.613 -0.433 0.661 39 44 27
44.7972 19.8628 -52.5066 -0.670 -0.134 0.730 13 12 18
45.0027 18.6964 -51.9245 -0.716 -0.220 0.662 17 21 9
45.0434 17.4329 -51.1826 -0.883 -0.468 0.036 41 44 35
45.0821 17.1185 -51.0155 -0.855 -0.336 0.394 42 45 39
45.1115 16.7739 -50.8244 -0.827 -0.382 0.413 22 24 21
45.4024 15.2138 -50.0556 -0.814 -0.341 0.469 63 69 41
46.3198 11.3352 -48.2632 -0.836 -0.150 0.528 17 23 10
30.3341 41.9412 -57.2821 -0.512 -0.845 -0.154 75 21 28
30.9609 41.9675 -57.6820 -0.644 -0.750 0.150 73 23 28
35.1112 40.2982 -59.2062 -0.967 -0.252 0.032 56 17 20
35.2655 40.2676 -59.2820 -0.944 -0.325 -0.063 52 14 19
35.6925 39.7302 -59.2160 -0.699 -0.642 0.314 51 14 21
35.8602 39.8712 -59.4046 -0.774 -0.547 0.319 50 13 20
35.9800 39.4379 -59.2138 0.089 -0.963 0.256 51 13 20
36.1296 39.3681 -59.2629 0.474 -0.873 -0.112 51 13 20
36.4289 39.2347 -59.3649 0.281 -0.960 -0.016 49 12 17
39.7231 35.7696 -59.2703 0.555 -0.721 -0.415 39 8 15
39.9217 36.1131 -59.6013 0.555 -0.721 -0.415 40 9 16
45.5407 34.9670 -62.3438 0.321 -0.735 -0.597 27 18 16
45.7946 35.4367 -62.7855 0.321 -0.735 -0.597 39 34 26
46.0516 35.9123 -63.2329 0.321 -0.735 -0.597 49 47 33
46.3327 36.4899 -63.7571 0.318 -0.742 -0.590 47 46 27
44.3157 20.1882 -52.5858 -0.828 -0.560 0.028 46 53 34
44.5986 20.8348 -53.1531 -0.592 -0.439 0.676 28 31 20
44.6428 19.9749 -52.6561 -0.723 -0.111 0.682 10 10 10
44.7045 19.7142 -52.5350 -0.713 -0.136 0.688 10 10 12
44.8984 17.5491 -51.3340 -0.881 -0.470 0.052 17 20 14
44.9853 17.4148 -51.3054 -0.874 -0.483 0.053 22 24 21
45.0265 17.1090 -51.1443 -0.855 -0.336 0.394 25 26 28
45.0426 16.7130 -50.9128 -0.925 -0.277 0.260 15 16 19
45.3288 15.1325 -50.1247 -0.817 -0.334 0.469 78 85 51
45.7630 12.2372 -48.6259 -0.819 -0.144 0.556 7 11 12
46.1939 11.4402 -48.4040 -0.837 -0.151 0.526 20 26 16
1.6580 80.8940 -63.7793 -0.659 -0.679 0.323 68 74 38
28.5220 45.0986 -58.3316 0.535 -0.760 0.369 68 23 27
29.6372 43.2672 -57.8940 0.227 -0.408 0.884 67 20 27
30.2495 41.7975 -57.3696 -0.600 -0.742 0.299 61 17 24
30.7175 41.7507 -57.6277 -0.365 -0.925 -0.103 61 18 23
30.8754 41.8166 -57.7649 -0.674 -0.715 0.189 62 19 24
32.8962 41.3030 -58.6889 -0.720 -0.302 0.624 50 15 16
33.0608 41.4592 -58.8855 0.539 -0.794 0.280 50 14 17
33.3899 41.7312 -59.2537 0.598 -0.800 0.040 52 11 17
33.5405 41.5916 -59.2606 0.615 -0.741 0.270 50 11 17
33.8548 41.5592 -59.4333 0.009 -0.946 -0.324 49 11 18
34.4932 41.6378 -59.8727 0.094 -0.825 -0.558 49 13 19
35.4914 40.1567 -59.5779 -0.806 -0.557 0.202 42 10 16
35.6319 39.9529 -59.5392 -0.741 -0.613 0.273 43 11 18
35.7795 39.8446 -59.5634 -0.765 -0.566 0.309 40 10 15
45.2346 34.5728 -62.1311 0.328 -0.722 -0.610 27 16 17
45.4998 35.1070 -62.6206 0.328 -0.722 -0.610 27 20 16
45.7922 35.7591 -63.1990 0.315 -0.732 -0.605 41 38 27
46.0539 36.2554 -63.6633 0.315 -0.732 -0.605 50 52 35
46.6611 37.6045 -64.8612 0.455 -0.724 -0.518 46 50 23
44.5593 19.8626 -52.7123 -0.734 -0.112 0.670 8 10 9
44.8476 17.5599 -51.4794 -0.878 -0.477 0.028 17 20 10
44.9455 17.4672 -51.4827 -0.874 -0.483 0.053 16 17 17
44.9709 17.0995 -51.2731 -0.855 -0.336 0.394 14 15 20
44.9875 16.7039 -51.0411 -0.924 -0.286 0.253 12 12 18
45.2310 15.3917 -50.3871 -0.891 -0.414 0.188 75 86 46
45.2547 15.0496 -50.1923 -0.767 -0.276 0.579 79 91 47
45.3148 14.8425 -50.1023 -0.796 -0.246 0.553 83 95 51
0.0211 108.7424 -80.2133 0.701 -0.530 0.476 79 85 48
2.6799 112.9780 -84.4482 -0.375 -0.457 0.807 65 68 38
28.4375 44.8273 -58.3481 0.526 -0.777 0.347 53 14 19
28.5984 44.7667 -58.4094 -0.641 -0.565 0.520 55 14 20
29.5523 43.1157 -57.9795 0.211 -0.406 0.889 49 10 15
30.6320 41.5787 -57.6968 -0.201 -0.894 -0.400 50 13 17
30.7930 41.8042 -57.9342 -0.768 -0.629 0.119 50 13 17
45.1803 34.6490 -62.3599 0.419 -0.684 -0.596 24 13 14
45.4827 35.3625 -62.9841 0.344 -0.718 -0.605 31 23 20
45.7795 36.0359 -63.5801 0.352 -0.726 -0.591 40 37 28
46.0582 36.6114 -64.1050 0.321 -0.730 -0.604 52 54 38
46.7068 38.1501 -65.4487 0.338 -0.724 -0.601 51 55 29
44.4858 19.7912 -52.7993 -0.701 -0.134 0.701 9 10 12
44.5470 19.5278 -52.6750 -0.703 -0.125 0.700 11 14 7
44.8002 17.5844 -51.6354 -0.881 -0.472 0.021 21 25 12
44.8996 17.4964 -51.6423 -0.871 -0.491 -0.025 15 16 15
44.9341 17.1621 -51.4580 -0.903 -0.429 0.025 8 12 16
44.9281 16.6789 -51.1572 -0.925 -0.288 0.249 12 12 19
45.0835 15.9129 -50.7816 -0.924 -0.305 0.229 47 51 32
45.1251 15.1928 -50.3644 -0.622 -0.185 0.761 80 92 48
45.1791 14.9607 -50.2548 -0.668 -0.256 0.699 77 89 41
45.2439 14.7700 -50.1773 -0.676 -0.249 0.694 83 95 48
1.2874 80.4631 -63.9199 -0.334 -0.795 0.507 74 81 40
-3.6188 107.0282 -77.3108 0.659 -0.751 -0.033 80 86 48
-0.0254 108.1652 -80.2187 0.646 -0.575 0.502 70 76 42
0.2010 108.3283 -80.4584 0.666 -0.578 0.472 71 77 43
28.5128 44.7218 -58.5638 -0.641 -0.565 0.520 44 11 16
28.6735 44.7016 -58.6499 -0.826 -0.530 0.193 45 12 17
30.3977 41.8050 -57.9198 -0.222 -0.916 -0.335 42 10 15
45.4977 35.7755 -63.4661 0.344 -0.718 -0.605 35 27 24
45.7864 36.4090 -64.0345 0.352 -0.726 -0.591 42 40 31
46.0903 37.1018 -64.6488 0.285 -0.724 -0.628 47 49 35
44.4182 19.7436 -52.9045 -0.715 -0.139 0.685 7 8 11
44.4711 19.4456 -52.7530 -0.707 -0.130 0.695 14 17 11
44.5710 18.8391 -52.4398 -0.800 -0.216 0.559 70 77 44
44.7625 17.6464 -51.8209 -0.881 -0.472 0.021 26 30 16
44.8590 17.5468 -51.8187 -0.872 -0.489 -0.030 14 16 13
44.8417 17.0122 -51.4780 -0.897 -0.443 0.016 8 12 16
44.8807 16.6996 -51.3089 -0.925 -0.288 0.249 5 8 15
44.9256 16.4135 -51.1598 -0.930 -0.289 0.229 6 9 12
45.0418 15.9512 -50.9457 -0.924 -0.283 0.258 58 66 44
45.1027 15.7347 -50.8494 -0.924 -0.304 0.233 76 87 50
45.0540 15.1203 -50.4401 -0.622 -0.185 0.761 79 91 46
45.1157 14.9156 -50.3516 -0.665 -0.254 0.702 81 93 44
45.9045 11.6893 -48.8438 -0.580 -0.203 0.789 12 16 15
50.7544 -0.7716 -44.1269 -0.134 -0.161 0.978 11 15 14
-3.8546 106.2367 -77.0597 0.747 -0.644 0.162 87 94 53
28.7487 44.5709 -58.8498 -0.849 -0.486 0.205 41 10 16
45.1627 35.2484 -63.1527 0.487 -0.702 -0.520 32 20 21
45.4543 35.9097 -63.7419 0.456 -0.715 -0.531 40 33 30
46.1485 37.7207 -65.2914 0.259 -0.735 -0.627 44 45 33
43.4878 21.4544 -53.5700 0.704 -0.708 0.049 46 50 27
43.6849 21.7598 -53.8804 0.649 -0.735 0.196 44 47 26
44.3252 19.5911 -52.9290 -0.831 -0.222 0.510 9 11 10
44.3671 19.2481 -52.7421 -0.834 -0.224 0.505 23 26 17
44.4230 18.9670 -52.6021 -0.800 -0.216 0.559 52 58 31
44.5059 18.7988 -52.5486 -0.800 -0.216 0.559 72 79 45
44.6145 17.7574 -51.9696 -0.853 -0.431 0.294 53 58 35
44.7001 17.6131 -51.9327 -0.853 -0.431 0.294 26 30 17
44.7890 17.4837 -51.9071 -0.889 -0.453 -0.066 12 17 14
44.7857 17.0017 -51.6062 -0.906 -0.420 0.051 6 10 13
44.8188 16.6651 -51.4178 -0.925 -0.298 0.237 5 8 15
44.8910 16.4813 -51.3481 -0.924 -0.301 0.238 5 9 11
44.9376 16.2041 -51.2049 -0.925 -0.303 0.228 25 31 22
45.0108 15.5868 -50.8671 -0.791 -0.335 0.512 79 89 55
44.9867 15.0615 -50.5265 -0.618 -0.184 0.764 82 93 51
45.0289 14.7855 -50.3813 -0.660 -0.255 0.707 81 92 48
-5.7547 100.9760 -72.9981 0.814 -0.579 0.038 70 78 39
0.3181 106.0798 -79.9103 0.475 -0.802 -0.362 64 68 43
0.3431 107.2888 -80.6786 0.376 -0.828 -0.417 64 66 42
45.1313 35.4418 -63.4718 -0.411 -0.506 0.759 32 21 21
45.4656 36.3111 -64.2187 0.462 -0.718 -0.520 41 34 31
45.7280 36.8178 -64.6955 0.463 -0.765 -0.447 42 39 31
46.1027 37.8495 -65.5685 0.240 -0.773 -0.586 40 41 29
43.4379 21.4914 -53.7429 0.695 -0.717 0.051 49 53 27
44.3090 21.9107 -54.5395 -0.849 -0.352 0.393 8 10 6
44.3484 18.8886 -52.6817 -0.830 -0.218 0.513 59 65 37
44.4408 18.7584 -52.6574 -0.800 -0.216 0.559 70 77 46
44.5153 18.5588 -52.5789 -0.784 -0.208 0.586 64 71 41
44.5980 17.4246 -51.9234 -0.841 -0.298 0.451 22 25 17
44.6906 17.3099 -51.9089 -0.844 -0.300 0.445 9 13 11
44.7317 16.9986 -51.7403 -0.848 -0.349 0.399 8 12 13
44.7284 16.5216 -51.4412 -0.927 -0.310 0.212 7 11 14
44.7660 16.2070 -51.2684 -0.930 -0.313 0.193 7 11 11
44.8315 16.0019 -51.1810 -0.930 -0.309 0.199 15 21 13
44.9447 15.9777 -51.2355 -0.924 -0.280 0.261 39 47 28
44.9537 15.5669 -50.9852 -0.792 -0.342 0.506 69 78 51
44.9156 14.9885 -50.6016 -0.618 -0.184 0.764 82 91 59
44.9406 14.6491 -50.4056 -0.652 -0.247 0.717 80 89 55
-0.8384 99.9196 -75.7309 -0.735 -0.557 0.386 71 75 42
44.9262 35.5466 -63.6299 -0.095 -0.626 0.774 25 13 13
45.7504 37.2751 -65.2181 0.382 -0.840 -0.386 43 40 31
43.7415 21.3831 -54.0427 0.581 -0.811 -0.062 51 59 37
44.1625 22.0915 -54.7448 -0.663 -0.364 0.655 13 18 9
44.2559 21.9327 -54.7029 -0.661 -0.363 0.657 9 11 7
43.9946 19.7290 -53.1639 -0.769 -0.327 0.549 8 10 8
44.0575 19.4649 -53.0374 -0.775 -0.408 0.483 8 10 4
44.1495 19.3260 -53.0072 -0.775 -0.408 0.483 11 15 2
44.2127 19.0700 -52.8859 -0.740 -0.192 0.644 35 40 22
44.2826 18.8455 -52.7885 -0.784 -0.208 0.586 61 67 40
44.3661 18.6792 -52.7359 -0.784 -0.208 0.586 71 77 51
44.4492 18.5136 -52.6835 -0.784 -0.208 0.586 60 65 42
44.4837 18.1564 -52.4813 -0.743 -0.574 0.343 49 53 35
44.5006 16.7786 -51.6300 -0.861 -0.380 0.338 7 12 8
44.5718 16.5862 -51.5535 -0.822 -0.352 0.448 12 17 12
44.6462 16.4090 -51.4884 -0.839 -0.367 0.400 13 20 14
44.7089 16.1894 -51.3897 -0.926 -0.301 0.227 13 20 13
44.7821 16.0129 -51.3244 -0.926 -0.301 0.227 11 16 8
44.8385 15.7752 -51.2104 -0.928 -0.313 0.200 14 20 6
44.8509 15.3773 -50.9691 -0.795 -0.351 0.494 38 45 26
44.8143 14.8037 -50.5879 -0.620 -0.182 0.763 61 69 46
