ply
format ascii 1.0
element vertex 885
property float x
property float y
property float z
property float nx
property float ny
property float nz
property uchar diffuse_red
property uchar diffuse_green
property uchar diffuse_blue
end_header
-22.6883 95.1324 7.7081 0.133 -0.707 0.695 24 27 8
-22.5629 95.1972 7.7098 -0.236 -0.823 0.517 15 17 9
-22.4412 95.1662 7.7145 -0.138 -0.831 0.539 19 20 15
-22.3343 94.7803 7.7300 -0.275 -0.809 0.521 9 10 4
-22.0967 94.6273 7.7420 -0.643 -0.681 0.350 106 110 74
-21.9614 94.9102 7.7370 -0.656 -0.667 0.354 105 112 60
-49.1313 99.4831 6.6509 0.225 -0.567 0.792 108 173 172
-49.0150 99.5318 6.6528 0.225 -0.567 0.792 81 146 146
-48.7583 99.5531 6.6597 -0.413 -0.592 0.692 60 126 127
-48.5862 99.4230 6.6693 -0.392 -0.586 0.709 84 143 143
-48.4247 99.3255 6.6774 -0.258 -0.563 0.785 107 152 152
-48.2752 99.2661 6.6839 -0.258 -0.563 0.785 109 147 145
-47.9996 98.7918 6.7081 -0.140 -0.762 0.632 105 143 137
-47.2061 97.0219 6.7916 -0.336 -0.427 0.840 96 127 106
-35.8594 95.0551 7.1980 0.065 -0.752 0.657 89 97 48
-35.7370 95.0613 7.2015 0.000 -0.795 0.607 83 89 51
-35.6140 95.0641 7.2051 0.000 -0.795 0.607 44 47 24
-35.4910 95.0669 7.2086 0.000 -0.795 0.607 16 17 6
-35.3500 95.8202 7.1875 0.770 -0.486 0.413 15 16 11
-34.8805 96.0391 7.1942 -0.766 -0.570 0.298 14 14 14
-34.6349 95.1243 7.2324 -0.243 -0.807 0.537 12 11 8
-34.5062 95.0841 7.2376 -0.050 -0.734 0.678 20 22 12
-34.3822 95.0793 7.2415 -0.050 -0.734 0.678 95 101 71
-34.2578 95.0715 7.2455 -0.064 -0.736 0.674 95 103 52
-34.1265 95.0072 7.2516 -0.361 -0.700 0.616 96 104 41
-32.4527 94.3017 7.3255 -0.539 -0.629 0.560 96 99 44
-30.5004 95.9530 7.3284 0.557 -0.714 -0.424 81 84 39
-30.3738 95.9265 7.3330 -0.347 -0.913 -0.214 81 84 38
-30.0101 96.0844 7.3386 -0.585 -0.811 -0.018 73 75 26
-29.5829 95.2180 7.3806 -0.508 -0.803 0.311 94 96 46
-29.4524 95.0962 7.3887 -0.485 -0.808 0.334 96 99 46
-29.3266 95.0507 7.3940 -0.411 -0.821 0.396 99 102 47
-29.2001 94.9902 7.3998 -0.411 -0.821 0.396 100 103 47
-22.9342 94.9748 7.5881 0.150 -0.693 0.705 78 84 35
-22.8126 94.9437 7.5928 0.100 -0.717 0.690 48 52 17
-22.5603 95.1238 7.5943 -0.236 -0.823 0.517 15 17 8
-22.4393 95.0763 7.5995 -0.092 -0.796 0.598 20 21 15
-22.3319 94.7056 7.6152 -0.275 -0.809 0.521 11 10 3
-22.1930 95.0885 7.6065 -0.781 -0.559 0.278 55 55 41
-21.9594 94.8308 7.6222 -0.692 -0.624 0.362 104 111 59
-21.8417 94.7341 7.6290 -0.759 -0.578 0.299 105 112 57
-54.4548 114.2675 5.8423 0.190 -0.956 0.224 114 178 188
-49.1259 99.4374 6.5268 0.067 -0.547 0.834 114 175 174
-48.7510 99.0809 6.5507 -0.500 -0.504 0.704 39 102 102
-48.5492 99.2751 6.5499 -0.417 -0.584 0.697 90 147 147
-48.2378 99.1158 6.5648 -0.227 -0.539 0.811 109 147 145
-47.1511 96.8122 6.6789 -0.325 -0.477 0.817 97 128 107
-36.3859 96.0529 7.0287 0.416 -0.356 0.837 99 107 55
-35.8748 95.1452 7.0761 -0.024 -0.767 0.641 88 96 51
-35.6243 95.1226 7.0844 0.072 -0.811 0.581 41 43 25
-35.4983 95.1055 7.0888 0.075 -0.814 0.576 16 17 8
-35.3379 95.7224 7.0718 0.754 -0.417 0.507 15 16 10
-34.8722 95.9669 7.0771 -0.766 -0.570 0.298 14 13 11
-34.6261 95.0480 7.1170 -0.013 -0.728 0.686 8 7 4
-34.5029 95.0493 7.1207 -0.013 -0.728 0.686 25 26 16
-34.3727 94.9964 7.1264 -0.042 -0.726 0.686 96 101 71
-34.2543 95.0353 7.1286 0.007 -0.654 0.756 96 104 51
-34.1201 94.9481 7.1357 -0.380 -0.698 0.607 97 106 43
-32.6900 94.2369 7.2038 -0.272 -0.477 0.836 105 108 53
-30.3999 96.3119 7.1991 -0.329 -0.938 -0.110 86 90 41
-29.5832 95.2471 7.2612 -0.349 -0.902 0.255 96 98 50
-29.4530 95.1348 7.2691 -0.435 -0.805 0.404 88 90 41
-29.3251 95.0544 7.2758 -0.385 -0.844 0.374 93 95 46
-29.2017 95.0510 7.2796 -0.421 -0.815 0.399 97 99 48
-22.9330 94.8549 7.4746 0.147 -0.660 0.737 81 87 38
-22.8100 94.8653 7.4779 0.167 -0.665 0.728 48 52 16
-22.6857 94.9130 7.4799 0.440 -0.653 0.616 21 22 2
-22.5609 94.9676 7.4817 0.067 -0.751 0.657 16 16 7
-22.4374 94.9854 7.4848 0.127 -0.753 0.645 22 21 15
-22.3123 95.0420 7.4866 -0.145 -0.783 0.604 12 12 4
-22.1897 95.0352 7.4905 -0.674 -0.616 0.407 56 57 41
-22.0724 94.9123 7.4983 -0.674 -0.616 0.407 107 111 74
-21.9564 94.7735 7.5067 -0.675 -0.627 0.388 104 111 58
-21.8383 94.6848 7.5134 -0.686 -0.619 0.383 104 112 56
-48.6906 98.8597 6.4354 -0.500 -0.504 0.704 43 100 102
-48.4923 99.0633 6.4338 -0.415 -0.632 0.655 95 147 149
-48.3298 98.9610 6.4424 0.055 -0.758 0.649 106 152 152
-48.2064 98.9855 6.4452 -0.078 -0.742 0.666 107 148 145
-47.9623 98.6138 6.4663 -0.088 -0.807 0.584 106 142 136
-47.2191 97.0108 6.5480 -0.139 -0.871 0.470 96 129 109
-36.3688 95.9282 6.9138 0.349 -0.493 0.797 99 108 55
-36.0041 95.1694 6.9528 0.122 -0.702 0.702 87 96 42
-35.8528 94.9846 6.9642 0.054 -0.666 0.744 88 95 49
-35.6135 95.0363 6.9695 0.078 -0.695 0.715 42 45 26
-35.4920 95.0500 6.9726 0.241 -0.646 0.725 16 17 9
-35.3257 95.6238 6.9564 0.739 -0.379 0.557 15 16 10
-35.0244 96.1576 6.9456 -0.788 -0.541 0.293 17 15 15
-34.8626 95.8851 6.9606 -0.758 -0.573 0.311 13 11 13
-34.6132 94.9404 7.0031 -0.013 -0.728 0.686 9 8 5
-34.4901 94.9417 7.0067 -0.013 -0.728 0.686 27 28 14
-34.3608 94.8954 7.0123 -0.053 -0.733 0.678 92 96 64
-34.2050 94.6378 7.0265 -0.543 -0.676 0.498 99 106 56
-34.1082 94.8448 7.0218 -0.384 -0.681 0.623 100 108 49
-32.5817 94.3661 7.0853 -0.059 -0.765 0.641 97 100 45
-32.4539 94.3112 7.0912 -0.399 -0.757 0.518 93 96 41
-30.3819 96.0731 7.0881 -0.777 -0.590 0.222 86 90 39
-30.2444 95.8945 7.0988 -0.759 -0.614 0.216 90 94 43
-29.5795 95.2126 7.1441 -0.349 -0.902 0.255 93 95 46
-29.4531 95.1636 7.1497 -0.408 -0.819 0.403 88 90 41
-29.3211 95.0135 7.1592 -0.375 -0.845 0.382 84 86 37
-29.1966 94.9901 7.1638 -0.415 -0.808 0.418 91 93 44
-22.9319 94.7288 7.3615 0.147 -0.660 0.737 80 87 38
-22.8091 94.7415 7.3647 0.167 -0.665 0.728 47 51 16
-22.6855 94.7716 7.3673 0.438 -0.650 0.621 21 22 2
-22.5594 94.8667 7.3676 0.101 -0.748 0.656 16 16 6
-22.4360 94.8860 7.3706 0.101 -0.748 0.656 22 21 15
-22.3105 94.9527 7.3718 -0.193 -0.742 0.641 11 11 4
-22.1884 94.9357 7.3761 -0.217 -0.731 0.647 56 57 41
-22.0671 94.9040 7.3810 -0.217 -0.731 0.647 106 111 71
-21.9461 94.8699 7.3859 -0.193 -0.742 0.641 104 111 59
-21.8339 94.6553 7.3972 -0.646 -0.570 0.508 104 112 56
-48.7963 98.7523 6.3112 -0.324 -0.544 0.774 87 140 144
-48.6437 98.6819 6.3186 -0.522 -0.493 0.696 66 119 123
-48.4748 98.5585 6.3284 -0.502 -0.520 0.691 72 125 129
-48.4555 98.9162 6.3151 -0.415 -0.632 0.655 95 145 147
-48.3073 98.8599 6.3218 -0.091 -0.805 0.587 105 150 150
-48.1729 98.8480 6.3263 -0.091 -0.805 0.587 106 148 145
-47.9478 98.5383 6.3450 -0.077 -0.842 0.534 106 141 136
-47.2138 96.9661 6.4279 0.522 -0.812 0.261 102 135 116
-47.1056 97.0301 6.4287 -0.670 -0.699 -0.250 103 133 107
-36.3458 95.7653 6.8008 0.376 -0.514 0.771 98 107 54
-35.9893 95.0581 6.8389 0.122 -0.702 0.702 88 96 44
-35.8399 94.8851 6.8501 0.039 -0.676 0.736 88 96 49
-35.5986 94.9211 6.8559 0.078 -0.695 0.715 42 46 26
-35.4760 94.9268 6.8594 0.135 -0.628 0.766 16 17 9
-34.8502 95.7820 6.8451 -0.737 -0.609 0.293 13 11 13
-34.6089 94.8982 6.8865 -0.541 -0.692 0.478 9 8 6
-34.4707 94.7837 6.8951 -0.541 -0.682 0.493 30 30 17
-34.3338 94.6761 6.9034 -0.543 -0.687 0.483 85 89 58
-34.0353 94.2538 6.9287 -0.450 -0.693 0.563 104 113 52
-32.5794 94.3430 6.9690 -0.086 -0.817 0.570 93 96 41
-32.4455 94.2290 6.9774 -0.399 -0.757 0.518 91 94 39
-30.3962 96.2910 6.9591 -0.763 -0.362 0.536 87 91 41
-29.5777 95.2075 7.0257 -0.238 -0.764 0.600 90 92 43
-29.4556 95.2335 7.0283 -0.169 -0.530 0.831 85 87 38
-29.3189 95.0037 7.0413 -0.332 -0.771 0.544 74 76 27
-29.2125 95.3092 7.0327 -0.435 -0.772 0.463 84 86 36
-22.9303 94.6225 7.2480 0.123 -0.744 0.656 80 87 37
-22.6828 94.7003 7.2524 0.446 -0.654 0.611 21 22 2
-22.5582 94.7563 7.2540 0.077 -0.740 0.668 17 17 6
-22.4345 94.7862 7.2565 0.101 -0.748 0.656 22 21 16
-22.3086 94.8642 7.2573 -0.220 -0.775 0.593 12 12 4
-22.1871 94.8372 7.2620 -0.231 -0.767 0.598 57 58 41
-22.0660 94.8045 7.2669 -0.231 -0.767 0.598 106 111 70
-21.9458 94.7540 7.2724 -0.176 -0.757 0.630 105 112 59
-56.6593 116.9513 5.2149 0.325 0.112 0.939 126 185 199
-48.7436 98.5566 6.1957 -0.324 -0.544 0.774 102 151 156
-48.5809 98.4532 6.2047 -0.523 -0.488 0.699 88 138 145
-48.4202 98.3554 6.2135 -0.499 -0.518 0.695 89 138 143
-48.4187 98.7694 6.1968 -0.415 -0.632 0.655 105 153 156
-48.2881 98.7695 6.2008 -0.091 -0.805 0.587 107 151 151
-48.1538 98.7576 6.2053 -0.091 -0.805 0.587 106 147 144
-47.9325 98.4601 6.2239 -0.077 -0.842 0.534 106 141 136
-47.2950 96.7865 6.3107 0.414 -0.814 0.408 105 138 124
-47.1244 97.0658 6.3045 -0.668 -0.707 -0.231 104 133 109
-36.3398 95.7118 6.6833 0.520 -0.631 0.576 97 106 53
-35.9657 94.8883 6.7278 0.103 -0.708 0.699 88 97 45
-35.8290 94.7993 6.7355 0.094 -0.700 0.708 87 94 48
-35.5836 94.8061 6.7426 0.078 -0.695 0.715 36 39 19
-35.4626 94.8217 6.7456 0.088 -0.687 0.721 15 17 8
-34.8401 95.6964 6.7290 -0.735 -0.610 0.294 16 14 17
-34.5082 95.0624 6.7646 -0.803 -0.529 0.274 35 36 24
-34.3557 94.8380 6.7782 -0.803 -0.529 0.274 92 95 66
-34.0229 94.1465 6.8162 -0.447 -0.688 0.573 100 109 48
-32.3467 94.4596 6.8539 -0.735 -0.637 0.235 92 95 40
-30.3443 95.5754 6.8690 -0.172 -0.355 0.919 84 87 40
-30.2176 95.5409 6.8742 -0.187 -0.422 0.887 90 93 46
-29.9643 95.4695 6.8847 -0.639 -0.396 0.660 91 93 44
-29.5590 94.9234 6.9190 0.139 -0.547 0.825 89 91 42
-29.4425 95.0386 6.9178 -0.164 -0.502 0.850 88 90 41
-29.1897 94.9279 6.9299 0.063 -0.592 0.803 79 81 31
-23.2766 95.1754 7.0976 -0.442 -0.826 0.351 97 102 44
-22.5564 94.6629 7.1399 -0.013 -0.693 0.721 16 16 5
-22.4337 94.6695 7.1433 0.077 -0.740 0.668 22 21 16
-22.3087 94.7300 7.1447 -0.186 -0.693 0.697 10 10 2
-22.1874 94.7022 7.1494 -0.186 -0.693 0.697 62 63 47
-22.0662 94.6745 7.1542 -0.186 -0.693 0.697 107 112 72
-58.6797 91.2098 6.0810 -0.056 -0.944 0.326 100 146 144
-48.8312 98.3937 6.0750 -0.165 -0.538 0.827 110 155 160
-48.6899 98.3581 6.0808 -0.176 -0.545 0.820 111 157 163
-48.5482 98.3210 6.0866 -0.176 -0.545 0.820 105 152 158
-48.4134 98.3054 6.0913 -0.389 -0.534 0.751 106 152 158
-48.3660 98.5714 6.0815 -0.406 -0.536 0.740 111 156 160
-48.2796 98.7140 6.0781 -0.083 -0.812 0.578 109 151 150
-47.8829 98.2697 6.1087 -0.315 -0.735 0.600 106 141 136
-47.3155 96.8271 6.1865 -0.200 -0.835 0.512 106 139 124
-35.9459 94.7439 6.6160 0.210 -0.662 0.719 89 97 45
-35.8155 94.6953 6.6220 0.078 -0.650 0.756 85 93 46
-35.5680 94.6865 6.6298 0.088 -0.687 0.721 30 33 14
-35.4475 94.7049 6.6326 0.088 -0.687 0.721 15 16 9
-35.3015 94.5436 6.6438 0.432 -0.649 0.626 15 16 11
-34.8570 94.8894 6.6426 -0.675 -0.502 0.541 18 17 16
-34.8314 95.6213 6.6126 -0.744 -0.598 0.299 18 16 19
-34.5018 95.0046 6.6485 -0.800 -0.530 0.283 39 39 28
-34.0112 94.0451 6.7036 -0.447 -0.688 0.573 95 104 42
-30.0822 95.3958 6.7649 -0.659 -0.396 0.639 87 91 41
-29.6826 94.9543 6.7955 -0.473 -0.464 0.749 84 86 37
-29.5475 94.7587 6.8078 0.139 -0.547 0.825 95 97 48
-29.4269 94.7990 6.8098 -0.162 -0.491 0.856 94 96 47
-29.3015 94.7570 6.8153 -0.139 -0.493 0.859 70 72 23
-29.1771 94.7305 6.8201 -0.139 -0.493 0.859 78 80 31
-23.2743 95.0795 6.9830 -0.422 -0.835 0.354 97 102 44
-48.9418 98.3043 5.9509 0.046 -0.720 0.692 114 154 159
-48.8154 98.3156 5.9542 0.046 -0.720 0.692 112 154 158
-48.6042 98.0584 5.9718 0.249 -0.467 0.849 108 151 155
-48.5048 98.1546 5.9705 0.198 -0.500 0.843 111 155 159
-48.3000 98.3306 5.9690 -0.256 -0.683 0.684 110 152 153
-48.1644 98.3125 5.9739 -0.261 -0.721 0.641 109 150 148
-48.0200 98.2656 5.9803 -0.281 -0.710 0.646 107 147 139
-47.5768 97.2387 6.0385 -0.062 -0.771 0.633 105 142 132
-47.5871 97.6950 6.0183 0.056 -0.882 0.468 106 139 123
-47.6627 98.3730 5.9863 -0.234 -0.720 0.653 105 136 117
-35.9355 94.6619 6.5015 0.217 -0.666 0.714 88 97 45
-35.7946 94.5424 6.5110 0.355 -0.683 0.639 86 94 47
-35.6742 94.5597 6.5139 0.335 -0.674 0.658 81 87 54
-35.5597 94.6175 6.5148 0.335 -0.674 0.658 32 34 17
-35.4433 94.6635 6.5163 0.341 -0.673 0.656 15 16 9
-35.2888 94.4428 6.5306 0.432 -0.649 0.626 15 16 11
-34.4699 94.7498 6.5418 -0.679 -0.500 0.538 37 38 26
-34.3227 94.5636 6.5544 -0.679 -0.500 0.538 97 100 71
-34.0345 94.2234 6.5779 -0.663 -0.506 0.552 96 105 43
-32.5578 94.1306 6.6264 -0.244 -0.826 0.507 101 104 49
-32.4584 94.3514 6.6198 -0.739 -0.626 0.249 99 102 47
-29.4138 94.6039 6.7003 -0.162 -0.491 0.856 96 98 49
-29.2889 94.5656 6.7058 -0.170 -0.500 0.849 79 81 32
-29.1644 94.5322 6.7110 -0.170 -0.500 0.849 84 86 37
-28.9277 94.6982 6.7109 -0.018 -0.973 0.232 97 98 40
-24.7504 94.9490 6.8256 -0.468 -0.855 0.222 93 98 44
-56.9695 105.5195 5.2567 -0.500 -0.718 0.484 129 193 210
-52.9063 100.2359 5.6190 0.754 -0.517 0.405 104 162 176
-53.3280 102.1512 5.5193 0.316 0.046 0.948 106 165 177
-47.9411 97.9805 5.8710 -0.368 -0.743 0.559 111 149 138
-47.4797 96.8934 5.9342 0.223 -0.796 0.563 109 145 131
-47.5372 97.5030 5.9048 0.025 -0.817 0.575 107 140 121
-35.8907 94.3522 6.3986 0.749 -0.474 0.464 89 98 44
-35.7688 94.3571 6.4020 0.603 -0.702 0.379 86 93 47
-35.6531 94.4038 6.4034 0.585 -0.731 0.351 82 87 54
-35.5432 94.4916 6.4027 0.585 -0.731 0.351 32 35 17
-35.3992 94.3454 6.4137 0.669 -0.633 0.390 15 16 9
-35.2843 94.3996 6.4147 0.613 -0.693 0.380 15 15 13
-35.2334 94.9098 6.3931 0.672 -0.451 0.587 15 16 11
-34.4516 94.6002 6.4307 -0.685 -0.516 0.514 37 37 23
-34.3048 94.4154 6.4435 -0.679 -0.515 0.523 97 101 69
-29.4017 94.4243 6.5907 -0.151 -0.433 0.889 97 99 48
-29.2750 94.3500 6.5979 -0.147 -0.450 0.881 88 90 39
-29.1615 94.5124 6.5940 0.117 -0.563 0.818 92 94 43
-28.9240 94.6624 6.5943 -0.008 -0.975 0.222 97 98 42
-28.8060 94.7604 6.5934 -0.043 -0.995 -0.086 101 102 45
-23.1620 94.3777 6.7807 -0.886 -0.389 0.251 97 102 45
-55.8737 104.8585 5.1837 -0.343 -0.912 0.225 114 171 174
-53.3563 101.0716 5.4379 0.213 0.031 0.977 115 169 177
-52.8959 100.1764 5.4939 0.752 -0.515 0.412 115 168 176
-47.6811 97.1062 5.7957 0.815 -0.471 0.336 111 148 131
-47.5203 97.4197 5.7857 0.025 -0.817 0.575 108 140 119
-47.5606 97.9793 5.7582 -0.239 -0.614 0.752 105 134 112
-36.2668 94.3894 6.2675 -0.163 -0.953 -0.254 101 110 55
-36.2132 95.6449 6.2100 -0.320 -0.921 0.221 93 102 47
-35.8929 94.3531 6.2805 0.757 -0.507 0.413 90 99 45
-35.7137 93.9751 6.3037 0.617 -0.692 0.376 84 91 47
-35.6068 94.0774 6.3021 0.609 -0.698 0.376 82 88 57
-35.4983 94.1715 6.3010 0.609 -0.698 0.376 25 30 13
-35.3892 94.2639 6.2999 0.608 -0.699 0.377 14 16 10
-35.2778 94.3421 6.2996 0.613 -0.693 0.380 14 16 13
-34.4406 94.5066 6.3171 -0.544 -0.623 0.562 42 43 26
-34.3034 94.3951 6.3264 -0.544 -0.623 0.562 99 103 69
-29.5036 94.1080 6.4846 -0.011 -0.372 0.928 109 112 57
-29.3857 94.1795 6.4848 -0.143 -0.432 0.891 99 102 47
-29.2685 94.2665 6.4842 0.119 -0.541 0.833 95 98 43
-29.1495 94.3262 6.4850 0.265 -0.514 0.816 95 98 43
-28.9222 94.6636 6.4759 0.066 -0.990 0.123 95 98 41
-28.8050 94.7808 6.4740 -0.048 -0.996 -0.075 98 101 44
-25.6006 93.9390 6.6102 -0.262 -0.703 0.661 107 108 51
-24.9897 94.6701 6.5941 0.534 -0.313 0.785 86 92 37
-56.7857 86.6332 5.9089 -0.268 -0.098 0.958 102 157 166
-63.0257 115.2293 4.3261 -0.178 -0.052 0.983 131 197 213
-55.8163 105.0489 5.0400 -0.181 -0.983 0.025 113 166 172
-54.9697 103.5463 5.1388 -0.606 -0.567 0.557 120 173 181
-54.8907 103.7093 5.1333 -0.671 -0.529 0.520 120 173 179
-54.6546 103.4495 5.1530 -0.137 -0.752 0.645 120 173 179
-54.3379 102.9688 5.1860 -0.261 -0.550 0.794 120 171 175
-53.5836 102.0375 5.2542 -0.194 -0.215 0.957 119 169 173
-47.5043 97.7652 5.6459 -0.284 -0.514 0.809 105 133 110
-36.1926 94.6897 6.1370 -0.139 -0.987 -0.075 97 106 51
-36.2057 95.5825 6.0930 -0.342 -0.911 0.232 94 103 48
-35.8996 94.3839 6.1607 0.748 -0.486 0.452 91 100 46
-35.7085 93.9274 6.1887 0.622 -0.696 0.360 82 91 46
-35.6006 94.0231 6.1873 0.622 -0.696 0.360 80 87 55
-35.4924 94.1191 6.1859 0.622 -0.696 0.360 20 24 8
-35.3828 94.2074 6.1849 0.608 -0.699 0.377 13 16 10
-35.2726 94.2940 6.1840 0.614 -0.696 0.372 14 16 13
-34.4312 94.4253 6.2030 -0.567 -0.613 0.551 50 51 32
-34.2900 94.2821 6.2142 -0.544 -0.623 0.562 103 107 71
-34.1533 94.1712 6.2237 -0.544 -0.623 0.562 94 101 52
-32.6841 94.1633 6.2684 -0.143 -0.327 0.934 100 105 49
-29.2565 94.0844 6.3756 0.295 -0.528 0.797 98 103 44
-29.1402 94.1877 6.3741 0.286 -0.527 0.800 93 99 39
-25.5954 93.5954 6.5099 -0.396 -0.741 0.542 98 101 46
-21.8252 94.0070 6.6035 -0.419 -0.789 0.449 105 112 57
-55.8036 104.9820 4.9071 -0.146 -0.836 0.528 121 171 177
-55.4485 104.7934 4.9274 -0.466 -0.716 0.519 116 166 173
-52.3507 101.2250 5.2009 -0.581 -0.348 0.736 117 162 164
-47.4273 97.4826 5.5382 -0.299 -0.502 0.811 104 132 108
-36.2060 94.7622 6.0141 -0.654 -0.755 0.048 98 107 52
-36.1017 94.8886 6.0109 -0.223 -0.640 0.735 93 102 47
-35.8963 94.3492 6.0443 0.741 -0.486 0.463 92 101 47
-35.7026 93.8750 6.0740 0.606 -0.695 0.388 81 91 44
-35.5944 93.9685 6.0726 0.606 -0.695 0.388 80 87 55
-35.4859 94.0623 6.0711 0.606 -0.695 0.388 20 25 9
-35.3764 94.1509 6.0700 0.608 -0.699 0.377 13 16 10
-35.2616 94.2052 6.0707 0.612 -0.691 0.384 14 16 13
-34.7806 94.2734 6.0818 -0.659 -0.510 0.553 14 12 14
-34.4145 94.2878 6.0921 -0.631 -0.536 0.562 49 51 27
-34.2719 94.1327 6.1042 -0.631 -0.536 0.562 102 107 70
-32.6347 93.6943 6.1757 -0.233 -0.307 0.923 101 106 50
-30.2947 94.9725 6.1818 0.661 -0.746 -0.078 76 77 35
-30.1828 95.1429 6.1766 0.654 -0.752 -0.079 93 94 52
-30.0252 94.6427 6.2066 -0.473 -0.858 0.201 101 103 57
-29.8882 94.4313 6.2214 -0.509 -0.850 0.137 101 106 50
-29.7620 94.3779 6.2279 -0.673 -0.723 0.156 101 106 48
-29.6241 94.1316 6.2445 -0.336 -0.940 -0.052 101 106 48
-29.3794 94.1265 6.2521 -0.517 -0.850 -0.096 102 107 49
-29.2575 94.1308 6.2556 -0.457 -0.888 -0.057 97 102 44
-28.5897 95.5401 6.2046 -0.140 -0.875 0.463 93 98 40
-25.5888 92.9500 6.4259 -0.337 -0.676 0.655 94 97 44
-56.6315 105.6210 4.7122 0.359 -0.933 -0.024 120 170 177
-56.3658 105.6766 4.7173 -0.010 -1.000 -0.003 123 168 179
-36.1717 94.5271 5.9083 -0.630 -0.774 0.056 98 107 52
-36.0784 94.7227 5.9009 -0.188 -0.674 0.714 93 102 47
-35.6967 93.8226 5.9594 0.613 -0.692 0.382 81 90 44
-35.5887 93.9173 5.9577 0.613 -0.692 0.382 81 88 55
-35.4764 93.9850 5.9576 0.602 -0.694 0.395 21 25 9
-35.3677 94.0785 5.9560 0.602 -0.694 0.395 13 16 10
-34.3963 94.1390 5.9821 -0.570 -0.603 0.558 47 50 25
-34.2583 94.0184 5.9926 -0.570 -0.603 0.558 103 108 71
-32.6277 93.6260 6.0623 -0.401 -0.663 0.632 100 105 49
-32.3642 93.4258 6.0807 -0.464 -0.611 0.642 91 96 40
-30.1036 94.0130 6.1183 0.296 -0.798 -0.525 79 80 38
-29.9805 93.9977 6.1228 0.298 -0.800 -0.521 97 98 53
-28.5836 95.4559 6.0890 -0.153 -0.861 0.485 91 96 40
-25.4657 93.1554 6.3031 -0.435 -0.678 0.592 86 89 36
-25.3449 92.7606 6.3273 0.721 -0.483 0.497 86 89 36
-56.3906 104.9617 4.6170 0.280 -0.852 -0.442 119 165 171
-47.6150 96.7814 5.3224 0.473 -0.424 0.772 103 139 124
-47.5071 96.8461 5.3222 0.537 -0.363 0.761 102 135 117
-36.1727 94.5193 5.7899 -0.630 -0.774 0.056 97 106 51
-35.6898 93.7632 5.8452 0.614 -0.671 0.416 83 92 46
-35.5822 93.8604 5.8432 0.614 -0.671 0.416 78 85 52
-35.4743 93.9579 5.8412 0.614 -0.671 0.416 19 22 9
-35.3642 94.0422 5.8400 0.616 -0.685 0.389 12 14 10
-35.2484 94.0891 5.8410 0.612 -0.691 0.384 15 17 14
-34.3844 94.0384 5.8698 -0.593 -0.631 0.501 53 55 31
-34.2464 93.9172 5.8805 -0.593 -0.631 0.501 102 106 70
-33.9965 93.8721 5.8905 -0.628 -0.567 0.533 98 103 47
-32.7586 93.7100 5.9366 -0.645 -0.740 0.188 103 108 53
-32.6233 93.5825 5.9476 -0.656 -0.731 0.190 99 104 50
-30.0450 94.9755 5.9505 0.851 -0.253 0.460 93 95 50
-29.3944 94.4383 5.9991 0.241 -0.887 -0.393 101 104 55
-29.2953 94.8563 5.9796 0.366 -0.927 -0.089 97 101 50
-28.5796 95.4142 5.9711 -0.206 -0.718 0.665 91 96 42
-28.4654 95.6473 5.9620 -0.355 -0.852 0.384 90 95 41
-22.1989 93.4310 6.2707 -0.391 -0.894 0.220 74 80 54
-47.4873 96.7539 5.2048 0.363 -0.510 0.780 102 135 117
-36.1756 94.5242 5.6706 -0.664 -0.747 -0.012 96 105 50
-35.7008 93.8241 5.7238 0.186 -0.743 0.643 86 96 49
-35.5833 93.8551 5.7257 0.186 -0.743 0.643 72 79 46
-35.4664 93.8918 5.7272 0.533 -0.668 0.519 15 19 6
-35.3563 93.9754 5.7258 0.542 -0.667 0.512 11 13 9
-34.3771 93.9731 5.7556 -0.683 -0.578 0.446 66 68 44
-34.2344 93.8146 5.7687 -0.683 -0.578 0.446 98 103 66
-33.9933 93.8389 5.7746 -0.621 -0.546 0.562 100 105 49
-32.6282 93.6260 5.8277 -0.645 -0.742 0.182 97 102 46
-31.1654 93.5874 5.8741 0.641 -0.546 0.539 84 87 40
-31.0551 93.7228 5.8699 0.645 -0.538 0.543 82 83 39
-30.9467 93.8873 5.8641 0.644 -0.541 0.541 80 81 37
-29.3923 94.4294 5.8810 -0.060 -0.887 -0.458 96 99 54
-29.2788 94.5953 5.8752 0.312 -0.949 -0.032 92 95 49
-23.2690 93.8605 6.0977 -0.880 -0.337 0.334 98 101 46
-59.5080 108.7240 4.0334 0.277 -0.059 0.959 118 164 163
-57.5089 105.9246 4.2540 -0.775 -0.501 0.386 116 161 157
-55.4885 102.1969 4.5284 0.296 -0.835 -0.464 112 159 154
-47.6186 96.7381 5.0787 0.403 -0.618 0.675 103 140 123
-36.1236 94.1741 5.5731 0.092 -0.742 0.664 96 105 50
-36.0295 94.3621 5.5652 -0.311 -0.452 0.836 93 102 47
-35.6931 93.7598 5.6099 0.173 -0.745 0.644 86 96 49
-35.5753 93.7887 5.6118 0.173 -0.745 0.644 72 79 47
-34.6099 93.8748 5.6361 -0.647 -0.615 0.450 16 15 13
-34.5090 94.0362 5.6299 -0.681 -0.576 0.452 16 16 4
-34.3658 93.8775 5.6433 -0.681 -0.576 0.452 64 66 42
-34.2233 93.7195 5.6566 -0.681 -0.576 0.452 98 103 66
-31.2654 93.3445 5.7676 0.209 -0.642 0.738 87 90 43
-31.1573 93.4981 5.7621 0.400 -0.494 0.772 82 85 38
-31.0392 93.5392 5.7633 0.624 -0.466 0.627 76 77 33
-30.9403 93.8166 5.7504 0.239 -0.391 0.889 74 75 31
-29.7388 94.1009 5.7705 0.348 -0.385 0.855 71 73 32
-29.6235 94.2162 5.7674 0.158 -0.929 -0.333 77 79 38
-29.3696 94.0685 5.7835 0.012 -0.389 0.921 90 92 51
-27.7439 93.0764 5.8895 -0.209 -0.787 -0.581 101 102 45
-23.2666 93.7696 5.9853 -0.880 -0.335 0.335 98 101 46
-22.0615 93.5463 6.0345 -0.630 -0.604 0.489 107 112 68
-21.9458 93.4336 6.0444 -0.630 -0.604 0.489 104 111 60
-21.8274 93.3814 6.0510 -0.551 -0.664 0.506 104 111 58
-59.3561 106.5175 4.0243 0.614 -0.640 -0.462 119 164 161
-59.2688 107.3719 3.9766 -0.041 -0.992 -0.122 119 164 160
-58.4626 107.1934 4.0115 0.454 -0.869 -0.197 114 159 155
-57.9507 106.2753 4.0811 -0.721 -0.661 0.208 109 154 149
-57.9883 106.7361 4.0528 -0.702 -0.700 0.133 109 154 149
-47.4865 96.6966 4.9620 0.403 -0.618 0.675 101 135 115
-36.1580 94.3827 5.4412 0.028 -0.606 0.795 96 105 50
-36.0354 94.3869 5.4447 -0.061 -0.462 0.885 93 102 47
-35.8550 94.0095 5.4724 0.735 -0.415 0.536 90 99 45
-35.6648 93.5577 5.5047 0.469 -0.590 0.657 86 95 47
-35.5469 93.5836 5.5068 0.509 -0.566 0.648 74 81 48
-35.4374 93.6686 5.5051 0.502 -0.572 0.649 15 19 6
-35.3251 93.7356 5.5045 0.492 -0.570 0.658 11 13 9
-34.4908 93.8885 5.5208 -0.600 -0.639 0.481 17 17 3
-34.3521 93.7632 5.5324 -0.614 -0.642 0.459 63 66 39
-34.2141 93.6394 5.5438 -0.614 -0.642 0.459 98 103 65
-31.2470 93.1380 5.6632 0.039 -0.606 0.794 88 91 44
-30.6720 93.5151 5.6584 -0.176 -0.598 0.782 73 74 32
-30.5657 93.7154 5.6498 0.138 -0.725 0.675 75 76 34
-30.4457 93.7404 5.6520 0.138 -0.725 0.675 78 79 37
-30.1083 94.1500 5.6381 0.880 -0.313 0.358 66 67 25
-29.8502 93.9541 5.6574 -0.466 -0.880 -0.095 64 66 26
-29.1238 94.0800 5.6720 0.048 -0.216 0.975 85 87 47
-27.7514 93.3558 5.7562 -0.410 -0.725 -0.553 97 97 43
-26.4644 96.0986 5.6336 -0.841 -0.047 0.538 98 102 43
-26.0339 91.3433 5.9267 -0.696 -0.048 0.716 88 91 35
-22.0585 93.4874 5.9208 -0.556 -0.650 0.518 106 112 67
-21.9445 93.3418 5.9328 -0.630 -0.604 0.489 104 111 60
-21.8260 93.2950 5.9392 -0.551 -0.664 0.506 105 112 58
-35.9806 94.0151 5.3498 -0.004 -0.465 0.885 92 101 46
-35.6506 93.4495 5.3940 0.470 -0.596 0.651 84 94 45
-35.5182 93.3775 5.4024 0.352 -0.633 0.690 68 75 41
-35.4023 93.4154 5.4036 0.361 -0.632 0.686 14 18 3
-35.2803 93.4131 5.4075 0.274 -0.704 0.655 12 14 10
-35.1518 93.3644 5.4143 0.537 -0.521 0.663 14 16 13
-34.4827 93.8177 5.4071 -0.662 -0.636 0.396 13 15 1
-34.3392 93.6550 5.4213 -0.666 -0.635 0.391 65 69 41
-34.2009 93.5280 5.4332 -0.660 -0.636 0.399 97 103 64
-31.4654 92.8817 5.5552 0.131 -0.662 0.738 85 92 41
-31.3507 92.9481 5.5547 0.140 -0.706 0.694 87 94 43
-31.2323 92.9736 5.5567 0.140 -0.706 0.694 85 92 41
-30.7891 93.4688 5.5401 0.609 -0.645 0.461 65 68 25
-30.6723 93.5302 5.5400 0.105 -0.952 0.286 71 74 31
-30.5645 93.7116 5.5322 -0.218 -0.850 0.480 77 80 37
-30.4428 93.7148 5.5357 0.017 -0.731 0.682 82 85 42
-30.3219 93.7288 5.5385 0.008 -0.725 0.689 94 96 56
-30.0988 94.0309 5.5270 0.876 -0.257 0.408 64 66 26
-29.1013 93.7033 5.5771 -0.145 -0.200 0.969 83 85 45
-28.2472 93.6727 5.6048 -0.356 -0.932 -0.068 84 89 35
-28.1235 93.6249 5.6114 -0.356 -0.932 -0.068 84 89 35
-26.4396 94.7864 5.5921 -0.859 -0.047 0.509 95 98 42
-26.0330 91.5582 5.8000 -0.814 -0.578 0.057 84 87 33
-21.9432 93.2502 5.8214 -0.630 -0.604 0.489 104 111 60
-60.1596 107.3221 3.6694 -0.597 -0.728 -0.337 115 157 156
-47.3892 96.7420 4.7155 0.449 -0.659 0.604 99 130 106
-35.9517 93.8129 5.2446 -0.004 -0.476 0.880 92 101 46
-35.6204 93.2350 5.2907 0.353 -0.648 0.675 82 92 43
-35.5080 93.2958 5.2903 0.353 -0.648 0.675 56 64 30
-35.3898 93.3176 5.2925 0.353 -0.641 0.682 11 15 1
-35.2673 93.3107 5.2967 0.282 -0.709 0.646 14 16 12
-35.1518 93.3530 5.2975 0.562 -0.534 0.632 14 16 13
-34.3322 93.5922 5.3075 -0.609 -0.651 0.452 71 76 47
-34.1940 93.4659 5.3195 -0.613 -0.643 0.458 96 102 62
-33.9318 93.3157 5.3368 -0.666 -0.614 0.424 97 105 49
-30.7900 93.4905 5.4212 0.759 -0.546 0.355 60 66 22
-30.5600 93.6643 5.4174 -0.227 -0.849 0.478 85 90 48
-30.4358 93.6343 5.4230 -0.227 -0.849 0.478 80 85 44
-30.3118 93.6043 5.4286 -0.227 -0.849 0.478 87 92 51
-30.1929 93.6447 5.4297 0.157 -0.829 0.537 80 85 44
-29.4406 93.2912 5.4745 -0.181 -0.129 0.975 73 78 37
-29.3317 93.5019 5.4647 -0.261 -0.132 0.956 77 82 41
-29.2066 93.4404 5.4723 -0.244 -0.132 0.961 77 82 41
-21.8335 92.9147 5.7286 -0.506 -0.543 0.670 104 111 57
-47.5508 96.4081 4.6083 0.474 -0.543 0.693 101 139 119
-47.5250 96.7399 4.5879 0.449 -0.660 0.602 100 134 112
-35.6088 93.1446 5.1794 0.343 -0.712 0.612 84 92 46
-35.4957 93.1997 5.1793 0.351 -0.711 0.609 56 63 33
-35.3825 93.2554 5.1792 0.351 -0.711 0.609 12 16 2
-35.2590 93.2412 5.1838 0.285 -0.715 0.639 15 17 13
-35.1425 93.2760 5.1851 0.528 -0.587 0.613 14 16 13
-34.3220 93.5048 5.1954 -0.637 -0.594 0.490 71 75 50
-34.1823 93.3658 5.2085 -0.637 -0.594 0.490 96 102 63
-30.8935 93.2768 5.3140 0.759 -0.546 0.355 70 76 32
-30.7840 93.4251 5.3078 0.759 -0.546 0.355 65 70 29
-30.5517 93.5671 5.3058 -0.211 -0.858 0.469 81 86 46
-30.4257 93.5107 5.3132 -0.220 -0.850 0.478 81 86 45
-30.3013 93.4737 5.3194 -0.208 -0.851 0.481 87 92 51
-30.1804 93.4846 5.3223 0.228 -0.923 0.310 80 85 44
-29.9504 93.6823 5.3167 0.760 -0.334 0.558 66 71 30
-29.3094 93.1483 5.3703 -0.193 -0.199 0.961 77 83 39
-24.3410 93.9506 5.4697 -0.067 -0.914 0.399 89 89 35
-21.8298 92.8740 5.6147 -0.451 -0.549 0.704 104 111 57
-68.6564 107.1614 3.1382 0.039 -0.972 0.233 88 156 165
-36.2484 94.9095 4.9267 -0.150 -0.629 0.762 95 104 49
-35.7651 92.5684 5.0951 0.676 -0.643 0.359 92 101 46
-35.7019 92.9455 5.0723 0.661 -0.693 0.288 91 100 46
-35.5921 93.0199 5.0707 0.662 -0.696 0.278 83 93 46
-35.4880 93.1352 5.0663 0.658 -0.698 0.283 56 63 31
-35.3780 93.2128 5.0646 0.665 -0.693 0.279 12 15 1
-35.2693 93.3008 5.0621 0.689 -0.665 0.287 15 17 13
-35.1587 93.3780 5.0604 0.669 -0.669 0.323 14 16 13
-34.1645 93.2192 5.1010 -0.721 -0.562 0.406 96 103 65
-31.7090 92.9166 5.1954 0.066 -0.253 0.965 86 92 46
-30.9887 92.9693 5.2138 0.736 -0.405 0.542 68 74 28
-30.7715 93.2780 5.2001 0.729 -0.406 0.551 72 77 36
-30.4181 93.4218 5.2014 0.210 -0.659 0.722 82 87 46
-30.2993 93.4607 5.2025 0.210 -0.659 0.722 87 92 51
-29.8443 93.9448 5.1845 0.461 -0.347 0.817 62 68 24
-27.0261 93.8709 5.2749 0.872 -0.365 0.324 93 97 48
-24.3383 93.8224 5.3597 -0.158 -0.905 0.396 93 93 39
-24.2157 93.8630 5.3607 -0.078 -0.912 0.402 97 97 43
-21.8223 92.9080 5.4961 -0.409 -0.571 0.712 104 111 57
-68.5849 106.9869 3.0101 -0.181 -0.882 0.436 90 159 167
-68.7468 107.5798 2.9653 0.109 -0.968 -0.226 91 158 167
-66.8577 113.7134 2.6094 0.165 -0.872 0.461 121 165 179
-65.9735 113.8646 2.6261 0.286 -0.943 0.169 119 161 157
-35.8102 92.8488 4.9583 0.600 -0.771 0.213 92 101 46
-34.2968 93.2935 4.9743 -0.728 -0.572 0.378 70 74 53
-31.5557 92.5655 5.1067 0.017 -0.302 0.953 79 84 45
-31.1923 92.5343 5.1198 -0.040 -0.567 0.823 63 68 29
-30.4053 93.2620 5.0947 -0.100 -0.694 0.713 82 87 47
-24.3383 93.4997 5.2630 -0.780 -0.578 0.241 94 97 42
-66.6091 113.8236 2.4560 0.356 -0.823 0.442 121 162 163
-66.1060 114.4699 2.4267 0.588 -0.594 0.549 115 154 151
-66.2328 115.1072 2.3788 0.247 -0.886 0.392 114 155 151
-35.8068 92.8134 4.8437 0.679 -0.725 0.118 91 100 45
-35.6949 92.8730 4.8430 0.679 -0.722 0.131 89 98 44
-34.6515 93.2081 4.8516 0.716 -0.697 0.039 12 12 11
-29.9394 93.5747 4.9695 0.326 -0.652 0.685 64 70 27
-29.8061 93.4021 4.9855 0.174 -0.882 0.437 64 70 25
-25.1892 90.9677 5.2940 0.823 -0.562 0.080 84 88 37
-24.4593 93.1870 5.1629 0.401 -0.602 0.690 99 99 45
-23.2660 92.6006 5.2397 -0.479 -0.398 0.783 95 96 39
-66.6648 113.5606 2.3193 -0.529 -0.244 0.813 111 153 153
-47.4094 96.2531 4.1301 -0.499 -0.866 -0.020 99 133 110
-35.8311 92.9586 4.7155 0.190 -0.915 0.355 92 101 46
-35.7137 92.9836 4.7173 0.190 -0.915 0.355 90 99 45
-35.5981 93.0217 4.7181 0.179 -0.909 0.377 81 90 42
-35.4794 93.0395 4.7205 0.185 -0.906 0.381 57 64 29
-35.3617 93.0643 4.7223 0.185 -0.906 0.381 10 14 0
-35.1634 93.3760 4.7063 0.771 -0.590 0.239 14 16 13
-34.6543 93.2181 4.7329 0.638 -0.761 -0.114 11 11 15
-28.7083 86.7143 5.3742 0.069 -0.493 0.867 78 84 40
-28.6049 86.8390 5.3685 0.100 -0.975 -0.199 77 83 38
-28.4980 86.9013 5.3673 0.155 -0.979 -0.130 75 81 35
-28.3884 86.9155 5.3697 0.299 -0.941 -0.158 76 82 36
-27.4648 88.9656 5.2526 0.139 0.030 0.990 84 88 39
-48.3255 95.1191 4.0610 0.880 -0.461 -0.116 102 143 143
-47.3993 96.1931 4.0113 -0.488 -0.873 -0.009 100 133 111
-35.8234 92.8946 4.6028 0.294 -0.860 0.418 92 101 46
-35.7114 92.9552 4.6018 0.128 -0.866 0.484 90 99 45
-35.5929 92.9739 4.6041 0.128 -0.866 0.484 82 89 42
-35.4744 92.9926 4.6063 0.128 -0.866 0.484 57 64 31
-35.3533 92.9947 4.6098 0.121 -0.866 0.485 10 14 0
-35.1285 93.1200 4.6076 0.240 -0.817 0.524 14 16 15
-34.6502 93.1776 4.6180 0.631 -0.770 -0.091 12 11 16
-26.0104 91.6409 4.9924 -0.392 -0.203 0.897 76 80 30
-25.8895 91.3786 5.0151 -0.482 -0.268 0.834 81 85 34
-22.4301 92.2464 5.0575 -0.096 -0.886 0.453 18 19 16
-49.3890 95.2627 3.8963 0.644 -0.741 -0.188 102 144 147
-48.9357 95.4152 3.8988 0.261 -0.883 -0.391 108 149 153
-47.9958 96.8500 3.8209 -0.750 -0.551 0.367 103 144 144
-47.5505 96.2423 3.8796 -0.500 -0.865 0.042 107 141 129
-47.3537 96.0170 3.9023 -0.420 -0.907 -0.036 102 133 117
-35.8023 92.7436 4.4970 0.281 -0.822 0.495 92 101 48
-35.7019 92.8794 4.4900 0.125 -0.855 0.503 90 99 46
-35.5873 92.9233 4.4902 0.111 -0.855 0.507 83 90 45
-35.4680 92.9368 4.4929 0.126 -0.860 0.494 57 62 32
-35.3456 92.9299 4.4971 0.133 -0.856 0.500 11 13 2
-35.2518 93.1199 4.4859 0.724 -0.596 0.347 14 16 14
-35.1190 93.0417 4.4957 0.233 -0.808 0.541 14 16 15
-34.6137 92.8988 4.5217 0.678 -0.551 -0.486 11 11 12
-23.5595 100.1909 4.3173 0.879 -0.080 0.469 98 100 45
-22.4301 92.1184 4.9507 -0.115 -0.877 0.466 18 19 16
-52.4493 97.3656 3.5213 0.017 -0.777 -0.629 109 149 149
-52.4377 97.6859 3.4973 0.557 -0.698 0.449 107 149 148
-48.6625 95.7102 3.7624 0.096 -0.851 -0.516 109 153 161
-48.5386 95.7193 3.7655 -0.063 -0.888 -0.454 112 156 165
-48.4827 95.9385 3.7505 0.400 -0.871 -0.287 111 157 164
-48.5707 97.0095 3.6665 0.409 -0.174 0.896 109 158 164
-47.8908 96.4865 3.7270 0.710 -0.394 0.584 107 149 153
-35.8036 92.7387 4.3799 0.153 -0.828 0.539 92 101 48
-35.6929 92.8065 4.3781 0.142 -0.847 0.512 91 99 47
-35.5794 92.8576 4.3777 0.111 -0.855 0.507 85 92 48
-35.4588 92.8619 4.3810 0.201 -0.815 0.544 46 51 21
-35.3410 92.8858 4.3828 0.198 -0.811 0.551 16 18 7
-35.2204 92.8905 4.3861 0.196 -0.815 0.546 14 14 14
-35.1110 92.9737 4.3831 0.219 -0.785 0.579 15 15 16
-25.2921 99.3510 4.1983 0.027 0.062 0.998 87 92 50
-22.4270 92.0620 4.8390 -0.016 -0.913 0.407 17 18 15
-22.3071 92.0762 4.8415 -0.007 -0.908 0.418 20 22 11
-52.6095 97.4166 3.3866 -0.030 -0.771 -0.636 107 150 150
-52.4770 97.4100 3.3911 0.065 -0.781 -0.621 106 150 152
-49.7136 97.3094 3.4832 -0.072 -0.051 0.996 114 162 167
-48.8489 95.4786 3.6517 -0.073 -0.968 -0.240 110 158 164
-48.8589 95.8936 3.6192 -0.073 -0.861 -0.504 111 157 163
-48.5442 95.7083 3.6432 -0.097 -0.881 -0.463 112 159 165
-48.4658 95.8585 3.6339 0.112 -0.873 -0.475 111 159 163
-48.3968 96.0390 3.6220 0.215 -0.892 -0.397 111 160 164
-47.8687 95.5784 3.6738 0.517 -0.855 0.023 106 153 159
-47.8019 95.7686 3.6611 0.440 -0.880 0.180 106 153 159
-47.6826 95.7929 3.6629 0.418 -0.866 0.275 108 153 156
-47.7532 96.4284 3.6114 -0.536 -0.712 0.453 109 149 147
-35.8259 92.8701 4.2514 -0.046 -0.818 0.574 94 101 49
-35.6815 92.7185 4.2676 0.185 -0.810 0.557 92 99 47
-35.4491 92.7838 4.2696 0.182 -0.813 0.553 48 51 21
-35.3325 92.8151 4.2707 0.215 -0.787 0.579 16 17 6
-35.2159 92.8476 4.2717 0.215 -0.787 0.579 15 14 15
-35.1013 92.8942 4.2716 0.219 -0.785 0.579 16 13 19
-24.2402 98.5910 4.1607 0.109 0.056 0.992 97 103 67
-23.7342 97.7536 4.2411 0.380 -0.002 0.925 98 103 62
-22.4229 92.0312 4.7253 0.067 -0.950 0.306 16 18 13
-22.3032 92.0406 4.7282 0.067 -0.950 0.306 19 22 12
-55.3823 101.5007 2.8518 0.681 -0.730 -0.059 107 151 153
-55.2467 101.5056 2.8555 0.770 -0.615 0.174 106 152 154
-55.1455 101.5995 2.8512 0.751 -0.643 0.152 105 151 153
-50.8799 96.9061 3.3537 0.636 -0.472 0.611 115 163 168
-48.9281 95.6898 3.5098 -0.159 -0.188 0.969 113 164 168
-48.0522 93.7884 3.6874 0.123 -0.768 0.629 114 163 168
-48.5738 96.1642 3.4830 0.423 -0.164 0.891 107 154 160
-47.8752 95.5712 3.5514 0.517 -0.855 0.023 106 153 159
-47.8027 95.7435 3.5399 0.440 -0.880 0.180 108 155 160
-47.6713 95.7293 3.5450 0.408 -0.873 0.269 109 154 157
-35.7998 92.6869 4.1487 0.343 -0.858 0.382 93 100 48
-35.6701 92.6302 4.1572 0.300 -0.858 0.416 92 99 47
-23.1164 101.1149 3.8672 0.604 -0.014 0.797 79 81 55
-22.4189 91.9989 4.6117 0.078 -0.954 0.290 16 18 13
-22.2990 92.0118 4.6144 0.053 -0.957 0.286 18 22 11
-55.5177 101.8159 2.6888 0.720 -0.671 -0.177 102 151 155
-55.4024 101.8749 2.6875 0.725 -0.667 -0.170 100 149 154
-55.2373 101.8049 2.6982 0.733 -0.674 -0.090 103 152 156
-49.3711 95.4695 3.3909 0.025 0.020 0.999 107 164 167
-48.8856 95.1520 3.4315 0.066 -0.043 0.997 98 154 157
-48.4446 95.7367 3.3976 0.823 -0.365 0.436 88 135 141
-47.9879 95.4997 3.4307 0.401 -0.905 -0.144 75 122 128
-47.6687 95.6935 3.4248 0.408 -0.873 0.269 104 151 154
-47.5370 95.6785 3.4300 0.422 -0.906 -0.041 105 147 147
-47.1754 95.3283 3.4694 0.355 -0.935 0.010 103 132 120
-35.6233 92.3082 4.0670 0.888 -0.444 -0.122 91 98 47
-23.4679 97.6387 4.0062 0.518 -0.007 0.855 9 9 2
-23.3752 96.2548 4.1212 0.234 0.047 0.971 15 16 5
-22.4149 91.9647 4.4983 0.078 -0.954 0.290 17 19 14
-22.2948 91.9812 4.5006 0.067 -0.952 0.297 19 22 11
-7.8239 100.5873 4.2450 0.620 -0.192 0.760 103 112 59
-50.5975 96.0457 3.1828 0.041 -0.060 0.997 102 159 169
-47.9910 93.5467 3.4693 -0.133 -0.876 -0.464 74 132 134
-47.9628 95.3931 3.3173 0.651 -0.757 0.062 69 114 120
-47.3607 95.4915 3.3276 0.432 -0.869 0.242 107 140 133
-47.1666 95.6851 3.3175 -0.648 -0.518 0.559 98 125 107
-36.6047 96.2406 3.5943 0.456 -0.871 -0.183 105 114 61
-27.8268 79.7489 5.2276 -0.300 -0.847 -0.440 11 12 3
-27.7251 79.6663 5.2376 0.069 -0.927 -0.368 11 12 3
-27.6215 79.5336 5.2517 0.221 -0.866 -0.449 11 12 3
-23.7680 95.4618 4.0511 0.984 -0.176 0.038 14 12 10
-22.6254 92.5520 4.3268 -0.461 -0.849 -0.257 18 19 23
-22.4026 92.1255 4.3689 -0.473 -0.880 -0.042 14 17 9
-22.2858 92.0624 4.3777 -0.473 -0.880 -0.042 23 28 12
-17.4444 50.7432 7.9459 0.230 -0.031 0.973 112 121 64
-58.9983 102.7771 2.2329 0.550 -0.802 -0.233 110 149 152
-49.3114 94.1327 3.2596 -0.654 -0.262 0.710 79 139 149
-47.1226 95.5141 3.2098 -0.648 -0.518 0.559 98 125 106
-35.5877 92.0476 3.8555 0.850 -0.389 -0.356 97 104 48
-31.6259 76.2755 5.3093 -0.173 -0.706 0.686 28 30 19
-27.9645 80.6191 5.0543 0.416 -0.453 0.788 15 18 2
-27.7484 80.2379 5.0931 0.859 -0.208 0.468 15 18 2
-23.1971 97.6898 3.7577 0.986 -0.168 0.014 16 14 17
-8.7963 97.9120 4.1793 0.526 -0.253 0.812 105 114 61
-59.3620 102.9356 2.0721 0.699 -0.707 -0.106 108 148 152
-59.1910 102.8648 2.0834 0.714 -0.691 -0.116 109 149 156
-59.0509 102.8654 2.0877 0.548 -0.792 -0.269 108 150 157
-55.4617 101.9295 2.2782 0.187 -0.353 0.917 111 169 180
-55.3454 101.9872 2.2768 0.187 -0.353 0.917 111 169 180
-48.3838 95.4653 3.0521 0.696 -0.325 0.640 77 130 133
-47.2160 96.2101 3.0237 -0.509 -0.663 0.549 98 122 97
-35.6840 91.8787 3.7500 0.773 -0.493 -0.400 99 107 51
-30.9563 80.6154 4.8658 -0.012 -0.149 0.989 37 42 20
-30.8028 80.0713 4.9174 -0.275 -0.107 0.956 37 42 20
-27.8558 80.4594 4.9741 0.779 -0.584 0.230 32 35 17
-27.5739 80.8657 4.9477 0.896 -0.267 0.355 32 34 19
-24.7568 96.5196 3.6843 0.678 -0.483 -0.554 13 15 3
-24.3781 96.1763 3.7255 0.566 -0.800 -0.200 11 13 2
-76.4845 114.4873 0.3954 -0.006 -0.814 -0.582 112 168 169
-61.6789 107.9078 1.4274 -0.632 -0.442 0.636 106 149 152
-59.1127 102.9752 1.9398 0.559 -0.784 -0.269 113 158 168
-55.1315 101.4010 2.2001 0.077 -0.026 0.997 109 167 178
-47.5015 95.0501 2.9923 -0.599 -0.557 0.576 110 151 157
-47.2552 96.3113 2.8889 -0.418 -0.660 0.624 101 125 100
-27.8462 80.2854 4.8926 0.789 -0.559 0.256 57 60 37
-23.5132 95.0044 3.7309 0.780 -0.582 -0.231 21 21 11
-23.2443 95.6660 3.6810 0.659 -0.677 -0.328 16 15 7
-22.5284 97.9431 3.5027 -0.496 0.035 0.868 9 9 8
-22.5161 94.9334 3.7677 -0.817 -0.076 0.572 8 9 5
-8.7994 97.7785 3.9376 0.022 -0.416 0.909 102 108 61
-65.1796 112.3015 0.7809 -0.079 -0.981 -0.177 108 149 153
-60.2965 106.7259 1.4305 0.289 -0.782 0.553 120 168 178
-55.3018 101.0995 2.0880 0.208 -0.170 0.963 98 156 167
-48.2854 95.4977 2.8054 -0.494 -0.727 0.476 69 129 130
-47.2656 95.8989 2.8006 -0.359 -0.816 0.453 102 132 105
-47.1298 95.8723 2.8072 -0.471 -0.834 0.287 102 126 100
-35.7155 92.0570 3.4991 0.773 -0.492 -0.400 107 115 56
-23.4912 95.6829 3.5486 0.791 -0.532 -0.302 46 48 25
-22.7790 98.0654 3.3568 -0.513 0.032 0.858 35 38 15
-22.6851 97.0412 3.4515 -0.513 0.032 0.858 35 39 15
-22.5357 94.2930 3.7025 -0.808 -0.074 0.585 41 44 23
-9.2893 96.6704 3.8952 0.181 -0.323 0.929 105 111 65
-8.9859 97.4613 3.8336 0.140 -0.417 0.898 101 107 62
-8.8201 97.6264 3.8239 0.012 -0.618 0.786 97 103 59
-8.6846 97.6547 3.8255 -0.073 -0.503 0.861 86 92 48
-66.9952 114.8398 0.3401 0.274 -0.020 0.962 104 150 156
-65.5741 112.0928 0.6348 -0.489 -0.870 0.063 104 150 157
-65.4179 112.0948 0.6394 -0.411 -0.897 -0.164 105 149 156
-65.0965 112.0791 0.6507 -0.252 -0.949 -0.190 106 151 157
-59.9281 103.1620 1.6241 0.335 -0.942 -0.021 122 171 178
-59.7708 103.1251 1.6323 0.336 -0.941 -0.030 122 172 179
-59.6491 103.1695 1.6320 0.345 -0.938 -0.042 123 172 180
-55.1549 100.3427 2.0282 0.108 -0.061 0.992 91 149 160
-48.7045 95.9757 2.6251 -0.021 -0.924 -0.382 78 137 141
-48.3689 95.7284 2.6580 -0.512 -0.693 0.508 69 129 129
-48.2064 95.6193 2.6730 -0.512 -0.693 0.508 69 123 127
-47.2418 95.3804 2.7244 -0.592 -0.780 0.204 103 135 117
-47.2472 95.8117 2.6848 -0.388 -0.810 0.440 102 131 107
-47.1250 95.8292 2.6869 -0.444 -0.849 0.285 101 127 100
-35.7178 92.0582 3.3814 0.818 -0.473 -0.327 107 115 58
-22.8372 96.1922 3.3986 -0.521 0.032 0.853 66 71 33
-22.7476 95.1411 3.4974 -0.550 0.033 0.835 69 74 36
-22.5493 93.8066 3.6254 -0.808 -0.075 0.584 77 82 44
-9.1991 97.0195 3.7412 0.098 -0.436 0.894 105 111 67
-8.7039 97.5099 3.7115 -0.053 -0.604 0.795 85 91 47
-66.2688 112.1953 0.4510 0.414 -0.065 0.908 107 147 151
-65.5914 112.0914 0.4814 -0.489 -0.870 0.063 104 152 163
-64.8050 111.0540 0.6022 -0.558 -0.794 -0.240 109 156 166
-59.7860 103.1253 1.4946 0.345 -0.938 -0.042 117 170 181
-59.6644 103.1700 1.4941 0.345 -0.938 -0.042 118 170 182
-60.9565 106.4766 1.1466 0.043 -0.995 0.094 117 170 181
-55.9014 100.8175 1.8287 -0.366 -0.317 0.875 95 153 164
-55.7993 100.9050 1.8237 -0.323 -0.607 0.726 96 154 165
-47.3484 94.4803 2.6813 -0.781 -0.517 0.350 111 152 156
-47.2402 95.3477 2.6038 -0.592 -0.780 0.204 104 136 115
-47.2468 95.7829 2.5631 -0.325 -0.886 0.331 103 131 107
-47.1329 95.8279 2.5624 -0.514 -0.790 0.335 101 127 100
-35.1601 93.1999 3.1746 0.927 -0.375 -0.028 97 105 48
-24.9995 95.4514 3.2767 0.968 -0.137 0.210 87 94 43
-24.1107 95.8393 3.2678 0.979 -0.134 0.155 87 92 51
-22.8893 94.5049 3.4296 -0.521 0.032 0.853 90 95 53
-9.3545 96.2570 3.6817 0.606 -0.657 0.448 105 111 67
-8.7110 97.4187 3.5933 -0.165 -0.601 0.782 88 94 50
-67.4869 113.0628 0.1780 -0.689 -0.680 -0.250 110 149 157
-59.8378 103.2091 1.3476 0.565 -0.821 -0.082 109 165 179
-59.7485 103.3287 1.3390 0.560 -0.825 -0.074 108 165 178
-60.9661 106.4627 1.0043 0.043 -0.995 0.094 107 165 177
-59.8525 104.2250 1.2508 0.722 -0.640 -0.263 106 165 174
-47.2385 95.3149 2.4833 -0.592 -0.780 0.204 108 140 117
-47.1120 95.7321 2.4476 -0.504 -0.806 0.310 104 130 103
-26.7731 85.5025 4.0425 0.803 -0.492 0.336 96 103 51
-25.4921 92.8253 3.3872 0.969 -0.247 -0.027 95 102 50
-25.3715 93.5814 3.3192 0.968 -0.249 -0.035 94 101 49
-25.1238 94.4293 3.2464 0.964 -0.137 0.228 94 101 49
-23.0202 94.1377 3.3386 -0.616 0.011 0.788 93 98 55
-21.9996 92.2174 3.5521 -0.762 -0.618 0.194 108 112 60
-9.3628 96.1604 3.5662 0.581 -0.709 0.400 104 110 66
-8.8598 97.2708 3.4763 -0.012 -0.714 0.700 97 103 59
-8.7311 97.2706 3.4802 -0.225 -0.777 0.588 85 91 47
-8.6108 97.2342 3.4874 -0.343 -0.685 0.643 83 89 45
-12.5751 58.6474 7.0259 0.325 -0.082 0.942 108 117 64
-68.3266 113.4438 -0.0396 -0.333 -0.943 0.011 107 150 150
-68.0911 113.2865 -0.0172 -0.356 -0.933 -0.056 107 150 150
-68.0344 113.5015 -0.0362 -0.655 -0.754 0.041 106 150 157
-67.3877 112.8141 0.0501 -0.655 -0.717 -0.239 107 150 159
-68.1287 115.0592 -0.1895 -0.492 -0.307 0.815 110 152 162
-67.7911 114.6870 -0.1432 -0.367 -0.321 0.873 120 163 173
-67.2034 113.7773 -0.0373 -0.592 -0.362 0.720 121 164 173
-66.9084 113.4889 -0.0004 -0.611 -0.353 0.709 119 163 172
-66.2608 112.4386 0.1210 0.241 -0.040 0.970 115 164 173
-66.2521 112.7616 0.0901 0.146 -0.023 0.989 116 168 180
-59.8305 103.1577 1.2150 0.556 -0.825 -0.102 98 157 173
-59.7214 103.2318 1.2112 0.556 -0.825 -0.102 99 158 173
-59.7440 103.9389 1.1422 0.498 -0.770 -0.398 98 161 170
-47.1064 95.2706 2.3679 -0.059 -0.966 0.251 108 136 113
-47.0601 95.5346 2.3438 -0.511 -0.805 0.301 105 131 105
-32.3167 82.7640 4.0304 0.549 -0.812 -0.200 101 108 54
-32.0249 87.8711 3.5460 -0.487 -0.769 -0.413 100 107 55
-23.0528 92.9748 3.3287 -0.616 0.011 0.788 95 101 53
-22.8454 91.9723 3.4319 0.464 -0.830 0.309 99 106 55
-22.7159 92.2235 3.4116 0.307 -0.952 -0.012 101 107 57
-22.5673 92.9376 3.3472 0.209 -0.937 -0.279 101 108 57
-22.4477 92.8874 3.3558 -0.469 -0.801 0.372 105 112 61
-9.3602 96.1132 3.4463 0.575 -0.721 0.386 102 108 64
-8.5136 97.0385 3.3830 -0.195 -0.941 0.278 51 56 15
-69.2738 114.6940 -0.3475 -0.068 -0.837 -0.544 105 156 161
-67.7260 114.1646 -0.2478 -0.479 -0.291 0.828 117 167 178
-67.4462 113.9124 -0.2144 -0.388 -0.263 0.883 117 167 178
-66.8899 113.0677 -0.1143 -0.595 -0.370 0.713 118 168 179
-66.5986 112.7844 -0.0775 -0.598 -0.360 0.716 118 169 178
-59.7749 102.9961 1.0948 0.546 -0.765 -0.340 91 153 167
-49.0395 92.7631 2.4311 0.621 -0.726 0.295 88 148 156
-49.0067 93.0234 2.4065 -0.460 -0.837 0.296 89 148 156
-48.8583 92.9494 2.4184 -0.461 -0.832 0.308 88 148 156
-48.7452 92.9779 2.4191 -0.476 -0.815 0.330 87 146 154
-48.6757 93.1355 2.4057 0.430 -0.640 0.637 87 146 153
-48.4593 94.3450 2.2934 0.876 -0.460 -0.145 90 149 157
-48.0992 93.6304 2.3748 -0.083 -0.892 0.445 89 149 155
-48.2623 94.5090 2.2834 -0.210 -0.814 0.542 85 146 148
-47.0628 95.1016 2.2620 0.091 -0.990 0.107 108 136 113
-46.9536 95.1586 2.2597 -0.464 -0.870 0.166 106 132 106
-32.5203 90.3297 3.1783 -0.237 -0.865 0.442 103 110 58
-32.3970 91.3858 3.0783 -0.329 -0.844 -0.423 102 109 57
-26.5529 91.4028 3.2563 0.676 -0.714 0.183 102 106 55
-26.4233 90.7919 3.3204 0.710 -0.671 0.211 102 106 55
-26.3058 90.8296 3.3203 0.565 -0.801 -0.200 104 108 57
-23.3933 93.7023 3.1274 -0.690 -0.050 0.722 99 106 54
-9.3542 96.0816 3.3251 0.591 -0.718 0.367 102 108 64
-8.5064 97.0108 3.2598 -0.131 -0.941 0.311 57 62 20
-8.1491 96.8934 3.2823 -0.023 -0.992 -0.124 119 126 82
-8.0498 96.7717 3.2973 0.098 -0.788 -0.607 205 212 170
-7.9185 96.7860 3.3000 0.098 -0.788 -0.607 111 117 79
-7.7835 96.8152 3.3013 0.101 -0.784 -0.613 59 65 31
-69.9654 113.7616 -0.4337 0.605 -0.786 -0.131 107 152 150
-68.3913 114.1660 -0.4257 -0.414 -0.718 0.560 105 163 169
-68.0789 113.8498 -0.3844 -0.769 -0.640 0.018 106 164 173
-67.6011 113.1830 -0.3030 -0.762 -0.648 0.006 109 167 175
-67.6695 113.6645 -0.3533 -0.424 -0.217 0.879 113 171 179
-67.2430 113.1007 -0.2838 -0.427 -0.208 0.880 115 173 181
-67.0492 113.0277 -0.2705 -0.366 -0.198 0.909 113 171 179
-66.2675 112.0351 -0.1471 -0.566 -0.311 0.763 113 171 179
-49.8353 92.9038 2.2729 0.781 -0.535 -0.323 91 149 158
-49.7827 93.1018 2.2547 0.741 -0.580 -0.340 91 147 159
-49.7094 93.2429 2.2428 0.745 -0.575 -0.338 92 148 159
-49.0754 93.1948 2.2671 0.264 -0.923 0.278 91 146 158
-48.8886 93.0101 2.2914 -0.476 -0.815 0.330 91 146 158
-48.7372 92.9268 2.3044 -0.476 -0.815 0.330 90 145 156
-48.6929 93.1585 2.2825 0.617 -0.723 0.311 89 144 154
-48.1582 93.7824 2.2366 -0.385 -0.818 0.426 96 151 158
-48.2722 94.5116 2.1601 -0.236 -0.815 0.529 96 152 155
-47.0427 95.0087 2.1482 0.133 -0.989 0.070 108 136 114
-9.5125 95.8793 3.2159 0.566 -0.592 0.574 104 112 63
-9.3494 96.0446 3.2043 0.580 -0.736 0.349 102 108 64
-8.5023 96.9698 3.1378 -0.131 -0.941 0.311 63 69 25
-8.3841 96.9262 3.1458 -0.140 -0.909 0.393 181 187 142
-8.2573 96.9200 3.1503 -0.053 -0.977 0.206 142 148 102
-8.1349 96.8950 3.1566 0.162 -0.976 0.142 130 137 93
-7.6379 96.8301 3.1784 0.015 -0.982 0.190 67 72 41
-6.9152 99.2597 2.9575 0.106 -0.807 -0.581 64 68 42
-70.0246 113.8394 -0.6002 0.593 -0.793 -0.136 108 156 157
-69.6114 114.6386 -0.6688 0.057 -0.933 -0.354 105 163 174
-68.3949 113.7974 -0.5457 0.745 -0.581 0.327 108 167 176
-68.3046 113.9446 -0.5579 -0.405 -0.710 0.577 109 170 175
-67.9407 113.5199 -0.5035 -0.719 -0.490 0.494 112 172 180
-66.5861 112.0033 -0.3074 -0.366 -0.198 0.909 100 160 168
-66.1079 111.3189 -0.2230 -0.367 -0.188 0.911 102 162 170
-65.1309 110.5565 -0.1153 -0.277 -0.884 -0.378 80 144 153
-49.8596 92.9438 2.1480 0.781 -0.535 -0.323 98 150 161
-49.7800 93.0660 2.1380 0.781 -0.535 -0.323 101 151 164
-49.7275 93.2660 2.1193 0.760 -0.554 -0.341 101 151 166
-49.1867 93.4896 2.1131 -0.525 -0.680 0.512 105 155 171
-48.9025 93.0228 2.1694 -0.475 -0.811 0.341 106 155 170
-48.6639 93.0453 2.1745 0.581 -0.758 0.296 113 160 175
-48.6141 93.2625 2.1539 0.661 -0.736 -0.148 113 160 175
-48.2554 94.4326 2.0458 -0.236 -0.815 0.529 110 157 161
-47.1386 94.8825 2.0344 0.176 -0.983 -0.060 109 140 122
-47.0425 94.9810 2.0273 0.157 -0.986 -0.063 109 136 115
-9.5223 95.7759 3.1017 0.550 -0.585 0.596 104 112 63
-9.3262 96.0899 3.0758 0.557 -0.741 0.375 102 110 65
-8.5003 96.9194 3.0167 -0.037 -0.937 0.348 70 77 32
-8.3846 96.8653 3.0258 -0.083 -0.938 0.338 193 199 153
-8.2528 96.8805 3.0283 -0.018 -0.931 0.365 150 156 110
-8.1235 96.8851 3.0318 0.074 -0.981 0.181 145 153 106
-7.9893 96.9097 3.0335 0.036 -0.987 0.159 220 227 183
-7.8726 96.8614 3.0420 -0.017 -0.946 0.322 101 108 66
-7.7462 96.8541 3.0466 -0.044 -0.934 0.355 51 57 21
-10.7514 60.8643 6.6181 0.297 -0.082 0.951 105 115 65
-69.6580 114.6925 -0.8343 0.111 -0.847 -0.519 113 170 179
-69.5355 114.7744 -0.8390 0.107 -0.849 -0.518 112 169 178
-69.4060 114.8427 -0.8421 0.099 -0.852 -0.514 113 170 179
-69.0463 114.4367 -0.7890 -0.589 -0.686 0.427 113 170 179
-68.7751 114.2110 -0.7573 -0.546 -0.660 0.516 114 171 180
-68.2810 113.8549 -0.7052 -0.404 -0.714 0.572 110 170 175
-67.3585 112.5932 -0.5461 -0.664 -0.436 0.608 104 164 172
-67.2030 112.6001 -0.5420 -0.747 -0.435 0.503 100 160 168
-65.8302 110.6874 -0.3017 -0.566 -0.346 0.748 87 147 155
-49.8044 93.1063 2.0126 0.781 -0.535 -0.323 114 161 176
-49.7676 93.3509 1.9884 0.773 -0.549 -0.317 114 158 177
-50.1043 94.6585 1.8426 0.457 -0.706 -0.541 115 159 178
-50.1163 95.0529 1.8014 0.523 -0.718 -0.459 113 159 177
-50.1724 95.5778 1.7453 0.624 -0.661 -0.416 111 157 175
