ply
format ascii 1.0
element vertex 881
property float x
property float y
property float z
property float nx
property float ny
property float nz
property uchar diffuse_red
property uchar diffuse_green
property uchar diffuse_blue
end_header
38.2808 69.0400 -8.9070 -0.965 -0.256 0.060 71 93 67
38.4804 68.6972 -8.9879 -0.673 -0.571 0.471 88 99 55
38.5622 68.7069 -9.0391 -0.200 -0.977 0.077 81 93 47
39.8680 69.8293 -9.9724 -0.812 0.112 0.573 87 97 47
37.7676 69.2320 -8.7268 -0.932 -0.296 0.208 51 60 35
37.8268 69.0452 -8.7403 -0.934 -0.299 0.196 47 59 35
37.8872 68.8717 -8.7561 -0.922 -0.324 0.211 76 91 65
38.2995 68.9688 -9.0206 -0.955 -0.281 0.091 81 100 62
38.8049 69.1199 -9.3487 -0.140 -0.971 -0.194 72 84 38
39.8111 69.8104 -10.0493 -0.812 0.112 0.573 88 98 47
39.8315 69.3758 -10.0088 -0.887 0.069 0.456 81 92 38
37.7232 69.3161 -8.8208 -0.934 -0.299 0.196 51 61 36
37.7821 69.1239 -8.8332 -0.934 -0.299 0.196 46 58 34
37.8408 68.9328 -8.8455 -0.934 -0.299 0.196 77 90 66
38.7475 69.0896 -9.4215 -0.146 -0.949 -0.278 72 84 38
39.0490 69.5130 -9.6589 -0.649 -0.678 -0.346 85 96 54
39.7760 68.7969 -10.0167 -0.878 0.081 0.473 121 131 79
37.7961 69.0113 -8.9386 -0.934 -0.299 0.196 78 91 67
37.9549 68.9983 -9.0346 -0.461 -0.840 -0.287 70 93 65
38.2680 68.9241 -9.2178 -0.953 -0.288 0.092 97 108 67
38.3440 68.8854 -9.2597 -0.480 -0.721 -0.499 89 102 55
38.7062 69.1856 -9.5201 -0.145 -0.912 -0.384 71 83 37
39.0152 69.6659 -9.7704 -0.678 -0.685 -0.267 85 96 53
39.7156 69.3185 -10.1575 -0.795 0.099 0.599 82 92 39
37.8710 68.7304 -9.0599 -0.520 -0.852 -0.065 68 91 63
38.2295 69.0499 -9.3215 -0.953 -0.290 0.092 91 104 59
38.6659 69.2915 -9.6211 -0.236 -0.905 -0.355 68 80 32
38.9784 69.7991 -9.8783 -0.675 -0.685 -0.274 85 97 51
39.6642 69.3356 -10.2418 -0.786 0.104 0.610 82 93 38
37.7414 68.7613 -9.0946 -0.917 -0.192 0.349 63 85 57
37.8218 68.7669 -9.1450 -0.520 -0.852 -0.065 68 91 63
38.2722 69.1790 -9.4763 -0.477 -0.720 -0.504 86 100 50
38.3510 69.1590 -9.5223 -0.477 -0.720 -0.504 88 100 54
38.4287 69.1293 -9.5665 -0.476 -0.722 -0.502 69 81 35
38.6173 69.3335 -9.7092 -0.236 -0.900 -0.366 67 79 33
38.9242 69.8002 -9.9590 -0.669 -0.678 -0.305 84 95 52
37.5889 69.3229 -9.1849 -0.898 0.051 0.436 36 46 22
37.7729 68.8073 -9.2311 -0.517 -0.853 -0.076 68 91 63
37.8402 68.6945 -9.2579 -0.701 -0.678 -0.223 68 92 65
38.2222 69.2106 -9.5618 -0.584 -0.811 -0.040 86 100 53
38.3022 69.2004 -9.6100 -0.290 -0.913 -0.287 87 99 55
38.3825 69.1912 -9.6584 -0.285 -0.921 -0.265 70 81 38
38.4544 69.1131 -9.6926 -0.290 -0.882 -0.373 61 73 27
38.7281 69.3382 -9.8913 0.127 -0.992 -0.016 77 88 45
38.8770 69.8558 -10.0513 -0.575 -0.755 -0.314 84 95 52
39.4441 69.1306 -10.3068 -0.872 -0.408 0.271 83 93 43
39.5076 68.9921 -10.3279 -0.350 -0.885 -0.307 84 94 40
39.5921 69.0022 -10.3815 -0.382 -0.893 -0.239 104 115 59
39.6830 69.0549 -10.4447 -0.276 -0.918 -0.286 123 134 78
37.5462 69.4292 -9.2846 -0.893 0.065 0.445 37 46 20
37.7245 68.8533 -9.3185 -0.512 -0.856 -0.074 69 92 66
38.2508 69.2204 -9.6933 -0.401 -0.875 0.272 87 98 54
38.3253 69.1630 -9.7318 -0.390 -0.891 0.232 70 82 36
38.4030 69.1327 -9.7760 -0.279 -0.906 -0.318 60 72 26
38.4918 69.1912 -9.8388 -0.345 -0.678 0.649 67 79 32
38.5724 69.1823 -9.8875 0.159 -0.986 -0.037 73 85 39
38.8480 70.0552 -10.1743 -0.438 -0.868 -0.233 84 96 51
38.9508 70.2053 -10.2580 -0.341 -0.922 -0.185 84 95 52
39.3962 69.1733 -10.3966 -0.872 -0.408 0.271 84 93 46
39.4535 68.9894 -10.4077 -0.360 -0.906 -0.223 83 93 41
39.5417 69.0250 -10.4670 -0.375 -0.899 -0.224 103 113 61
39.6011 68.8590 -10.4817 -0.875 -0.422 0.236 123 134 78
27.0840 73.4160 -3.4419 0.110 -0.963 -0.244 50 65 25
27.5085 73.3262 -3.6932 0.063 -0.944 -0.323 68 86 32
27.5714 73.4332 -3.7467 0.059 -0.950 -0.307 73 89 43
37.5011 69.5155 -9.3807 -0.897 0.062 0.437 39 48 18
37.6735 68.8772 -9.4016 -0.553 -0.827 -0.104 66 86 61
37.8168 68.7246 -9.4699 -0.261 -0.763 -0.592 64 88 64
38.1982 69.2322 -9.7751 -0.181 -0.829 0.528 83 95 48
38.2718 69.1664 -9.8119 -0.182 -0.837 0.517 75 87 39
38.3587 69.2119 -9.8720 -0.160 -0.652 0.741 61 73 25
38.4329 69.1508 -9.9098 -0.160 -0.652 0.741 65 77 28
38.5029 69.0563 -9.9405 -0.168 -0.625 0.762 70 82 33
38.7994 70.1042 -10.2659 -0.438 -0.868 -0.233 83 95 47
38.9006 70.2418 -10.3473 -0.341 -0.922 -0.185 84 96 48
39.3542 69.2591 -10.4962 -0.868 -0.410 0.282 86 95 50
39.4906 69.0441 -10.5519 -0.342 -0.908 -0.242 97 107 56
39.5530 68.8977 -10.5708 -0.875 -0.425 0.233 121 131 77
27.0259 73.4280 -3.5156 0.110 -0.963 -0.244 59 74 33
27.2618 73.0490 -3.6105 0.080 -0.933 -0.351 124 143 88
27.3272 73.1057 -3.6589 0.001 -0.940 -0.341 126 146 86
27.3945 73.1376 -3.7051 0.014 -0.942 -0.335 65 86 23
27.4547 73.2757 -3.7614 0.068 -0.944 -0.323 73 92 38
37.6262 68.9356 -9.4920 -0.731 -0.650 -0.208 66 86 61
37.6953 68.8347 -9.5211 -0.730 -0.650 -0.214 64 87 65
38.1470 69.2565 -9.8597 -0.327 -0.820 0.470 81 93 45
38.2210 69.1930 -9.8970 -0.311 -0.825 0.471 78 90 40
38.3109 69.2635 -9.9625 0.105 -0.943 0.316 62 74 22
38.3801 69.1600 -9.9914 -0.390 -0.597 0.701 65 78 25
38.4490 69.0555 -10.0199 -0.348 -0.700 0.624 69 82 29
38.7489 70.1388 -10.3546 -0.457 -0.860 -0.229 83 95 44
38.8286 70.1085 -10.4000 -0.457 -0.860 -0.229 82 95 44
39.3279 69.4603 -10.6218 -0.951 -0.260 0.166 88 97 54
39.4408 69.0726 -10.6389 -0.949 -0.265 0.169 91 101 52
39.4956 68.8720 -10.6456 -0.949 -0.265 0.169 119 129 76
27.2021 73.0873 -3.6866 0.072 -0.933 -0.352 126 145 91
27.2669 73.1516 -3.7359 -0.237 -0.944 -0.228 124 144 84
27.3361 73.1563 -3.7796 -0.253 -0.938 -0.237 64 83 22
27.4886 72.9646 -3.8481 0.078 -0.944 -0.319 69 86 41
37.6006 69.1976 -9.6244 -0.438 -0.756 -0.487 67 86 61
38.0966 69.2883 -9.9460 -0.450 -0.780 0.435 81 92 47
38.1786 69.2923 -9.9976 -0.605 -0.796 0.018 78 90 40
38.3299 69.1913 -10.0778 -0.410 -0.783 0.468 65 78 25
38.4044 69.1317 -10.1159 -0.400 -0.790 0.464 68 80 31
38.7407 69.8477 -10.4248 -0.272 -0.869 -0.414 85 95 43
27.1426 73.1200 -3.7623 -0.088 -0.936 -0.342 126 144 90
27.2074 73.1844 -3.8118 -0.244 -0.943 -0.227 125 145 85
27.2765 73.1916 -3.8559 -0.253 -0.938 -0.237 68 86 27
27.4349 72.9171 -3.9162 -0.729 -0.606 -0.319 69 87 40
37.3823 69.1645 -9.5963 -0.897 0.058 0.439 54 68 40
37.6944 69.0754 -9.7786 -0.264 -0.760 -0.595 63 87 66
37.9758 69.4179 -10.0023 -0.720 -0.694 -0.010 90 100 66
38.0487 69.3428 -10.0373 -0.720 -0.694 -0.010 81 92 47
38.1321 69.3581 -10.0914 -0.450 -0.867 -0.216 78 90 41
38.2791 69.2196 -10.1637 -0.549 -0.836 -0.026 65 78 25
38.3551 69.1710 -10.2043 -0.549 -0.836 -0.026 69 81 33
38.4307 69.1200 -10.2443 -0.506 -0.854 -0.122 72 84 37
38.5812 69.6729 -10.4159 -0.211 -0.856 -0.472 83 95 44
39.3837 69.4392 -10.8839 -0.873 0.110 0.475 91 101 52
27.0840 73.1406 -3.8370 -0.084 -0.939 -0.334 125 146 90
27.1511 73.1723 -3.8835 -0.338 -0.878 -0.339 127 148 89
27.2199 73.1829 -3.9280 -0.344 -0.877 -0.335 68 88 29
27.3755 72.9529 -3.9925 -0.759 -0.582 -0.291 68 85 37
37.3384 69.2637 -9.6957 -0.883 0.051 0.467 44 59 30
37.9210 69.4134 -10.0812 -0.796 -0.554 -0.243 87 97 62
37.9924 69.3249 -10.1133 -0.796 -0.554 -0.243 82 93 48
38.2164 69.1471 -10.2280 -0.876 -0.461 0.139 62 75 22
38.2953 69.1242 -10.2741 -0.555 -0.821 -0.135 65 77 28
38.3775 69.1276 -10.3260 -0.567 -0.817 -0.105 71 83 35
39.3380 69.5023 -10.9798 -0.860 0.130 0.493 86 96 47
27.0228 73.1930 -3.9149 0.125 -0.963 -0.240 120 141 85
27.0884 73.2459 -3.9636 0.081 -0.941 -0.329 120 141 83
27.1587 73.2368 -4.0064 -0.344 -0.877 -0.335 75 95 37
27.2176 73.3871 -4.0649 -0.682 -0.628 -0.374 73 92 37
27.3169 72.9743 -4.0676 -0.734 -0.605 -0.309 71 91 40
37.2924 69.3444 -9.7916 -0.883 0.051 0.467 40 54 26
37.4796 69.5932 -9.9448 -0.549 -0.773 -0.317 69 90 65
37.8033 69.5782 -10.1454 -0.559 -0.378 0.738 75 88 60
37.8727 69.4685 -10.1730 -0.797 -0.555 -0.240 85 94 60
37.9442 69.3795 -10.2050 -0.797 -0.555 -0.240 82 94 49
38.1657 69.1768 -10.3144 -0.919 -0.393 0.036 61 74 21
38.2295 69.0259 -10.3326 -0.919 -0.393 0.036 63 75 25
39.2851 69.5139 -11.0642 -0.880 0.107 0.463 80 90 40
26.9637 73.2166 -3.9902 0.400 -0.890 -0.220 118 139 82
27.0258 73.3152 -4.0436 0.208 -0.940 -0.269 115 136 80
27.0905 73.3822 -4.0940 0.098 -0.930 -0.353 78 97 42
27.2493 73.1199 -4.1553 -0.730 -0.610 -0.307 72 93 37
27.5355 98.6084 -8.0622 -0.970 -0.242 -0.024 79 96 52
37.2614 69.5763 -9.9195 -0.911 0.012 0.413 40 53 25
37.4934 69.4726 -10.0499 -0.537 -0.830 0.152 66 87 66
37.7434 69.5302 -10.2152 -0.559 -0.378 0.738 77 89 61
37.8229 69.5111 -10.2623 -0.628 -0.768 -0.129 87 94 60
37.8984 69.4559 -10.3016 -0.628 -0.768 -0.129 83 94 50
38.0632 69.4665 -10.4066 -0.386 -0.918 0.092 67 80 27
38.1249 69.2924 -10.4199 -0.912 -0.406 0.054 61 74 20
38.1918 69.1653 -10.4433 -0.916 -0.400 0.045 62 74 24
38.2676 69.1146 -10.4834 -0.927 -0.369 0.061 70 82 34
26.9037 73.2503 -4.0666 0.384 -0.897 -0.219 117 138 81
26.9676 73.3236 -4.1177 0.208 -0.940 -0.269 109 130 74
27.0299 73.4232 -4.1716 0.098 -0.932 -0.350 78 98 44
27.1800 73.2835 -4.2453 -0.634 -0.697 -0.335 72 93 36
37.3791 69.6793 -10.1229 -0.401 -0.864 0.305 70 89 63
37.4405 69.4889 -10.1333 -0.563 -0.774 0.289 65 87 64
37.6936 69.5743 -10.3050 -0.573 -0.408 0.711 76 90 59
37.7792 69.6103 -10.3641 -0.561 -0.828 0.003 85 94 59
37.8598 69.5998 -10.4133 -0.484 -0.871 0.086 82 94 51
37.9364 69.5520 -10.4543 0.384 -0.920 0.072 73 87 38
38.0209 69.5741 -10.5108 0.381 -0.922 0.065 68 80 29
38.0770 69.3481 -10.5125 -0.803 -0.362 0.473 63 73 24
38.1411 69.1957 -10.5302 -0.785 -0.251 0.566 64 74 27
39.1956 69.0423 -11.1704 -0.917 0.102 0.386 119 129 77
26.8484 73.2222 -4.1370 0.384 -0.897 -0.218 115 136 79
26.9673 73.4880 -4.2517 0.112 -0.930 -0.349 79 99 47
27.1100 73.4525 -4.3363 -0.637 -0.699 -0.324 72 93 36
27.6514 99.2298 -8.5451 -0.990 -0.093 0.107 52 64 39
37.3237 69.6740 -10.2019 -0.420 -0.861 0.286 65 85 58
37.3867 69.4975 -10.2151 -0.563 -0.774 0.289 62 86 62
37.6423 69.6064 -10.3923 -0.576 -0.397 0.715 69 86 55
37.7303 69.6650 -10.4566 -0.596 -0.802 -0.046 83 95 60
37.8073 69.6206 -10.4984 -0.484 -0.871 0.086 82 96 57
37.8890 69.6178 -10.5494 0.285 -0.919 0.272 74 87 44
37.9629 69.5449 -10.5850 0.381 -0.922 0.065 70 81 36
38.0209 69.3350 -10.5901 -0.804 -0.372 0.463 63 71 28
39.1569 69.1575 -11.2789 -0.905 0.100 0.414 112 122 69
26.5792 73.2698 -4.0838 -0.752 -0.444 0.486 70 86 45
26.7919 73.2106 -4.2090 0.346 -0.903 -0.254 113 134 77
26.8542 73.3012 -4.2621 0.212 -0.941 -0.265 110 130 76
26.9051 73.5446 -4.3312 0.114 -0.932 -0.344 79 99 46
26.9542 73.8205 -4.4041 -0.506 -0.799 -0.324 71 92 37
27.3541 101.5602 -8.8718 -0.990 -0.105 0.098 69 82 50
27.6778 99.1119 -8.7040 -0.986 -0.145 -0.079 4 15 0
37.3306 69.4840 -10.2922 -0.574 -0.769 0.281 59 86 60
37.5119 69.6640 -10.4339 0.520 -0.850 0.081 57 83 54
37.5753 69.4928 -10.4479 -0.679 -0.712 0.179 63 84 50
37.6839 69.7434 -10.5545 -0.649 -0.754 -0.099 81 98 61
37.7584 69.6744 -10.5910 -0.495 -0.864 0.089 82 98 61
37.8374 69.6469 -10.6367 -0.321 -0.946 0.054 74 89 49
37.9021 69.4921 -10.6540 0.298 -0.927 0.227 71 82 41
37.9675 69.3456 -10.6730 -0.813 -0.335 0.476 60 68 29
38.0334 69.2057 -10.6933 -0.768 -0.229 0.598 56 64 26
39.1135 69.2393 -11.3799 -0.910 0.093 0.405 99 109 56
26.5335 73.1274 -4.1425 -0.828 -0.352 0.437 71 88 48
26.8026 73.2249 -4.3277 0.249 -0.932 -0.263 113 134 77
26.8456 73.5654 -4.4072 0.114 -0.932 -0.344 78 99 43
26.8925 73.8674 -4.4833 -0.504 -0.803 -0.318 71 92 36
27.2084 102.8105 -9.1367 -0.990 -0.108 0.095 64 77 47
37.1137 69.4807 -10.2693 -0.883 -0.068 0.464 55 75 46
37.2777 69.5017 -10.3762 -0.520 -0.844 0.133 58 86 57
37.6331 69.7826 -10.6440 -0.503 -0.860 -0.085 79 99 61
37.7084 69.7208 -10.6822 -0.511 -0.855 0.091 82 98 61
37.7838 69.6595 -10.7204 -0.341 -0.937 0.081 74 89 50
37.8439 69.4614 -10.7279 0.246 -0.942 0.227 71 81 44
37.9210 69.4178 -10.7699 -0.811 -0.320 0.490 56 63 29
37.9819 69.2319 -10.7798 -0.817 -0.115 0.565 61 67 33
39.0616 69.8932 -11.5641 -0.952 -0.019 0.306 77 86 38
26.4724 73.1701 -4.2199 -0.828 -0.350 0.438 71 88 48
26.7464 73.2077 -4.3993 0.249 -0.933 -0.260 107 128 72
26.7860 73.5863 -4.4834 0.114 -0.932 -0.344 77 98 41
26.8371 73.8300 -4.5537 -0.037 -0.997 -0.070 71 92 36
26.7210 106.3873 -9.5525 -0.991 -0.133 0.023 79 96 54
26.8769 105.5188 -9.5159 -0.990 -0.108 0.095 82 97 59
27.0696 103.8692 -9.3809 -0.990 -0.108 0.095 61 75 44
27.2553 102.2853 -9.2518 -0.990 -0.107 0.095 15 27 6
27.4385 100.6776 -9.1173 -0.990 -0.105 0.094 4 15 0
27.6229 98.9646 -8.9672 -0.969 -0.082 0.233 5 16 2
37.0539 69.4294 -10.3381 -0.868 -0.002 0.497 56 74 45
37.2177 69.4511 -10.4453 -0.500 -0.856 0.133 60 85 57
37.2500 68.9716 -10.3910 0.300 -0.678 0.671 59 85 60
37.5703 69.7108 -10.7090 0.362 -0.932 -0.003 79 100 61
37.6553 69.7386 -10.7672 -0.337 -0.891 0.303 81 98 60
37.7224 69.6009 -10.7882 -0.022 -0.827 0.562 74 89 52
37.7861 69.4344 -10.8026 0.260 -0.923 0.284 75 85 47
37.8685 69.4381 -10.8554 -0.809 -0.314 0.497 52 58 24
37.9269 69.2291 -10.8598 -0.817 -0.115 0.565 68 72 39
26.4149 73.1692 -4.2930 -0.825 -0.379 0.419 74 91 49
26.6883 73.2128 -4.4733 0.249 -0.933 -0.260 101 122 66
26.7783 73.8375 -4.6289 -0.037 -0.997 -0.070 72 93 37
26.7438 106.3722 -9.7384 -0.989 -0.112 0.101 81 96 56
26.9348 104.8068 -9.6127 -0.989 -0.111 0.103 57 70 38
27.1227 103.2328 -9.4837 -0.989 -0.111 0.099 9 21 3
27.5011 99.7960 -9.1817 -0.969 -0.082 0.233 5 15 4
36.8494 70.4255 -10.4803 -0.872 -0.121 0.474 62 74 35
36.9994 69.4325 -10.4188 -0.873 -0.007 0.487 54 70 44
37.1599 69.4217 -10.5190 -0.495 -0.864 0.089 59 83 56
37.1868 68.8841 -10.4513 0.300 -0.678 0.671 57 83 58
37.5961 69.7009 -10.8398 0.370 -0.929 0.031 77 97 60
37.6588 69.5216 -10.8513 0.157 -0.723 0.672 73 88 51
37.7240 69.3681 -10.8684 0.269 -0.922 0.277 74 83 48
37.8705 69.2132 -10.9369 -0.760 -0.167 0.628 65 67 36
26.3531 73.2173 -4.3712 -0.825 -0.379 0.419 73 90 46
26.4942 73.1844 -4.4556 -0.398 -0.880 -0.258 110 130 79
26.6302 73.2179 -4.5474 0.249 -0.933 -0.260 94 114 61
26.7271 73.7472 -4.6935 -0.065 -0.995 -0.073 71 91 39
26.4419 108.2320 -10.0177 -0.990 -0.137 0.016 81 97 52
26.5983 107.4268 -9.9886 -0.989 -0.112 0.101 79 95 52
26.7951 105.8039 -9.8546 -0.977 -0.090 0.193 54 68 35
26.9999 103.9469 -9.6883 -0.977 -0.090 0.193 7 18 2
37.0279 69.4606 -10.5565 -0.803 -0.542 0.247 59 80 52
37.1082 69.4541 -10.6065 -0.550 -0.832 0.072 56 82 54
37.5384 69.6770 -10.9155 -0.230 -0.931 0.283 73 93 56
37.5997 69.4831 -10.9235 -0.684 -0.597 0.419 72 87 51
37.6684 69.3610 -10.9477 -0.470 -0.869 0.157 71 80 45
37.7504 69.3625 -11.0000 -0.772 -0.190 0.606 59 62 29
37.8099 69.1601 -11.0055 -0.764 -0.171 0.622 57 57 27
26.2912 73.2646 -4.4495 -0.830 -0.391 0.399 74 91 46
26.4376 73.1717 -4.5277 -0.443 -0.861 -0.251 116 136 87
26.2956 109.2255 -10.2630 -0.989 -0.147 0.012 81 97 49
26.4574 108.3573 -10.2257 -0.988 -0.114 0.101 81 94 51
26.6546 106.7774 -10.0960 -0.977 -0.091 0.190 45 59 26
36.7978 70.1904 -10.6432 -0.879 -0.118 0.461 67 78 44
36.9764 69.4966 -10.6448 -0.803 -0.542 0.247 59 81 52
37.0601 69.5240 -10.7025 -0.574 -0.816 0.067 57 83 55
37.1038 69.1451 -10.6692 -0.559 -0.784 0.271 54 82 57
37.4853 69.6972 -11.0013 -0.217 -0.954 -0.208 74 94 55
37.5550 69.5806 -11.0269 -0.715 -0.595 0.367 73 88 51
37.6246 69.4641 -11.0523 -0.637 -0.770 0.034 71 81 43
37.7009 69.4118 -11.0925 -0.681 -0.720 0.134 58 63 30
37.7755 69.3442 -11.1290 -0.672 -0.732 0.110 57 59 27
37.8494 69.2710 -11.1643 -0.672 -0.732 0.110 66 71 36
26.2299 73.3039 -4.5272 -0.831 -0.395 0.392 72 90 42
26.3015 73.2766 -4.5684 -0.833 -0.483 0.271 87 107 58
26.3766 73.2091 -4.6053 -0.436 -0.865 -0.247 115 134 88
26.5251 73.0930 -4.6810 -0.447 -0.847 -0.289 87 107 59
26.5151 107.6955 -10.3329 -0.974 -0.088 0.209 40 51 18
37.0049 69.5235 -10.7830 -0.493 -0.860 0.131 57 83 53
37.4312 69.7084 -11.0852 -0.231 -0.950 -0.211 76 93 54
37.5057 69.6362 -11.1209 -0.722 -0.613 0.319 73 88 49
37.5767 69.5313 -11.1491 -0.627 -0.778 0.037 71 81 43
37.6515 69.4640 -11.1858 -0.680 -0.725 0.111 57 64 30
37.7255 69.3892 -11.2208 -0.680 -0.725 0.111 55 60 26
37.7994 69.3145 -11.2557 -0.680 -0.725 0.111 65 71 36
38.8868 70.0286 -12.0661 -0.949 -0.116 0.294 81 91 39
38.9175 69.6121 -12.0177 -0.954 0.006 0.299 118 129 74
26.1587 73.4514 -4.6167 -0.815 -0.498 0.296 69 87 38
26.3163 73.2370 -4.6819 -0.384 -0.905 -0.186 115 134 88
26.4638 73.1341 -4.7592 -0.460 -0.846 -0.271 89 108 62
26.5414 73.0363 -4.7926 -0.451 -0.844 -0.290 71 90 44
36.6458 69.7392 -10.7051 -0.486 -0.836 0.255 66 76 42
36.9372 69.3914 -10.8338 -0.498 -0.867 -0.010 58 81 52
37.0069 69.2761 -10.8593 -0.927 -0.369 -0.063 57 80 57
37.3921 69.8668 -11.2032 -0.727 -0.584 -0.362 75 91 51
37.5997 69.4950 -11.2744 -0.620 -0.784 -0.015 58 67 30
37.6749 69.4309 -11.3119 -0.628 -0.778 -0.014 55 62 28
37.7512 69.3768 -11.3517 -0.620 -0.784 -0.015 62 69 35
26.0955 73.5075 -4.6967 -0.815 -0.498 0.296 68 86 37
26.1781 73.3603 -4.7249 -0.839 -0.443 0.316 85 105 56
26.2546 73.2792 -4.7603 -0.384 -0.905 -0.186 114 133 88
26.4006 73.1960 -4.8399 -0.433 -0.870 -0.233 88 107 62
26.4822 73.0535 -4.8682 -0.728 -0.635 -0.260 71 90 44
25.8198 112.6382 -11.0709 -0.988 -0.132 0.081 81 98 44
36.5910 69.7460 -10.7874 -0.486 -0.836 0.255 65 75 39
36.6669 69.6899 -10.8265 -0.486 -0.836 0.255 49 61 25
36.7427 69.6338 -10.8657 -0.486 -0.836 0.255 46 61 29
36.8876 69.4499 -10.9277 -0.484 -0.875 0.009 60 80 50
36.9583 69.3422 -10.9549 -0.934 -0.351 -0.066 60 79 57
37.3409 69.9094 -11.2949 -0.742 -0.565 -0.360 75 87 46
38.8188 69.7050 -12.2070 -0.891 0.120 0.438 102 113 59
26.0321 73.5637 -4.7768 -0.815 -0.498 0.296 77 95 47
26.1138 73.4285 -4.8063 -0.840 -0.451 0.302 87 106 60
26.1928 73.3215 -4.8389 -0.384 -0.905 -0.186 106 125 80
26.3381 73.2485 -4.9197 -0.433 -0.870 -0.233 82 101 55
36.5414 69.8127 -10.8832 -0.528 -0.760 -0.378 66 75 38
36.6234 69.8244 -10.9378 -0.496 -0.762 -0.416 50 62 26
36.7019 69.7943 -10.9831 -0.497 -0.759 -0.421 45 60 25
36.7796 69.7553 -11.0263 -0.609 -0.720 -0.332 61 79 48
36.9191 69.5100 -11.0743 -0.916 -0.392 -0.084 60 80 55
38.7865 69.8874 -12.3361 -0.891 0.120 0.437 102 113 58
25.9686 73.6201 -4.8573 -0.815 -0.498 0.296 80 97 50
26.0518 73.4706 -4.8851 -0.841 -0.446 0.305 85 104 58
26.1287 73.3873 -4.9203 -0.430 -0.869 -0.245 106 125 79
26.2723 73.3361 -5.0038 -0.495 -0.820 -0.288 82 102 54
26.3522 73.2172 -5.0348 -0.730 -0.626 -0.275 78 97 51
25.9193 111.7010 -11.3493 -0.980 -0.099 0.174 60 71 36
26.1608 109.5060 -11.1286 -0.965 -0.072 0.253 7 16 0
36.4187 69.9753 -10.9490 -0.785 -0.531 -0.319 69 78 36
36.6544 69.8845 -11.0849 -0.496 -0.762 -0.416 45 60 24
36.8890 69.7788 -11.2176 -0.801 -0.566 -0.198 58 80 54
37.6883 68.8111 -11.5655 -0.801 0.032 0.598 74 85 46
38.7529 70.0626 -12.4640 -0.888 0.124 0.443 102 112 58
25.9048 73.6767 -4.9379 -0.815 -0.498 0.296 83 101 54
26.2082 73.4017 -5.0856 -0.488 -0.824 -0.286 83 103 54
26.0252 110.2440 -11.3515 -0.931 -0.044 0.363 12 21 2
36.3699 70.0581 -11.0490 -0.787 -0.526 -0.321 71 80 38
36.8421 69.8730 -11.3210 -0.456 -0.817 -0.354 56 79 53
37.2845 70.1932 -11.6613 0.173 -0.980 -0.100 79 92 46
37.4343 70.0359 -11.7305 -0.145 -0.979 -0.146 63 76 34
37.5013 69.8830 -11.7471 -0.804 -0.530 -0.269 53 65 28
38.7179 70.2308 -12.5908 -0.865 0.137 0.483 99 110 56
25.8423 73.7184 -5.0170 -0.768 -0.539 0.346 86 104 57
25.8702 111.2884 -11.6186 -0.925 -0.052 0.377 21 30 9
36.3295 70.2455 -11.1733 -0.877 -0.401 -0.266 73 81 40
36.7887 69.8985 -11.4087 -0.435 -0.821 -0.371 53 77 51
37.2203 70.1125 -11.7246 0.134 -0.974 -0.184 74 88 40
37.3035 70.1154 -11.7788 0.145 -0.983 -0.109 71 85 37
37.4471 69.8995 -11.8336 -0.754 -0.647 -0.111 49 61 24
37.5020 69.6327 -11.8223 -0.852 0.051 0.521 51 62 28
38.6633 70.2434 -12.6784 -0.892 0.109 0.438 88 99 45
25.7800 73.7566 -5.0960 -0.768 -0.539 0.346 86 106 57
26.1666 74.1291 -5.4118 -0.467 -0.824 -0.321 71 88 43
36.2856 70.3943 -11.2894 -0.874 -0.404 -0.269 73 81 39
37.1678 70.1485 -11.8159 0.143 -0.973 -0.179 73 86 41
39.6755 93.3100 -17.5408 0.184 -0.604 0.776 71 83 42
39.7867 93.2548 -17.6029 0.178 -0.597 0.783 49 61 24
37.4580 69.7448 -11.9320 -0.854 0.048 0.519 51 62 28
38.5845 70.7586 -12.8396 -0.949 -0.058 0.309 78 88 37
25.7181 73.7891 -5.1744 -0.781 -0.527 0.335 87 106 58
26.1012 74.1985 -5.4958 -0.339 -0.873 -0.350 71 88 43
26.0053 118.5940 -13.3882 -0.111 -0.051 0.993 19 19 12
36.6551 69.6564 -11.5150 -0.755 -0.127 0.643 55 74 49
39.4730 93.2418 -17.5653 -0.012 -0.395 0.918 72 85 41
39.5822 93.1677 -17.6227 0.178 -0.597 0.783 72 83 43
39.6938 93.1179 -17.6861 0.178 -0.597 0.783 50 60 24
37.4144 69.8626 -12.0435 -0.828 0.038 0.559 52 62 28
38.6040 70.6790 -12.9600 -0.922 0.113 0.371 87 97 43
25.6540 73.8431 -5.2555 -0.787 -0.531 0.315 85 105 54
25.7345 73.7306 -5.2874 -0.784 -0.537 0.311 73 93 35
25.9516 73.6483 -5.4133 -0.392 -0.920 -0.003 91 109 56
26.0386 74.2341 -5.5758 -0.351 -0.868 -0.351 71 88 43
26.0969 74.3749 -5.6391 -0.777 -0.584 -0.234 71 88 44
25.4829 112.9362 -12.2262 -0.866 -0.035 0.499 41 50 18
36.6009 69.6747 -11.6010 -0.758 -0.131 0.639 59 75 49
36.6604 69.4315 -11.5955 -0.778 -0.120 0.616 62 78 50
39.3773 93.0710 -17.6401 -0.012 -0.395 0.918 71 84 42
39.4872 93.0064 -17.6997 0.079 -0.617 0.783 72 82 45
37.3661 69.9387 -12.1452 -0.825 0.033 0.564 53 60 28
38.5224 70.4746 -12.9922 -0.901 -0.025 0.434 86 96 44
25.7416 73.7702 -5.4123 -0.522 -0.853 0.013 109 129 68
25.8828 73.7549 -5.5013 0.023 -0.994 0.105 91 110 55
25.9785 74.2418 -5.6526 -0.337 -0.873 -0.353 71 88 43
25.3678 113.2235 -12.3944 -0.858 -0.037 0.513 46 55 21
25.7897 116.4789 -13.2648 0.145 -0.333 0.932 34 26 17
36.2002 70.4243 -11.5960 -0.393 -0.829 -0.399 69 80 40
36.3370 71.0915 -11.8071 -0.781 0.015 0.624 64 77 38
36.4692 69.7376 -11.6450 -0.784 -0.013 0.620 62 75 48
36.5401 69.6179 -11.6691 -0.803 -0.107 0.586 61 74 49
36.5991 69.3674 -11.6616 -0.728 -0.198 0.657 59 75 47
37.3036 69.8749 -12.2124 -0.820 0.033 0.571 53 58 26
25.8247 73.7458 -5.5753 0.023 -0.994 0.105 87 107 49
25.9137 74.3004 -5.7358 -0.337 -0.873 -0.353 71 89 41
25.2406 113.6901 -12.5893 -0.946 -0.114 0.304 49 58 23
25.7148 116.0196 -13.3292 0.092 -0.336 0.937 34 29 20
25.8591 115.6675 -13.3579 -0.036 -0.060 0.998 29 28 16
26.1411 115.0486 -13.4270 0.437 -0.894 0.100 23 23 11
28.1660 118.4754 -15.3796 -0.055 -0.544 0.837 52 50 34
28.3073 118.1646 -15.4141 -0.108 -0.403 0.909 59 59 37
28.4247 118.6367 -15.5779 0.198 -0.776 0.598 68 72 42
28.5562 118.6609 -15.6680 0.190 -0.762 0.619 82 90 54
36.3348 70.7540 -11.8639 -0.879 0.007 0.477 56 68 31
36.3699 70.1888 -11.7821 -0.888 0.023 0.459 40 51 20
36.4104 69.7046 -11.7189 -0.908 -0.002 0.419 64 74 49
36.5253 69.1627 -11.6934 -0.679 -0.217 0.701 61 75 47
37.2601 70.0015 -12.3271 -0.902 -0.051 0.429 53 58 24
37.3583 69.3385 -12.2683 -0.916 -0.390 -0.089 65 71 33
25.7666 73.7366 -5.6493 0.023 -0.994 0.105 85 104 49
25.8483 74.3626 -5.8197 -0.335 -0.862 -0.381 71 89 41
25.1053 114.2700 -12.8019 -0.978 -0.153 0.141 63 72 37
25.2937 113.2041 -12.7254 -0.979 -0.154 0.137 24 27 4
25.4147 113.1973 -12.8030 -0.907 -0.343 -0.242 34 32 14
25.8273 114.4568 -13.3078 0.113 -0.845 0.523 31 30 18
28.0912 117.6148 -15.3753 -0.111 -0.477 0.872 47 45 30
28.2263 117.4713 -15.4366 -0.111 -0.477 0.872 60 59 39
36.2793 70.7726 -11.9516 -0.904 -0.009 0.427 56 68 32
36.4121 69.4296 -11.7870 -0.916 -0.033 0.400 64 74 49
37.2054 70.0182 -12.4146 -0.741 -0.665 0.097 53 57 24
37.3156 69.4652 -12.3829 -0.916 -0.390 -0.089 65 71 35
37.3881 69.3665 -12.4117 -0.919 -0.384 -0.087 74 80 44
38.6286 69.9324 -13.3267 -0.940 -0.098 0.328 118 129 69
25.6360 73.7535 -5.6810 -0.428 -0.904 0.009 98 117 61
25.7084 73.7271 -5.7234 0.016 -0.995 0.096 85 104 49
25.7827 74.4253 -5.9039 -0.335 -0.862 -0.381 72 90 42
25.8205 74.7812 -5.9960 -0.681 -0.646 -0.345 71 88 44
24.7432 112.7993 -12.4811 -0.850 -0.525 -0.033 80 98 50
24.9608 114.9714 -13.0340 -0.981 -0.153 0.119 68 77 42
25.1613 113.7460 -12.9333 -0.982 -0.145 0.122 36 39 15
25.2868 113.6758 -13.0021 -0.907 -0.343 -0.242 35 34 15
28.1307 117.2626 -15.5387 -0.507 -0.715 0.480 58 56 37
36.2613 70.2424 -11.9603 -0.854 0.063 0.516 39 53 20
36.2900 69.6056 -11.8586 -0.859 0.053 0.509 61 71 44
36.3514 69.3716 -11.8545 -0.888 -0.007 0.459 62 72 47
36.9862 70.0509 -12.3977 -0.334 -0.721 0.607 75 81 47
37.0693 70.0524 -12.4523 -0.349 -0.753 0.558 59 63 30
37.1472 69.9996 -12.4933 -0.732 -0.677 0.077 54 58 25
37.2741 69.6072 -12.5020 -0.912 -0.390 0.124 65 71 35
37.3477 69.5169 -12.5330 -0.916 -0.373 0.147 74 80 44
38.1004 70.2662 -13.1666 0.047 -0.527 0.849 75 83 43
38.1768 70.1906 -13.2022 -0.009 -0.535 0.845 78 87 43
38.2579 70.1555 -13.2485 -0.208 -0.689 0.694 69 79 31
38.3357 70.0928 -13.2875 -0.208 -0.689 0.694 104 114 63
38.5606 69.8381 -13.3863 -0.924 -0.128 0.359 118 129 69
25.5690 73.8327 -5.7663 -0.037 -0.991 0.131 98 117 62
25.6450 73.7710 -5.8043 0.035 -0.994 -0.103 86 105 51
25.7169 74.4882 -5.9884 -0.335 -0.862 -0.381 72 90 42
25.0088 114.5799 -13.1862 -0.983 -0.136 0.127 52 56 31
25.1480 114.3114 -13.2260 -0.907 -0.351 -0.234 38 38 19
25.2920 113.9575 -13.2526 -0.907 -0.351 -0.234 38 35 22
27.7689 117.2462 -15.5027 -0.826 -0.543 -0.150 38 31 21
27.9104 116.9171 -15.5324 -0.854 -0.508 -0.109 42 37 23
28.0323 117.1464 -15.6560 -0.670 -0.738 0.082 61 59 40
36.3007 69.4325 -11.9512 -0.880 -0.008 0.475 58 68 41
36.9342 70.0990 -12.4933 -0.376 -0.658 0.653 74 80 46
37.0098 70.0214 -12.5279 -0.376 -0.658 0.653 64 68 35
37.0861 69.9517 -12.5646 -0.706 -0.479 0.521 57 61 28
37.3006 69.6036 -12.6384 -0.755 -0.636 0.158 66 72 36
38.0394 70.2283 -13.2415 -0.208 -0.689 0.694 77 85 45
38.1173 70.1656 -13.2805 -0.208 -0.689 0.694 78 87 43
38.1951 70.1029 -13.3195 -0.208 -0.689 0.694 72 81 34
38.2729 70.0403 -13.3584 -0.208 -0.689 0.694 100 110 58
25.5088 73.8428 -5.8431 -0.028 -0.990 0.137 94 112 60
25.5853 73.7768 -5.8805 0.035 -0.994 -0.103 86 104 52
24.8630 115.2854 -13.4220 -0.974 -0.168 0.149 65 71 41
25.0339 114.5416 -13.3905 -0.969 -0.237 0.074 38 41 18
27.9008 117.9791 -15.9346 -0.960 -0.273 -0.064 62 62 40
36.1961 69.8283 -12.0775 -0.854 0.042 0.518 53 63 36
36.2520 69.5191 -12.0545 -0.890 -0.007 0.456 58 68 41
36.8597 69.9068 -12.5279 -0.671 -0.741 -0.018 73 80 46
36.9461 69.9455 -12.5921 -0.501 -0.816 -0.287 64 70 36
37.1107 69.9302 -12.6970 -0.730 -0.640 0.240 55 61 27
37.2527 69.6860 -12.7431 -0.755 -0.637 0.155 66 72 36
37.9667 70.0857 -13.2885 0.113 -0.936 -0.334 77 85 45
38.0614 70.1726 -13.3674 0.098 -0.944 -0.316 80 89 45
38.1402 70.1176 -13.4085 -0.531 -0.822 0.205 73 82 35
38.2242 70.1075 -13.4616 -0.383 -0.906 0.182 96 106 55
25.2106 74.1261 -5.8170 -0.869 -0.323 0.376 91 109 63
25.5199 73.8378 -5.9640 -0.151 -0.975 -0.164 85 103 54
24.4654 116.0378 -13.5044 -0.683 -0.711 0.165 78 91 47
27.7969 117.9938 -16.0752 -0.983 -0.179 0.041 66 70 44
27.9584 117.1199 -16.0108 -0.983 -0.179 0.041 84 91 57
36.8059 69.9354 -12.6186 -0.735 -0.617 -0.281 72 80 46
36.8916 69.9665 -12.6809 -0.505 -0.815 -0.285 64 70 34
36.9737 69.9567 -12.7330 -0.504 -0.815 -0.287 56 62 26
37.0591 69.9807 -12.7938 -0.735 -0.638 0.229 55 61 25
37.2062 69.7838 -12.8520 -0.763 -0.643 0.069 66 72 36
37.9249 70.2192 -13.4092 -0.046 -0.923 -0.382 77 85 45
38.0123 70.2403 -13.4708 -0.046 -0.923 -0.382 78 87 45
38.1947 70.3419 -13.6104 -0.964 0.013 0.265 90 100 50
25.1414 74.2174 -5.9044 -0.893 -0.330 0.307 89 106 61
25.4705 73.7386 -6.0267 -0.746 -0.662 -0.072 86 103 57
24.6250 115.8375 -13.7684 -0.903 -0.280 0.325 78 91 48
27.6915 118.0462 -16.2225 -0.979 -0.201 0.028 71 79 50
27.8474 117.3562 -16.1891 -0.978 -0.209 0.018 86 96 59
36.7590 70.0417 -12.7293 -0.735 -0.617 -0.281 72 82 45
36.8501 70.1290 -12.8065 -0.500 -0.811 -0.302 64 72 35
37.0145 70.1067 -12.9104 -0.730 -0.658 0.186 54 60 24
37.0891 70.0152 -12.9414 -0.730 -0.658 0.186 58 66 29
37.1660 69.9485 -12.9789 -0.728 -0.658 0.193 64 72 35
37.8901 70.4192 -13.5484 -0.021 -0.915 -0.402 77 85 46
37.9707 70.3769 -13.5931 -0.021 -0.925 -0.378 78 87 45
38.1596 70.5324 -13.7481 -0.964 0.013 0.265 87 97 47
25.0711 74.3161 -5.9930 -0.891 -0.327 0.316 86 103 59
25.4052 73.7972 -6.1100 -0.745 -0.662 -0.077 86 103 58
25.4781 73.7679 -6.1523 -0.469 -0.875 -0.119 77 95 46
27.4862 117.2984 -16.1450 -0.438 -0.293 0.850 32 42 16
36.8053 70.2602 -12.9245 -0.806 -0.539 -0.244 67 76 38
36.9575 70.1043 -12.9938 -0.692 -0.721 -0.034 52 61 22
37.0341 70.0325 -13.0301 -0.692 -0.721 -0.034 56 64 27
37.1106 69.9608 -13.0662 -0.692 -0.721 -0.034 63 71 32
37.9184 70.4199 -13.6904 -0.029 -0.935 -0.352 76 84 42
25.0029 74.3939 -6.0793 -0.869 -0.320 0.378 85 102 59
25.4163 73.7910 -6.2312 -0.464 -0.877 -0.121 76 94 46
36.2443 70.1809 -12.6597 0.018 -0.978 -0.210 61 72 48
37.8704 70.5038 -13.7992 -0.136 -0.987 -0.081 76 84 42
37.9539 70.4846 -13.8505 -0.464 -0.882 0.084 78 87 41
24.9337 74.4784 -6.1667 -0.869 -0.320 0.378 87 104 61
25.3149 73.5203 -6.2244 -0.865 -0.325 0.383 92 109 64
25.3580 73.7791 -6.3055 -0.071 -0.924 0.375 75 93 45
24.4347 115.9893 -14.2704 -0.881 -0.109 0.460 60 72 36
27.3855 117.9206 -16.6162 -0.045 0.041 0.998 79 90 56
38.0447 70.2775 -13.9925 -0.899 0.086 0.430 105 115 63
24.8655 74.5511 -6.2528 -0.867 -0.320 0.382 86 103 60
25.2465 73.6068 -6.3117 -0.843 -0.326 0.428 92 109 64
25.3011 73.7540 -6.3781 -0.071 -0.924 0.375 76 94 46
36.1282 70.1552 -12.8204 0.008 -0.979 -0.202 62 71 50
36.5986 70.8077 -13.2662 -0.811 -0.340 0.475 69 83 46
36.6678 70.6397 -13.2776 -0.756 -0.446 0.480 63 80 38
36.7390 70.4990 -13.2960 -0.756 -0.446 0.480 52 67 24
36.8126 70.3858 -13.3216 -0.538 -0.797 0.274 49 61 21
36.8882 70.2967 -13.3534 -0.629 -0.746 0.217 56 64 25
36.9618 70.1884 -13.3800 -0.625 -0.753 0.204 61 69 30
37.8494 70.5779 -14.0486 -0.406 -0.890 0.207 76 85 39
38.0008 70.3951 -14.1115 -0.902 0.082 0.424 101 111 59
24.7996 74.6015 -6.3362 -0.805 -0.335 0.489 87 104 60
25.2350 73.8162 -6.4627 -0.067 -0.899 0.433 76 94 46
36.6835 70.5202 -13.3866 -0.421 -0.439 0.793 56 71 28
36.7577 70.4132 -13.4138 -0.327 -0.651 0.686 49 61 21
36.8302 70.2888 -13.4361 -0.387 -0.529 0.755 53 61 22
36.9020 70.1597 -13.4571 -0.391 -0.531 0.752 59 67 28
36.9768 70.0647 -13.4871 -0.406 -0.471 0.783 66 74 35
37.7925 70.5835 -14.1366 -0.406 -0.890 0.207 73 82 36
37.8799 70.5977 -14.1976 -0.461 -0.883 0.092 73 83 33
37.9586 70.5315 -14.2362 -0.523 -0.843 0.124 91 101 49
24.7322 74.6644 -6.4215 -0.805 -0.330 0.493 86 103 62
25.1734 73.8339 -6.5413 -0.032 -0.873 0.487 77 95 47
24.0578 116.9859 -14.8295 -0.939 -0.230 0.255 72 84 48
26.6839 117.8822 -16.7652 -0.905 -0.393 0.162 39 43 24
26.8299 117.5352 -16.7898 -0.905 -0.393 0.162 57 63 41
36.4638 70.5820 -13.3767 -0.256 -0.234 0.938 67 82 44
36.5403 70.4976 -13.4099 -0.237 -0.295 0.926 65 82 40
36.6203 70.4554 -13.4543 -0.390 -0.459 0.798 57 72 29
36.6962 70.3674 -13.4865 -0.327 -0.651 0.686 49 61 21
36.7732 70.2916 -13.5218 -0.327 -0.651 0.686 53 61 22
36.8497 70.2119 -13.5561 -0.419 -0.633 0.651 60 68 29
36.9234 70.1036 -13.5825 -0.340 -0.485 0.806 65 73 34
37.7350 70.5844 -14.2234 -0.579 -0.809 -0.103 73 82 37
37.8233 70.6064 -14.2867 -0.576 -0.809 -0.121 74 84 34
37.9015 70.5355 -14.3240 -0.647 -0.760 0.056 88 98 46
24.6644 74.7289 -6.5072 -0.809 -0.358 0.467 84 102 62
24.7592 74.5104 -6.5243 -0.827 -0.358 0.434 74 91 46
25.1330 73.6515 -6.5920 -0.091 -0.912 0.400 78 96 48
23.6631 117.5458 -14.8875 -0.589 -0.779 0.214 75 91 45
23.8136 117.2073 -14.9164 -0.804 -0.341 0.487 74 86 46
26.7171 117.7337 -16.9640 -0.970 -0.235 0.054 62 69 43
26.8631 117.3848 -16.9877 -0.980 -0.175 0.091 81 90 60
36.3954 70.4537 -13.4274 -0.256 -0.234 0.938 67 82 44
36.4728 70.3822 -13.4639 -0.237 -0.295 0.926 66 81 40
36.5585 70.4063 -13.5262 -0.079 -0.520 0.850 57 72 29
36.6422 70.4061 -13.5820 -0.452 -0.885 -0.116 49 61 21
36.7244 70.3867 -13.6327 -0.513 -0.854 -0.085 53 61 22
36.8011 70.3072 -13.6670 -0.548 -0.830 -0.100 59 67 30
36.8758 70.2068 -13.6956 -0.572 -0.809 -0.133 65 73 34
36.9375 69.9708 -13.6869 -0.837 -0.545 -0.049 67 75 36
37.6804 70.6133 -14.3181 -0.564 -0.802 -0.199 73 82 38
37.7673 70.6221 -14.3779 -0.552 -0.822 -0.138 74 83 35
37.8879 70.9381 -14.5252 -0.889 0.155 0.430 87 97 46
24.5876 74.8719 -6.6040 -0.873 -0.381 0.306 83 101 62
24.6849 74.6340 -6.6183 -0.868 -0.386 0.311 75 92 49
24.7829 74.3865 -6.6309 -0.863 -0.375 0.339 76 93 48
24.9551 73.4569 -6.5477 -0.819 -0.539 0.198 89 106 61
25.0826 73.5647 -6.6558 -0.047 -0.886 0.462 78 96 49
23.7434 116.7715 -14.9800 -0.288 -0.229 0.930 71 85 47
23.8953 116.4050 -15.0033 -0.291 -0.234 0.928 71 80 51
24.0307 116.2537 -15.0615 -0.331 -0.220 0.918 47 51 29
24.2695 116.3978 -15.2518 0.223 -0.146 0.964 39 38 25
36.3279 70.3339 -13.4802 -0.253 -0.235 0.939 68 80 43
36.4103 70.3233 -13.5330 -0.258 -0.285 0.923 66 81 40
36.4933 70.3166 -13.5870 -0.083 -0.527 0.845 57 72 29
36.5884 70.4478 -13.6785 -0.490 -0.867 -0.088 50 61 21
36.6724 70.4484 -13.7348 -0.815 -0.579 -0.031 53 61 22
36.7525 70.4051 -13.7791 -0.587 -0.767 -0.258 59 67 30
36.8866 70.0364 -13.7900 -0.837 -0.528 -0.145 67 75 36
37.2465 69.4305 -13.9012 -0.366 -0.878 -0.308 59 66 32
37.6310 70.6930 -14.4275 -0.562 -0.807 -0.182 73 82 38
37.7182 70.7036 -14.4880 -0.575 -0.808 -0.132 74 83 35
37.8537 71.1589 -14.6757 -0.889 0.155 0.430 87 97 46
24.7106 74.4927 -6.7227 -0.928 -0.301 0.220 75 92 47
24.8895 73.5127 -6.6313 -0.822 -0.537 0.190 89 106 61
25.0285 73.5129 -6.7245 -0.088 -0.907 0.411 79 96 51
23.4824 117.2072 -15.1022 0.106 -0.015 0.994 73 91 45
23.6779 116.2842 -15.0342 0.144 0.006 0.990 70 85 48
36.2580 70.1831 -13.5243 -0.271 -0.332 0.904 65 77 40
36.3411 70.1830 -13.5799 -0.353 -0.901 0.251 60 75 34
36.4316 70.2674 -13.6586 -0.156 -0.978 0.139 57 70 27
36.5377 70.5280 -13.7858 -0.744 -0.650 -0.154 53 64 24
36.6154 70.4560 -13.8223 -0.823 -0.544 -0.163 51 58 20
36.7680 70.2828 -13.8871 -0.833 -0.533 -0.148 59 67 30
36.8360 70.1086 -13.8951 -0.826 -0.543 -0.151 65 73 36
37.2011 69.5433 -14.0178 -0.382 -0.872 -0.306 59 66 33
24.6467 74.5224 -6.8040 -0.930 -0.295 0.221 75 92 47
24.9668 73.5317 -6.8033 -0.095 -0.927 0.363 79 96 51
23.5913 116.0807 -15.1343 0.058 -0.011 0.998 71 85 47
35.4088 70.6619 -13.1821 -0.546 -0.717 -0.433 62 72 35
35.8616 70.0794 -13.3591 -0.761 -0.608 -0.225 57 67 43
36.2836 70.1820 -13.6644 -0.353 -0.901 0.251 60 72 32
36.3738 70.2646 -13.7429 -0.156 -0.978 0.139 58 69 29
36.4824 70.5576 -13.8795 -0.745 -0.649 -0.154 54 64 27
36.5581 70.4602 -13.9090 -0.810 -0.587 -0.024 50 58 22
36.6342 70.3705 -13.9406 -0.807 -0.589 -0.024 50 58 21
36.7114 70.2937 -13.9757 -0.816 -0.578 -0.006 58 66 29
36.7771 70.0915 -13.9757 -0.789 -0.611 -0.057 65 73 36
37.1728 69.8318 -14.1846 -0.289 -0.925 -0.247 59 66 33
37.4742 71.1347 -14.6701 -0.275 -0.886 -0.374 65 73 35
24.4703 74.9168 -6.8901 -0.915 -0.350 0.200 75 94 50
24.5698 74.6646 -6.9016 -0.927 -0.299 0.225 75 92 47
23.5004 115.9352 -15.2436 -0.120 -0.310 0.943 61 75 38
23.6522 115.5696 -15.2653 -0.074 -0.266 0.961 33 41 12
23.7915 115.3595 -15.3128 -0.074 -0.266 0.961 29 32 10
35.8080 70.1306 -13.4572 -0.768 -0.601 -0.223 58 68 43
36.2268 70.1905 -13.7517 -0.318 -0.897 -0.307 60 72 32
36.3180 70.2850 -13.8337 -0.155 -0.973 0.173 58 70 30
36.4262 70.5765 -13.9704 -0.670 -0.667 0.326 54 64 27
36.5027 70.4879 -14.0023 -0.684 -0.638 0.354 50 58 21
36.5796 70.4052 -14.0359 -0.490 -0.619 0.615 49 57 20
36.6557 70.3141 -14.0670 -0.490 -0.619 0.615 58 66 29
36.7294 70.1986 -14.0912 -0.515 -0.600 0.612 65 73 36
37.1412 70.0932 -14.3447 -0.419 -0.875 -0.240 59 66 33
23.1737 115.6659 -15.1663 -0.655 -0.667 -0.355 75 98 46
23.2876 115.7776 -15.2677 -0.710 -0.696 -0.108 69 86 43
23.6189 114.6936 -15.2505 -0.888 -0.418 0.192 22 29 1
23.7488 114.5942 -15.3160 -0.891 -0.342 0.300 29 32 10
35.2856 70.5494 -13.3214 0.138 -0.894 0.427 62 73 33
35.6984 70.5501 -13.5995 -0.152 -0.985 0.082 57 67 43
35.7718 70.4196 -13.6199 -0.310 -0.950 0.044 57 67 43
36.1660 70.1503 -13.8257 -0.557 -0.645 -0.524 61 73 33
36.3780 70.6940 -14.0889 -0.233 -0.462 0.856 54 65 25
36.4596 70.6619 -14.1367 -0.556 -0.279 0.783 50 58 21
36.5286 70.4833 -14.1435 -0.452 -0.316 0.834 50 58 21
36.6021 70.3611 -14.1659 -0.454 -0.313 0.834 58 66 29
36.6741 70.2247 -14.1842 -0.465 -0.309 0.830 65 73 34
37.6556 70.6742 -14.9445 -0.888 0.081 0.452 103 113 62
23.0719 115.6637 -15.2990 -0.664 -0.652 -0.367 72 95 42
23.2156 115.4078 -15.3387 -0.928 -0.271 0.257 64 82 36
23.3548 115.2021 -15.3866 -0.882 -0.470 -0.027 39 51 15
35.2248 70.5052 -13.3942 0.138 -0.894 0.427 59 70 30
35.3045 70.4669 -13.4394 0.175 -0.950 0.257 61 71 37
36.1164 70.2496 -13.9383 -0.553 -0.645 -0.527 66 78 38
36.3176 70.6654 -14.1670 -0.207 -0.470 0.858 52 63 23
36.3993 70.6353 -14.2153 -0.486 -0.301 0.820 41 52 12
24.1794 75.2249 -7.1204 -0.546 -0.238 0.803 69 86 52
24.2819 74.9585 -7.1295 -0.546 -0.238 0.803 76 95 51
24.3727 74.7869 -7.1521 -0.565 -0.239 0.790 73 93 44
23.1017 115.5531 -15.4964 -0.928 -0.098 0.361 60 77 32
35.4899 70.4080 -13.6751 -0.374 -0.905 -0.205 51 61 37
35.6629 70.5151 -13.8161 -0.418 -0.892 -0.170 58 67 45
36.0720 70.4198 -14.0711 -0.552 -0.644 -0.530 67 79 41
36.1547 70.4081 -14.1243 0.270 -0.912 0.309 61 73 33
36.2611 70.6867 -14.2591 -0.494 -0.480 0.725 54 65 25
36.3384 70.6023 -14.2923 -0.669 -0.411 0.619 42 50 11
36.5549 70.1807 -14.3433 -0.547 -0.543 0.637 63 71 34
37.5549 70.8250 -15.1644 -0.853 -0.071 0.517 90 100 50
24.1482 74.9711 -7.1614 -0.468 -0.291 0.834 65 82 48
24.2274 74.9002 -7.1988 -0.536 -0.238 0.810 75 93 49
22.9636 115.9824 -15.7032 -0.448 -0.696 -0.561 52 69 26
35.3548 70.4893 -13.7263 -0.675 -0.663 -0.324 48 57 29
35.5234 70.5366 -13.8512 -0.360 -0.841 -0.405 56 66 42
35.6748 70.3330 -13.9073 -0.633 -0.681 -0.368 58 67 41
36.0277 70.5965 -14.2062 -0.545 -0.645 -0.535 66 78 40
36.2042 70.7031 -14.3500 -0.870 -0.486 0.085 57 67 30
36.2859 70.6715 -14.3981 -0.886 -0.455 0.085 46 54 17
36.3583 70.5274 -14.4143 -0.886 -0.455 0.085 48 55 21
36.4332 70.4169 -14.4398 -0.893 -0.441 0.091 58 66 29
24.0991 74.8697 -7.2243 -0.468 -0.291 0.834 62 82 48
24.1752 74.8240 -7.2654 -0.536 -0.233 0.811 74 93 48
22.5761 116.4278 -15.7464 -0.269 -0.872 -0.409 71 90 41
35.2224 70.6176 -13.7904 -0.543 -0.698 -0.467 56 63 30
35.3031 70.5866 -13.8380 -0.543 -0.698 -0.467 49 58 28
35.6246 70.4421 -14.0228 -0.633 -0.681 -0.368 58 67 39
35.9810 70.7467 -14.3346 -0.552 -0.643 -0.531 67 79 41
36.2262 70.6536 -14.4795 -0.733 -0.486 -0.476 48 56 19
36.3036 70.5695 -14.5126 -0.733 -0.486 -0.476 48 55 21
36.3833 70.5140 -14.5539 -0.736 -0.485 -0.472 55 62 28
24.0389 74.8603 -7.3008 -0.145 -0.724 0.675 62 82 49
22.4653 116.5144 -15.8957 0.563 -0.620 0.547 76 93 48
22.5862 116.5454 -15.9850 0.563 -0.620 0.547 71 88 44
22.7794 115.7350 -15.9283 0.653 -0.535 0.536 41 57 19
22.8579 116.2621 -16.1039 0.660 -0.544 0.519 15 30 1
35.1745 70.7827 -13.9210 -0.692 -0.630 -0.352 57 64 29
35.2532 70.7176 -13.9594 -0.692 -0.630 -0.352 59 66 33
35.3317 70.6507 -13.9972 -0.694 -0.630 -0.348 39 48 17
35.4149 70.6542 -14.0545 -0.633 -0.681 -0.368 58 67 37
35.4945 70.6030 -14.0967 -0.633 -0.681 -0.368 59 68 39
35.5741 70.5518 -14.1389 -0.633 -0.681 -0.368 59 68 39
35.9291 70.8332 -14.4455 -0.598 -0.610 -0.521 65 75 40
36.1814 70.8234 -14.6146 -0.637 -0.583 -0.504 54 60 26
36.2611 70.7629 -14.6547 -0.633 -0.584 -0.508 48 55 21
36.3421 70.7185 -14.6994 -0.736 -0.485 -0.472 50 57 23
36.3959 70.3524 -14.6511 -0.682 -0.543 -0.490 59 66 32
23.9794 74.8447 -7.3765 -0.133 -0.970 0.202 62 81 49
24.0491 74.8517 -7.4256 -0.089 -0.967 0.238 74 93 50
22.3560 116.5812 -16.0419 0.713 -0.605 0.355 71 88 42
22.6022 116.5955 -16.2129 0.761 -0.555 0.337 43 59 22
35.0438 70.9576 -13.9983 -0.689 -0.634 -0.350 60 68 29
35.1206 70.8567 -14.0270 -0.694 -0.628 -0.352 59 67 28
35.2812 70.7726 -14.1166 -0.694 -0.630 -0.348 37 44 11
35.3629 70.7513 -14.1673 -0.638 -0.677 -0.369 58 68 34
35.4440 70.7185 -14.2148 -0.664 -0.686 -0.297 59 68 36
35.5234 70.6619 -14.2556 -0.633 -0.681 -0.368 59 68 37
35.9589 70.8881 -14.6050 -0.589 -0.613 -0.527 69 76 43
36.2117 70.8770 -14.7745 -0.465 -0.705 -0.536 48 54 20
36.2916 70.8166 -14.8148 -0.881 -0.442 0.168 50 55 23
36.3489 70.4858 -14.7764 -0.896 -0.435 0.092 60 65 34
37.0812 71.0302 -15.4023 -0.756 -0.646 0.108 59 67 29
37.3359 70.9766 -15.5631 -0.978 -0.124 0.166 73 82 37
37.3877 70.6303 -15.5173 -0.978 -0.124 0.166 114 122 69
23.9336 74.7181 -7.4353 -0.604 -0.777 -0.177 57 76 44
22.2662 116.4282 -16.1501 0.703 -0.540 0.463 61 78 36
22.3832 116.5005 -16.2470 0.702 -0.540 0.464 43 59 20
22.5378 116.1482 -16.2692 0.753 -0.565 0.337 44 59 26
22.6439 116.3493 -16.3891 0.754 -0.562 0.340 49 63 36
22.8993 119.3086 -17.2622 -0.318 -0.148 0.936 18 28 20
34.9841 70.9408 -14.0795 -0.305 -0.877 -0.371 63 71 32
35.0684 70.9640 -14.1425 -0.696 -0.628 -0.349 61 69 30
35.3047 70.7557 -14.2544 -0.644 -0.205 0.737 56 66 32
35.3735 70.5389 -14.2502 -0.636 -0.209 0.743 59 69 35
35.4622 70.6220 -14.3303 -0.674 -0.685 0.276 59 69 35
37.6220 93.8427 -21.2880 -0.449 -0.892 0.055 68 75 42
36.0803 71.0301 -14.8482 -0.636 -0.466 0.615 57 62 30
23.8704 74.7329 -7.5155 -0.714 -0.690 -0.122 54 74 42
23.9503 74.6567 -7.5520 -0.714 -0.690 -0.122 70 88 46
24.0338 74.5498 -7.5836 -0.526 -0.788 -0.321 75 96 40
22.5704 116.0068 -16.4630 0.563 -0.086 0.822 39 53 30
35.1716 70.8946 -14.3227 -0.619 -0.193 0.761 31 39 2
35.2419 70.6905 -14.3221 -0.582 -0.237 0.778 55 65 30
36.8914 71.1874 -15.5675 -0.910 0.166 0.380 57 64 30
23.7831 74.9383 -7.6253 -0.705 -0.686 -0.178 54 73 44
24.0572 74.4341 -7.6917 -0.718 -0.695 -0.031 67 87 27
22.7146 118.9682 -17.4792 -0.814 -0.066 0.577 8 17 16
35.1125 70.8895 -14.4075 -0.610 -0.198 0.767 35 43 6
35.2485 70.4106 -14.3854 -0.584 -0.246 0.774 61 71 37
35.9690 71.1170 -15.0484 -0.272 -0.439 0.856 61 66 34
23.6951 75.1451 -7.7358 -0.682 -0.724 -0.100 54 73 44
23.7897 74.9567 -7.7550 -0.578 -0.805 -0.135 68 86 48
23.8927 74.6980 -7.7629 -0.614 -0.760 -0.211 76 96 44
23.9864 74.5112 -7.7818 -0.718 -0.695 -0.031 67 87 29
34.8183 71.1337 -14.3916 -0.387 -0.526 0.758 59 67 28
35.0496 70.8226 -14.4748 -0.610 -0.198 0.767 38 46 9
35.1207 70.6276 -14.4763 -0.624 -0.290 0.725 51 61 26
37.5057 94.0117 -21.7832 0.048 -0.497 0.867 64 71 38
35.9047 71.0479 -15.1158 -0.274 -0.446 0.852 63 68 36
35.9843 70.9794 -15.1539 -0.602 -0.784 0.151 42 47 15
36.0671 70.9509 -15.2037 -0.667 -0.337 0.664 50 55 23
36.1485 70.9050 -15.2484 -0.322 -0.941 -0.105 50 55 25
36.3130 70.8324 -15.3436 -0.941 -0.315 0.119 67 72 40
37.2274 71.3928 -16.1067 -0.928 -0.003 0.372 85 94 39
23.6272 75.1913 -7.8218 -0.657 -0.752 -0.050 50 68 41
23.6940 75.2241 -7.8757 -0.821 -0.472 0.322 64 81 47
23.8273 74.7291 -7.8461 -0.446 -0.888 -0.110 75 95 47
23.9025 74.6918 -7.8887 -0.628 -0.761 -0.162 68 87 33
34.7529 71.0195 -14.4458 -0.275 -0.883 0.379 59 67 26
34.8385 71.0649 -14.5157 -0.654 -0.485 0.581 58 66 25
34.9140 70.9317 -14.5350 -0.664 -0.493 0.562 59 67 28
34.9907 70.8221 -14.5609 -0.650 -0.498 0.574 37 44 8
35.0648 70.6720 -14.5751 -0.601 -0.541 0.588 45 55 21
35.1409 70.5602 -14.6001 -0.601 -0.541 0.588 53 62 31
37.4054 93.7668 -21.8334 0.030 -0.478 0.878 64 71 38
35.8406 70.9816 -15.1839 -0.595 -0.789 0.149 64 69 37
35.9272 71.0049 -15.2491 -0.602 -0.784 0.151 42 48 14
36.0077 70.9466 -15.2902 -0.620 -0.769 0.157 51 56 24
36.0944 70.9667 -15.3546 -0.162 -0.923 -0.349 49 54 22
36.1585 70.7015 -15.3338 -0.326 -0.796 -0.510 62 67 35
36.2690 71.0157 -15.4866 -0.943 -0.320 0.087 67 72 40
37.1804 71.5232 -16.2370 -0.882 -0.042 0.470 85 93 40
23.5706 75.1490 -7.8940 -0.763 -0.645 0.041 47 65 40
23.6230 75.2933 -7.9657 -0.820 -0.481 0.311 60 76 44
23.7598 74.7748 -7.9319 -0.442 -0.890 -0.113 74 92 49
23.8311 74.7700 -7.9798 -0.628 -0.761 -0.162 70 88 41
34.8520 70.8785 -14.6063 -0.648 -0.761 0.004 59 67 28
34.9299 70.7901 -14.6381 -0.644 -0.765 -0.004 37 44 9
35.0091 70.7236 -14.6762 -0.644 -0.765 -0.004 39 48 16
35.0882 70.6572 -14.7143 -0.644 -0.765 -0.004 48 57 28
35.7839 71.0154 -15.2816 -0.696 -0.715 -0.068 63 69 35
35.8640 70.9499 -15.3205 -0.437 -0.867 -0.239 42 48 14
35.9465 70.9186 -15.3697 -0.435 -0.866 -0.245 50 55 23
36.0405 71.0349 -15.4631 -0.162 -0.921 -0.353 50 55 23
36.1119 70.8574 -15.4684 -0.389 -0.778 -0.493 61 66 34
37.1279 71.5988 -16.3508 -0.883 -0.055 0.467 85 94 43
37.1787 71.2138 -16.2907 -0.878 -0.031 0.478 114 123 66
23.4980 75.2292 -7.9856 -0.755 -0.656 0.006 47 65 41
23.5552 75.3365 -8.0517 -0.809 -0.399 0.432 60 76 46
23.7600 74.8439 -8.0704 -0.620 -0.767 -0.163 68 85 41
21.6861 93.4359 -11.2675 -0.859 -0.080 0.506 81 98 53
34.7193 71.0500 -14.6846 -0.810 -0.535 -0.239 62 70 29
34.7960 70.9342 -14.7087 -0.810 -0.529 -0.253 59 67 27
34.8732 70.8290 -14.7358 -0.810 -0.529 -0.253 43 50 16
34.9491 70.7057 -14.7575 -0.807 -0.531 -0.258 36 45 14
35.0257 70.5961 -14.7830 -0.806 -0.532 -0.260 51 60 32
35.7379 71.1987 -15.4242 -0.606 -0.781 -0.150 61 67 31
35.8190 71.1439 -15.4665 -0.606 -0.781 -0.150 51 57 23
35.8979 71.0601 -15.5000 -0.332 -0.927 -0.174 51 57 23
35.9867 71.1066 -15.5728 -0.170 -0.920 -0.354 51 56 24
36.0627 70.9849 -15.5950 -0.392 -0.775 -0.495 58 64 30
37.1230 71.2541 -16.3933 -0.907 -0.001 0.421 107 116 59
23.3915 75.5678 -8.1190 -0.803 -0.405 0.437 46 64 41
23.4876 75.3765 -8.1375 -0.802 -0.404 0.439 60 76 47
23.6110 74.9712 -8.1210 -0.568 -0.785 -0.247 75 91 52
34.7448 71.0784 -14.8370 -0.854 -0.471 -0.224 59 67 25
34.8204 70.9401 -14.8546 -0.843 -0.478 -0.247 47 55 18
34.8952 70.7927 -14.8693 -0.822 -0.510 -0.253 37 44 15
34.9717 70.6777 -14.8932 -0.817 -0.513 -0.263 56 61 39
35.6829 71.2621 -15.5314 -0.606 -0.781 -0.150 59 65 29
35.7641 71.2071 -15.5737 -0.606 -0.781 -0.150 55 61 27
35.8415 71.0991 -15.6000 -0.332 -0.927 -0.174 52 58 24
35.9287 71.1257 -15.6670 -0.166 -0.918 -0.360 51 57 23
36.0149 71.1342 -15.7287 -0.166 -0.918 -0.360 57 63 29
36.1119 71.2809 -15.8326 -0.016 -0.998 0.065 65 71 37
37.0640 71.2601 -16.4852 -0.935 -0.026 0.353 99 107 53
23.3301 75.5577 -8.1970 -0.750 -0.413 0.516 45 63 40
23.4061 75.5221 -8.2406 -0.790 -0.416 0.451 56 73 44
23.5335 75.0897 -8.2193 -0.532 -0.829 -0.173 71 87 48
21.4557 93.9890 -11.5656 -0.860 -0.082 0.503 80 97 52
34.7685 71.0742 -14.9805 -0.827 -0.507 -0.245 51 58 22
34.8444 70.9388 -14.9987 -0.822 -0.510 -0.253 39 45 17
34.9212 70.8246 -15.0230 -0.817 -0.513 -0.263 55 60 39
35.6277 71.3257 -15.6389 -0.606 -0.781 -0.150 59 65 29
35.7098 71.2804 -15.6843 -0.619 -0.780 -0.093 55 61 27
35.7858 71.1514 -15.7043 -0.423 -0.904 -0.057 52 58 24
35.8730 71.1765 -15.7710 -0.166 -0.918 -0.360 51 57 23
35.9592 71.1851 -15.8328 -0.166 -0.918 -0.360 57 63 29
36.0499 71.2498 -15.9120 -0.085 -0.994 0.067 65 71 37
36.7632 71.4930 -16.4674 -0.518 -0.855 0.031 69 75 41
23.2763 75.4908 -8.2657 -0.755 -0.425 0.499 41 59 36
23.3725 75.3013 -8.2840 -0.788 -0.291 0.543 51 68 39
23.4807 75.0175 -8.2866 -0.601 -0.797 -0.059 65 83 42
23.5431 75.0831 -8.3466 -0.730 -0.535 0.425 67 85 38
21.3241 94.3882 -11.7364 -0.875 -0.087 0.476 76 93 48
34.7213 71.2988 -15.1334 -0.923 -0.171 0.346 54 62 26
34.7884 70.9978 -15.1031 -0.923 -0.171 0.346 39 44 19
35.8114 71.1495 -15.8514 -0.246 -0.944 -0.222 51 57 23
36.6978 71.4312 -16.5381 -0.529 -0.846 0.062 69 75 41
36.8895 71.6157 -16.7182 -0.887 -0.427 0.178 72 80 36
23.2262 75.3968 -8.3299 -0.779 -0.442 0.444 41 59 36
23.2979 75.3920 -8.3785 -0.778 -0.318 0.541 49 67 38
23.4193 75.0110 -8.3647 -0.591 -0.806 -0.038 65 83 42
23.4929 74.9898 -8.4104 -0.717 -0.595 0.362 67 85 38
21.6217 92.1178 -11.5199 -0.883 -0.142 0.448 71 88 43
34.7359 71.1247 -15.2278 -0.923 -0.152 0.353 39 44 19
23.1591 75.4297 -8.4149 -0.779 -0.442 0.444 41 59 36
23.3536 75.0365 -8.4483 -0.762 -0.532 0.368 64 82 43
23.4383 74.9313 -8.4799 -0.761 -0.527 0.377 68 85 41
34.6797 71.1905 -15.3349 -0.917 -0.081 0.391 40 46 20
23.0919 75.4626 -8.5001 -0.779 -0.442 0.444 40 55 34
23.2862 75.0737 -8.5339 -0.762 -0.532 0.368 63 80 43
23.3749 74.9397 -8.5607 -0.795 -0.434 0.423 67 84 41
21.3845 92.7271 -11.8285 -0.880 -0.118 0.460 72 89 45
34.6280 71.3437 -15.4683 -0.872 -0.008 0.489 44 50 22
36.7068 71.5920 -16.9832 -0.929 -0.333 0.162 73 79 38
36.8458 71.1853 -16.9737 -0.918 0.032 0.396 108 117 61
23.0364 75.4082 -8.5708 -0.679 -0.525 0.513 36 51 30
23.1232 75.2929 -8.6010 -0.678 -0.528 0.511 42 58 33
23.2236 75.0746 -8.6135 -0.667 -0.596 0.447 57 73 38
23.3141 74.9284 -8.6381 -0.727 -0.496 0.475 62 79 38
23.3905 74.8860 -8.6804 -0.748 -0.449 0.489 68 84 45
21.2681 93.0065 -11.9798 -0.880 -0.118 0.460 73 90 48
