ply
format ascii 1.0
element vertex 873
property float x
property float y
property float z
property float nx
property float ny
property float nz
property uchar diffuse_red
property uchar diffuse_green
property uchar diffuse_blue
end_header
22.1073 76.1627 -21.3260 -0.633 -0.265 0.727 69 74 43
22.1922 76.1106 -21.3845 -0.447 -0.298 0.843 78 84 46
22.5693 75.1376 -21.3494 0.013 0.112 0.994 144 151 107
22.6789 74.5480 -21.2174 0.322 -0.106 0.941 179 186 143
22.7743 74.2378 -21.1831 0.218 -0.317 0.923 199 206 162
23.0243 74.0739 -21.3510 0.034 -0.999 -0.012 147 157 95
23.1005 74.1906 -21.4685 0.052 -0.998 -0.025 115 125 62
23.1816 74.1971 -21.5467 -0.095 -0.995 0.042 98 108 47
24.1712 74.1742 -22.4604 -0.740 -0.493 0.458 85 94 40
24.2536 74.2152 -22.5536 -0.828 -0.506 0.240 89 98 45
24.8569 73.2576 -22.7356 0.158 -0.965 -0.208 106 114 65
24.9380 73.4302 -22.8799 0.586 -0.735 0.340 105 113 64
27.5136 72.8279 -25.0424 0.020 -0.866 0.500 105 115 55
35.0415 63.1550 -28.2184 -0.205 -0.925 -0.320 125 133 74
35.1003 62.9620 -28.1965 -0.679 -0.672 -0.294 125 133 74
40.4769 71.8925 -36.7596 -0.370 0.244 0.897 102 107 49
50.8324 82.6371 -50.6867 0.679 -0.726 -0.110 78 86 35
51.4145 82.9913 -51.3703 -0.164 -0.986 0.029 71 77 39
51.5371 82.8966 -51.4470 -0.187 -0.973 0.137 69 75 39
51.6541 82.7861 -51.5122 -0.230 -0.968 0.103 65 69 41
51.8028 82.3220 -51.4665 -0.929 -0.103 0.356 49 53 26
51.9224 82.2206 -51.5376 -0.096 -0.011 0.995 42 46 19
51.9787 81.9410 -51.4790 -0.013 0.001 1.000 34 38 11
52.6982 70.4590 -47.5869 0.409 -0.457 0.790 55 60 30
51.7062 67.5266 -45.4965 0.134 -0.860 0.492 61 67 31
17.9341 77.7473 -18.2308 -0.892 -0.447 0.070 31 35 20
18.0330 77.5481 -18.2436 -0.892 -0.447 0.070 38 42 25
18.1235 77.4224 -18.2779 -0.888 -0.443 0.120 44 49 28
18.1874 77.5368 -18.3833 -0.041 -0.820 -0.571 48 54 29
18.3219 77.7138 -18.5798 -0.153 -0.784 -0.602 48 55 24
21.5839 76.7456 -21.2409 -0.179 -0.254 0.951 22 26 10
21.8490 76.4239 -21.3600 -0.563 -0.250 0.788 59 65 38
21.9435 76.2066 -21.3614 -0.563 -0.250 0.788 80 86 55
22.1309 75.7796 -21.3657 -0.439 -0.100 0.893 95 102 58
22.2270 75.5121 -21.3485 -0.439 -0.100 0.893 111 119 70
22.3270 75.1595 -21.3009 -0.125 -0.035 0.992 141 149 99
22.9349 74.3471 -21.5440 -0.597 -0.696 -0.398 108 118 54
23.4199 74.5048 -22.0603 -0.360 -0.704 -0.612 157 165 116
24.3580 73.5482 -22.5543 0.344 -0.742 0.575 81 89 40
24.6094 73.4541 -22.7516 0.372 -0.756 0.539 108 116 67
24.6930 73.4498 -22.8280 0.376 -0.757 0.534 99 107 58
24.7793 73.2826 -22.8417 0.155 -0.967 -0.203 98 106 57
24.9456 73.3473 -23.0231 0.155 -0.967 -0.203 164 170 122
26.9996 72.9471 -24.7825 -0.027 -0.996 -0.089 100 109 57
27.0874 72.9607 -24.8699 -0.084 -0.994 0.065 105 114 59
27.1756 72.9857 -24.9623 -0.093 -0.993 0.067 106 116 57
27.2630 72.9665 -25.0364 -0.338 -0.932 0.128 105 115 55
34.7393 62.8420 -27.9730 -0.659 -0.694 0.290 130 139 82
34.8738 63.1088 -28.2054 -0.357 -0.871 -0.338 128 137 80
34.9514 63.0275 -28.2454 -0.372 -0.864 -0.340 123 131 72
40.3126 71.5277 -36.6559 -0.410 0.236 0.881 102 107 49
50.6922 82.5058 -50.7475 0.716 -0.693 -0.084 76 83 37
51.2903 82.9111 -51.4686 0.035 -0.999 -0.016 69 74 40
51.4206 82.8390 -51.5614 -0.184 -0.976 0.115 66 71 39
51.5862 82.8694 -51.7284 -0.893 -0.426 0.144 60 64 40
51.7239 82.3712 -51.6578 -0.929 -0.103 0.356 40 43 20
51.8134 82.1836 -51.6664 -0.125 0.007 0.992 31 35 12
51.7386 67.7796 -45.8344 0.250 -0.830 0.498 59 65 31
51.7375 67.4617 -45.7062 0.276 -0.832 0.481 58 64 28
51.7423 67.1599 -45.5900 0.045 -0.407 0.912 59 65 29
17.9305 77.7529 -18.3970 -0.882 -0.466 0.073 36 40 23
18.0183 77.6539 -18.4394 -0.873 -0.474 0.117 40 45 24
18.2247 77.8749 -18.7217 -0.146 -0.784 -0.603 48 55 23
21.4223 76.7425 -21.2602 0.148 -0.237 0.960 25 30 10
21.5125 76.6088 -21.2908 -0.179 -0.254 0.951 35 41 16
22.1888 74.7691 -21.1834 -0.259 -0.956 -0.135 156 165 111
22.3693 74.4040 -21.2055 -0.262 -0.886 -0.383 176 185 132
22.4519 74.3633 -21.2664 -0.263 -0.885 -0.383 169 177 125
23.7725 73.9689 -22.3443 0.224 -0.974 0.030 74 82 33
23.8572 73.8980 -22.3951 0.174 -0.985 -0.021 71 79 30
24.2017 73.3882 -22.5124 0.502 -0.859 0.098 74 82 35
24.2839 73.4062 -22.5967 0.435 -0.864 0.255 93 101 54
24.3666 73.4150 -22.6776 0.306 -0.787 0.536 107 115 66
24.4532 73.2453 -22.6904 -0.143 -0.986 -0.089 106 114 65
24.5352 73.2927 -22.7863 -0.065 -0.997 0.041 101 109 60
24.6180 73.3162 -22.8733 -0.053 -0.999 -0.008 119 127 78
24.7014 73.3133 -22.9503 -0.031 -0.999 0.005 165 173 124
34.5385 63.1456 -28.0684 0.437 -0.799 0.412 123 132 75
34.6288 63.1434 -28.1520 0.451 -0.531 0.717 122 131 74
34.7186 63.1373 -28.2337 0.434 -0.538 0.722 123 132 75
34.8163 63.1782 -28.3417 0.428 -0.557 0.711 121 130 73
34.9164 63.2319 -28.4570 0.415 -0.611 0.674 115 123 64
51.1886 82.8966 -51.6141 0.043 -0.999 -0.011 54 59 29
51.3390 82.8835 -51.7496 -0.149 -0.979 0.138 48 53 25
51.5347 83.0012 -51.9803 -0.899 -0.415 0.141 32 35 15
51.6869 82.5416 -51.9378 -0.933 -0.119 0.340 32 35 16
51.8410 67.8775 -46.1774 -0.098 -0.832 0.546 57 63 27
51.9309 67.7667 -46.2170 0.093 -0.661 0.745 57 63 27
52.0139 67.6407 -46.2440 0.148 -0.645 0.749 63 69 33
52.0438 67.3952 -46.1732 -0.154 -0.976 -0.155 64 70 34
52.1303 67.2785 -46.2071 -0.171 -0.970 -0.171 64 70 34
17.8232 77.9955 -18.5623 -0.778 -0.599 0.188 33 37 20
17.9179 77.8386 -18.5877 -0.805 -0.480 0.349 36 41 20
18.1394 77.9249 -18.8305 0.431 -0.865 -0.256 49 56 24
23.6160 73.8606 -22.3228 0.156 -0.988 0.011 69 76 34
23.7817 73.8291 -22.4656 0.141 -0.990 -0.009 73 80 36
24.2081 73.3454 -22.6697 0.344 -0.929 0.137 109 117 68
24.2917 73.3109 -22.7342 -0.514 -0.856 -0.049 115 123 74
24.3760 73.2466 -22.7872 -0.504 -0.860 -0.078 123 131 82
24.4576 73.3067 -22.8882 -0.133 -0.986 0.097 171 179 130
24.7083 73.2673 -23.1075 0.295 -0.815 0.499 228 234 187
25.5517 73.3311 -23.9248 0.344 -0.740 0.578 106 116 66
34.3901 63.2151 -28.1194 -0.228 -0.967 -0.110 126 135 78
34.4969 63.3193 -28.2619 -0.212 -0.952 -0.222 120 129 72
34.5726 63.2236 -28.2941 -0.266 -0.961 -0.074 119 128 71
37.2337 64.8451 -31.4486 0.717 -0.696 -0.043 112 118 58
51.0875 82.8843 -51.7612 0.210 -0.977 0.024 48 52 25
51.4636 83.0773 -52.1925 -0.911 -0.396 0.119 32 35 18
52.2609 67.4348 -46.6008 0.190 -0.888 0.418 61 67 31
16.2184 80.9349 -18.4209 -0.005 -0.996 -0.091 59 70 40
16.5002 80.5662 -18.5355 -0.112 -0.725 0.680 40 49 28
21.7888 74.8214 -21.1656 0.417 -0.893 0.166 162 172 122
22.0320 74.7813 -21.3780 -0.564 -0.825 -0.012 143 153 93
22.1144 74.7497 -21.4425 -0.534 -0.845 -0.007 124 134 74
22.1839 74.9549 -21.5916 -0.378 -0.764 -0.523 111 120 63
22.7474 75.1149 -22.1868 0.176 -0.973 0.148 133 143 80
22.8293 75.1246 -22.2679 0.173 -0.973 0.152 98 108 48
22.9118 75.1270 -22.3464 0.173 -0.973 0.152 76 85 28
22.9968 75.0722 -22.4040 0.116 -0.911 0.396 77 86 33
23.0893 74.8374 -22.3951 0.064 -0.769 0.636 79 87 38
23.3712 73.9424 -22.2952 -0.383 -0.899 -0.211 67 74 30
23.5420 73.7537 -22.3789 -0.565 -0.825 0.004 70 76 38
23.6247 73.7366 -22.4496 -0.558 -0.825 0.085 72 79 38
23.7105 73.6270 -22.4856 -0.598 -0.750 0.282 83 90 49
23.7954 73.5423 -22.5309 -0.598 -0.750 0.282 92 99 58
24.1297 73.3861 -22.7816 -0.512 -0.856 -0.070 121 129 80
24.6302 73.3073 -23.2201 0.071 -0.996 -0.049 124 132 83
24.7958 73.4176 -23.4209 -0.155 -0.983 -0.103 121 127 79
26.2445 72.8247 -24.5414 0.260 -0.524 0.811 98 106 57
26.5854 72.4126 -24.6939 -0.137 -0.243 0.960 107 115 66
33.9365 63.0479 -27.7869 -0.259 -0.882 -0.393 129 137 78
34.0544 63.2391 -27.9759 -0.289 -0.878 -0.380 123 132 75
34.1561 63.3169 -28.1032 -0.753 -0.649 0.111 123 132 75
34.2393 63.2706 -28.1625 -0.763 -0.621 0.178 123 132 75
34.4366 63.3759 -28.3911 -0.189 -0.981 0.034 116 125 68
40.0032 71.7364 -37.0368 -0.905 -0.354 -0.234 113 118 60
40.1912 71.5557 -37.1399 -0.961 -0.245 -0.131 103 108 50
50.2662 82.5532 -51.1014 0.742 -0.660 0.113 60 66 27
50.4607 82.6799 -51.3359 0.700 -0.613 0.367 56 62 26
50.6245 82.7117 -51.5029 0.702 -0.611 0.366 42 47 15
50.8027 82.7847 -51.7002 0.698 -0.598 0.394 40 45 17
50.9402 82.7352 -51.8094 0.277 -0.960 0.027 38 42 19
53.6861 75.7081 -51.5252 0.780 -0.160 0.606 31 33 19
16.1349 80.9405 -18.5182 -0.153 -0.980 -0.132 65 76 46
16.2142 80.9302 -18.5887 -0.068 -0.994 -0.087 51 62 33
16.5325 80.2814 -18.6223 -0.380 -0.910 0.167 38 46 27
20.6788 76.9616 -21.1668 -0.312 -0.947 -0.079 28 35 26
20.7717 76.8003 -21.1882 -0.342 -0.936 -0.080 33 41 31
21.6159 75.0567 -21.2678 0.492 -0.595 0.635 147 157 105
21.7050 74.9136 -21.2930 0.314 -0.878 0.361 146 156 103
21.8642 74.9373 -21.4528 0.188 -0.911 0.368 124 134 76
22.6723 75.0351 -22.2545 0.338 -0.893 0.298 73 83 22
22.7482 75.1721 -22.3823 0.326 -0.876 0.357 79 89 31
22.8416 74.9308 -22.3713 0.115 -0.842 0.528 81 90 34
23.0510 73.8809 -22.1376 -0.761 -0.431 0.484 67 75 27
23.2227 73.6635 -22.2101 0.275 -0.934 0.229 64 71 28
23.3066 73.6007 -22.2634 0.297 -0.927 0.229 67 74 33
23.3856 73.6701 -22.3664 0.295 -0.929 0.225 73 80 41
24.0502 73.4608 -22.9068 -0.492 -0.805 -0.331 209 217 167
24.6338 73.4378 -23.4473 -0.587 -0.784 -0.201 140 146 100
24.9706 73.4275 -23.7605 -0.156 -0.983 0.092 177 184 136
25.0550 73.4431 -23.8465 0.009 -0.974 0.228 110 116 69
25.1405 73.3764 -23.8996 0.496 -0.829 0.258 60 67 19
25.9957 73.0692 -24.5795 -0.209 -0.972 -0.110 100 110 59
26.2491 72.2364 -24.4764 0.284 -0.102 0.953 105 114 62
33.9769 63.1815 -28.0414 -0.413 -0.808 -0.420 121 130 73
40.0243 71.6818 -37.2309 -0.829 -0.377 -0.412 106 111 53
40.1456 71.7120 -37.3575 -0.826 -0.372 -0.423 103 108 50
48.2794 79.4350 -48.1942 0.315 -0.870 0.379 74 79 36
48.4645 79.5644 -48.4218 0.394 -0.831 0.393 74 79 36
48.5928 79.5132 -48.5217 0.103 -0.910 0.401 74 79 37
49.8602 82.0700 -50.7660 0.563 -0.824 0.064 62 67 32
50.1155 82.3879 -51.1371 0.575 -0.816 0.050 53 59 25
50.3414 82.6117 -51.4419 0.566 -0.822 0.057 47 52 20
50.5330 82.7279 -51.6702 0.566 -0.822 0.057 31 35 7
50.6651 82.6632 -51.7681 0.694 -0.610 0.382 31 35 10
53.7107 75.2440 -51.5921 0.777 -0.154 0.610 35 37 24
16.1333 80.9154 -18.6804 -0.247 -0.969 0.023 53 67 31
16.4314 80.4265 -18.7598 -0.470 -0.871 0.145 39 48 27
17.9057 77.8688 -19.0952 0.322 -0.918 -0.233 45 53 29
17.9655 78.0229 -19.2154 0.499 -0.831 -0.244 46 54 30
18.0291 78.1474 -19.3269 0.502 -0.831 -0.239 45 53 27
20.6888 76.8373 -21.2974 -0.583 -0.785 0.211 63 74 46
21.0940 75.6924 -21.2070 0.149 -0.119 0.982 118 128 80
21.5434 74.9645 -21.3306 -0.192 -0.978 0.082 144 156 95
21.6988 75.0445 -21.5104 -0.620 -0.595 -0.511 107 117 62
22.3476 75.0374 -22.1202 0.472 -0.879 0.074 98 105 59
22.5168 74.9248 -22.2335 0.302 -0.904 0.303 84 92 45
22.9827 73.6663 -22.1534 0.138 -0.919 0.370 68 75 34
23.0680 73.5684 -22.1935 0.197 -0.915 0.353 67 74 34
23.1483 73.5896 -22.2781 0.613 -0.730 0.302 67 73 37
23.8764 73.9197 -23.1021 0.486 -0.874 0.021 236 243 190
24.7227 73.5095 -23.7319 -0.141 -0.987 -0.074 155 162 121
24.8080 73.4461 -23.7863 0.051 -0.822 0.567 108 117 73
24.8928 73.4157 -23.8538 0.073 -0.812 0.578 61 69 27
24.9778 73.3774 -23.9183 0.073 -0.812 0.578 51 59 19
25.1478 73.3306 -24.0594 -0.234 -0.947 0.220 65 74 31
34.1563 63.6395 -28.5625 -0.920 -0.143 0.365 117 122 66
36.1126 63.1526 -30.2088 0.625 -0.706 -0.333 92 100 42
36.2444 63.3493 -30.4146 0.633 -0.702 -0.326 92 100 42
36.4205 63.7743 -30.7566 0.677 -0.689 -0.258 91 99 41
36.5691 64.0469 -31.0096 0.657 -0.699 -0.281 91 99 42
40.0144 72.0023 -37.5510 -0.822 -0.382 -0.422 105 110 54
46.9368 77.2191 -46.2445 -0.098 -0.931 0.352 78 86 33
48.5603 81.5666 -49.5745 -0.553 -0.833 0.028 80 87 41
49.5166 81.7694 -50.5614 0.695 -0.712 0.100 49 52 33
49.6739 81.7915 -50.7191 0.582 -0.804 0.121 43 46 27
49.9611 82.2104 -51.1635 0.652 -0.359 0.668 34 37 18
50.1965 82.4651 -51.4911 0.721 -0.519 0.459 28 31 12
53.1931 72.4350 -50.1762 0.612 -0.119 0.782 31 35 17
53.2781 72.2875 -50.1955 0.661 -0.131 0.739 34 39 18
16.0430 80.9711 -18.7925 -0.308 -0.946 -0.105 56 71 30
17.3977 78.8798 -19.2048 -0.771 -0.294 0.565 29 36 18
17.5041 78.6372 -19.2046 -0.784 -0.284 0.552 28 35 17
17.6014 78.4684 -19.2265 -0.727 -0.430 0.536 34 42 21
17.7199 78.1159 -19.1920 -0.813 -0.266 0.517 39 47 26
17.8124 77.9832 -19.2244 0.347 -0.904 -0.250 42 50 27
17.9471 78.1604 -19.4256 0.551 -0.815 -0.180 45 54 28
19.8421 77.3543 -20.8838 0.281 -0.900 -0.332 16 23 16
20.2496 77.2919 -21.2435 -0.742 -0.178 0.646 32 38 23
20.3454 77.1041 -21.2561 -0.716 -0.214 0.664 50 58 37
20.9511 75.4693 -21.1493 0.072 -0.088 0.994 128 139 82
21.5335 75.1447 -21.5656 -0.574 -0.621 -0.533 98 109 50
21.6155 75.1199 -21.6329 -0.575 -0.627 -0.526 93 103 50
21.6962 75.1176 -21.7083 -0.614 -0.620 -0.489 99 107 58
21.7683 75.2602 -21.8358 -0.472 -0.717 -0.513 108 115 71
21.8413 75.3957 -21.9613 -0.469 -0.728 -0.500 116 123 80
22.1951 74.8918 -22.0866 0.681 -0.692 0.239 91 98 56
22.6129 74.6970 -22.4010 -0.889 -0.267 0.372 61 68 29
22.7117 74.3399 -22.3459 -0.791 -0.191 0.582 66 73 32
22.8104 73.9670 -22.2843 -0.796 -0.251 0.551 68 75 34
22.8996 73.7912 -22.2955 -0.736 -0.438 0.516 64 71 30
22.9925 73.5227 -22.2718 0.195 -0.917 0.349 72 78 40
23.5532 73.8178 -22.9252 0.424 -0.906 0.015 207 214 163
23.6338 73.8739 -23.0248 0.417 -0.909 0.013 238 245 191
23.7155 73.9100 -23.1171 0.417 -0.909 0.013 188 196 139
23.7974 73.9447 -23.2091 0.336 -0.941 -0.041 152 160 103
24.4749 73.5870 -23.7016 -0.591 -0.780 -0.205 165 171 135
24.5600 73.5349 -23.7604 -0.141 -0.987 -0.074 115 123 84
24.6456 73.4551 -23.8082 -0.084 -0.905 0.416 61 69 28
24.7305 73.4125 -23.8709 -0.126 -0.911 0.393 44 55 13
25.6663 73.7753 -24.9074 0.017 -0.788 0.616 104 113 60
35.9333 63.0707 -30.1722 0.623 -0.780 -0.054 87 92 38
36.0373 63.1231 -30.2924 0.624 -0.706 -0.335 97 105 48
36.3405 63.7243 -30.8293 0.674 -0.691 -0.262 96 104 47
40.0140 72.3697 -37.9019 -0.821 -0.384 -0.422 105 110 54
48.4131 81.3985 -49.6063 -0.617 -0.787 -0.013 73 80 37
48.5314 81.3054 -49.6795 -0.418 -0.908 -0.030 72 78 42
48.6381 81.1751 -49.7263 -0.413 -0.910 -0.040 65 70 41
48.7883 81.1839 -49.8721 -0.174 -0.978 0.117 58 62 40
49.2034 81.5573 -50.4203 0.654 -0.745 0.129 43 45 32
49.3765 81.6314 -50.6149 0.692 -0.715 0.099 43 45 31
49.5492 81.7019 -50.8077 0.531 -0.847 0.035 39 41 27
15.9520 81.0297 -18.9056 -0.388 -0.912 -0.135 63 78 35
17.3999 78.8316 -19.3588 -0.628 -0.393 0.671 29 36 18
18.2192 78.5062 -19.9996 0.361 -0.898 -0.250 15 23 9
19.9845 77.5668 -21.2807 -0.085 -0.095 0.992 21 31 10
20.0787 77.4063 -21.3028 -0.120 -0.088 0.989 41 49 27
20.2826 76.8846 -21.2779 -0.612 -0.108 0.784 66 76 42
21.5222 75.3476 -21.8101 -0.611 -0.623 -0.488 107 117 65
21.6048 75.3183 -21.8762 -0.611 -0.623 -0.488 121 128 84
23.2316 73.7405 -22.7586 0.619 -0.731 0.288 159 165 116
23.3139 73.7323 -22.8332 0.457 -0.880 0.129 208 216 162
23.3953 73.7486 -22.9173 0.286 -0.943 -0.173 238 245 190
23.4764 73.7830 -23.0086 0.250 -0.953 -0.173 205 213 155
23.5559 73.8693 -23.1201 0.368 -0.927 -0.069 161 169 109
23.6373 73.9086 -23.2138 0.368 -0.927 -0.069 114 122 63
23.7199 73.9209 -23.2972 0.336 -0.941 -0.041 102 110 53
23.8861 73.9286 -23.4581 -0.055 -0.969 0.242 132 140 91
23.9699 73.9153 -23.5320 -0.291 -0.814 0.503 175 183 135
24.0552 73.8514 -23.5862 -0.288 -0.811 0.510 224 231 186
24.1401 73.8049 -23.6473 -0.306 -0.795 0.525 227 234 192
24.2268 73.6856 -23.6796 -0.606 -0.782 -0.146 171 178 137
24.3101 73.7089 -23.7683 -0.709 -0.688 0.157 115 121 82
24.3956 73.6400 -23.8206 -0.577 -0.803 -0.150 60 68 28
24.4811 73.5716 -23.8730 -0.512 -0.846 -0.149 55 63 22
25.5878 73.6456 -24.9537 -0.227 -0.519 0.824 108 117 64
35.5154 63.2218 -30.0059 -0.112 -0.984 0.136 101 105 54
40.0075 72.7138 -38.2396 -0.819 -0.384 -0.426 105 110 54
48.7424 81.3406 -50.1353 -0.125 -0.986 0.112 45 48 28
48.9350 81.4815 -50.3769 0.242 -0.963 0.118 40 42 27
53.4956 72.4966 -50.9413 0.801 -0.560 0.210 28 32 15
54.7003 73.1767 -52.3686 0.692 -0.185 0.698 52 57 27
54.7303 72.9003 -52.2813 0.715 -0.236 0.658 52 57 26
54.9816 72.7777 -52.4684 0.371 -0.927 -0.050 58 63 31
15.8570 81.1164 -19.0272 -0.389 -0.910 -0.142 71 86 42
19.8361 77.4136 -21.2493 0.209 -0.149 0.966 36 46 22
20.6018 74.8742 -20.9072 -0.107 -0.792 -0.601 119 135 72
20.8651 75.5777 -21.4538 -0.443 -0.693 -0.569 118 129 71
20.9279 75.8148 -21.6133 -0.671 -0.646 -0.364 109 119 65
21.0110 75.7771 -21.6765 -0.678 -0.659 -0.326 98 108 54
21.0931 75.7543 -21.7449 -0.782 -0.512 -0.355 90 101 47
21.1775 75.6986 -21.8017 -0.784 -0.510 -0.354 91 102 46
21.2627 75.6330 -21.8550 -0.780 -0.511 -0.361 102 112 58
22.9141 73.6235 -22.5781 0.396 -0.890 0.225 94 102 52
22.9942 73.6526 -22.6664 0.441 -0.833 0.335 141 148 95
23.0758 73.6491 -22.7425 0.425 -0.880 0.213 204 211 155
23.1565 73.6722 -22.8289 0.393 -0.915 0.091 223 230 173
23.2367 73.7132 -22.9224 0.332 -0.905 -0.266 198 206 146
23.3176 73.7423 -23.0116 0.286 -0.943 -0.173 142 151 89
23.3984 73.7799 -23.1042 0.250 -0.953 -0.173 107 116 52
23.4797 73.8137 -23.1957 0.248 -0.953 -0.173 93 102 39
23.5610 73.8517 -23.2890 0.248 -0.953 -0.173 109 117 58
23.6427 73.8859 -23.3811 -0.154 -0.974 0.166 132 140 85
23.7257 73.8886 -23.4610 -0.126 -0.976 0.176 177 185 136
23.8098 73.8597 -23.5288 -0.174 -0.968 0.181 230 237 192
23.8939 73.8336 -23.5977 -0.214 -0.956 0.200 205 212 166
23.9778 73.8163 -23.6703 -0.573 -0.799 0.185 155 162 118
24.1462 73.7793 -23.8147 -0.674 -0.703 0.225 55 62 19
24.2324 73.6833 -23.8562 -0.674 -0.703 0.225 55 62 19
24.3155 73.7190 -23.9502 -0.584 -0.797 -0.157 55 64 21
25.0963 72.1897 -24.0481 0.501 -0.646 0.576 101 110 57
33.1822 63.3003 -27.9884 0.254 -0.907 -0.336 120 127 73
35.3578 63.2548 -30.0370 0.115 -0.991 0.070 92 96 45
48.4935 81.3220 -50.1330 0.159 -0.193 0.968 38 42 19
53.8399 72.7965 -51.6228 0.876 -0.427 0.223 37 41 24
54.1328 72.7754 -51.8924 0.716 -0.237 0.656 43 48 29
15.8430 81.1798 -19.2167 -0.411 -0.907 -0.086 62 78 33
19.3053 77.1022 -20.7856 0.123 -0.989 -0.079 17 25 12
20.1086 76.0906 -21.1218 0.044 0.130 0.991 98 110 60
20.8418 75.9042 -21.7412 -0.662 -0.653 -0.367 89 99 50
20.9149 76.0059 -21.8539 -0.681 -0.661 -0.316 90 100 51
20.9981 75.9723 -21.9189 -0.683 -0.657 -0.319 97 107 58
21.0815 75.9354 -21.9827 -0.688 -0.652 -0.319 106 116 64
21.1735 75.7751 -22.0024 -0.731 -0.553 -0.400 107 117 66
21.2388 76.0065 -22.1627 0.146 -0.891 0.429 101 111 60
21.3267 75.9079 -22.2046 0.156 -0.709 0.688 89 98 51
22.6839 73.4257 -22.4449 -0.565 -0.722 -0.400 80 88 43
22.7625 73.4702 -22.5386 -0.489 -0.761 -0.425 134 142 91
22.8446 73.4457 -22.6064 -0.481 -0.761 -0.435 186 195 138
22.9213 73.5425 -22.7205 -0.474 -0.733 -0.487 204 213 151
23.0027 73.5409 -22.7973 -0.474 -0.733 -0.487 181 190 126
23.0788 73.6678 -22.9236 0.324 -0.909 -0.263 135 144 81
23.1568 73.7599 -23.0370 0.320 -0.910 -0.264 99 107 45
23.2387 73.7635 -23.1165 0.286 -0.943 -0.169 94 102 41
23.3194 73.8037 -23.2104 0.233 -0.961 -0.148 108 117 55
23.4006 73.8374 -23.3020 0.233 -0.961 -0.148 128 137 77
23.4820 73.8713 -23.3940 0.233 -0.961 -0.148 172 180 124
23.5645 73.8820 -23.4770 -0.154 -0.974 0.166 229 236 185
23.6483 73.8569 -23.5462 -0.154 -0.974 0.166 208 216 169
23.7318 73.8456 -23.6210 -0.210 -0.976 0.058 161 168 125
24.7743 71.8980 -23.7883 0.140 -0.924 0.357 98 110 62
24.8594 71.7454 -23.8046 0.101 -0.928 0.358 101 113 63
24.9456 71.4944 -23.7803 0.066 -0.958 0.278 105 115 63
34.9823 63.0954 -29.7789 0.345 -0.938 0.017 91 96 40
35.1553 63.0236 -29.9133 0.458 -0.126 0.880 92 96 45
46.2040 78.7697 -47.1124 0.200 -0.941 0.274 87 90 41
47.9702 81.3649 -49.8949 0.433 0.052 0.900 51 56 28
55.0169 72.8947 -53.0156 0.611 -0.785 -0.101 49 52 29
15.7432 81.2977 -19.3483 -0.482 -0.862 -0.158 64 80 35
15.8346 81.2029 -19.3950 -0.130 -0.948 -0.291 49 61 23
19.1236 77.3329 -20.8831 0.223 -0.971 -0.082 12 22 9
19.6186 77.1417 -21.2740 0.165 0.118 0.979 66 80 45
20.3993 75.4454 -21.2955 0.137 -0.890 -0.436 117 133 67
20.7530 76.0277 -21.8814 -0.383 -0.838 -0.389 101 110 63
20.8312 76.0598 -21.9698 -0.357 -0.859 -0.368 106 115 68
20.9194 75.9564 -22.0099 0.330 -0.882 0.335 107 116 68
21.0002 75.9572 -22.0873 0.330 -0.882 0.335 101 110 62
21.0817 75.9500 -22.1620 0.368 -0.836 0.407 91 100 52
21.1694 75.8542 -22.2049 0.381 -0.702 0.602 81 90 43
21.6591 74.5418 -22.1124 0.217 -0.976 0.006 54 61 20
21.7621 74.1749 -22.0541 0.512 -0.588 0.626 52 59 17
21.8563 73.9410 -22.0442 0.327 -0.376 0.867 57 64 23
21.9395 73.8851 -22.0998 0.327 -0.376 0.867 64 71 30
22.0793 74.2429 -22.3859 0.638 -0.726 0.257 76 84 36
22.4327 73.6749 -22.4809 -0.186 -0.807 -0.561 87 96 44
22.5161 73.6191 -22.5367 -0.485 -0.765 -0.424 126 134 84
22.5998 73.5608 -22.5917 -0.538 -0.729 -0.423 179 187 138
22.6735 73.7074 -22.7246 -0.234 -0.750 -0.618 200 209 156
22.7544 73.7145 -22.8048 -0.421 -0.760 -0.496 180 190 130
22.8343 73.7452 -22.8942 -0.101 -0.924 -0.368 132 141 77
22.9137 73.7934 -22.9905 -0.123 -0.916 -0.381 95 104 40
22.9952 73.7978 -23.0702 -0.099 -0.921 -0.377 92 100 40
23.0799 73.7315 -23.1228 0.319 -0.909 -0.269 107 115 57
23.1595 73.7891 -23.2234 0.319 -0.909 -0.269 123 130 74
23.2411 73.8049 -23.3079 0.244 -0.959 -0.144 158 166 112
23.3233 73.8102 -23.3887 0.284 -0.958 -0.035 205 212 161
23.4048 73.8377 -23.4782 0.284 -0.958 -0.035 187 193 146
24.5108 72.9816 -24.1685 0.357 -0.901 0.244 101 114 62
24.6919 72.2264 -24.0192 0.082 -0.483 0.872 101 114 61
24.7771 72.1020 -24.0475 -0.179 -0.454 0.873 100 113 60
24.8655 71.7554 -23.9840 -0.037 -0.810 0.586 105 115 62
34.7943 62.9368 -29.6982 0.259 -0.020 0.966 91 96 38
34.8731 62.8571 -29.7395 0.373 -0.090 0.924 95 100 44
39.9585 73.0964 -38.9621 -0.940 0.182 0.289 102 107 51
47.1036 80.7240 -49.0362 0.436 -0.711 0.552 69 70 38
47.3230 80.9793 -49.3546 0.567 -0.706 0.426 62 62 32
47.7814 81.0553 -49.8245 0.477 -0.015 0.879 27 30 10
15.3402 81.8967 -19.3970 -0.541 -0.827 -0.155 85 100 57
17.4398 78.3798 -19.8953 -0.704 -0.616 0.354 44 52 32
18.8290 77.1076 -20.6779 0.241 -0.968 -0.068 13 24 20
18.8981 77.2013 -20.7842 0.237 -0.968 -0.077 16 27 22
19.5654 76.8412 -21.2679 0.029 -0.058 0.998 88 103 62
20.5970 75.9726 -21.8816 -0.064 -0.889 -0.454 101 110 65
20.7633 75.8983 -22.0089 0.330 -0.882 0.335 98 107 62
20.8438 75.8991 -22.0862 0.330 -0.882 0.335 85 94 48
20.9245 75.8999 -22.1637 0.330 -0.882 0.335 80 89 45
21.0074 75.8713 -22.2307 0.360 -0.830 0.427 74 83 38
21.0985 75.7268 -22.2558 -0.096 -0.672 0.735 67 76 31
21.4006 74.8415 -22.1647 -0.030 -0.996 0.084 54 60 22
21.5163 74.3010 -22.0432 0.269 -0.159 0.950 54 60 21
22.1976 73.6117 -22.3990 -0.174 -0.792 -0.585 77 86 31
22.2652 73.8450 -22.5638 0.426 -0.373 0.824 120 129 76
22.3487 73.7915 -22.6207 -0.186 -0.807 -0.561 159 168 112
22.6678 73.8920 -22.9691 -0.419 -0.757 -0.501 92 102 42
22.7454 73.9757 -23.0792 -0.433 -0.781 -0.450 87 96 34
22.8265 73.9908 -23.1633 -0.429 -0.783 -0.451 104 112 53
22.9097 73.9613 -23.2302 -0.433 -0.782 -0.448 125 132 77
24.8072 76.0299 -25.9334 -0.231 -0.851 0.472 114 123 68
24.8981 75.8597 -25.9472 -0.427 -0.670 0.607 114 123 68
31.9781 62.2400 -26.8715 -0.750 -0.662 -0.011 124 129 73
34.2399 63.3499 -29.5115 0.504 -0.631 0.590 115 120 62
34.4084 63.2558 -29.6322 0.164 0.045 0.985 105 110 52
34.5044 63.2829 -29.7357 -0.239 0.207 0.949 101 106 48
46.6476 80.4654 -48.7282 0.653 -0.747 0.125 67 68 32
46.8171 80.5576 -48.9299 0.650 -0.748 0.134 60 61 28
46.9456 80.5071 -49.0311 0.439 -0.727 0.529 55 55 26
47.1370 80.6699 -49.2840 0.535 -0.702 0.470 47 47 21
47.4526 80.7601 -49.6247 0.651 -0.561 0.512 30 32 16
54.5478 72.5733 -52.8962 0.242 -0.939 0.244 40 43 26
15.6294 81.4740 -19.6701 -0.149 -0.938 -0.314 62 75 35
17.4489 78.2738 -20.0315 -0.711 -0.619 0.332 49 57 32
18.0831 78.1932 -20.6045 -0.660 -0.214 0.721 22 27 29
18.4378 77.8263 -20.7859 -0.038 -0.238 0.970 13 24 20
18.9777 77.9817 -21.3706 -0.093 0.082 0.992 50 61 32
19.6459 75.9504 -21.1334 -0.472 -0.763 0.441 110 124 76
20.3777 75.7165 -21.7338 -0.320 -0.907 -0.273 104 115 67
20.9364 75.7483 -22.2831 -0.103 -0.659 0.745 57 66 24
21.0241 75.6507 -22.3250 -0.096 -0.663 0.742 53 61 19
31.7422 62.2533 -26.8101 -0.074 -0.803 0.591 128 138 77
31.8425 62.3948 -26.9674 -0.754 -0.656 -0.006 125 133 74
32.0984 63.1455 -27.5370 -0.223 -0.915 0.336 122 127 71
32.1921 63.2066 -27.6532 -0.170 -0.959 0.228 121 126 70
32.2706 63.1355 -27.6978 0.364 -0.709 0.604 119 124 68
33.9839 63.3247 -29.4218 0.416 -0.714 0.563 115 120 64
34.0697 63.2896 -29.4888 0.501 -0.644 0.578 114 119 63
34.1596 63.2815 -29.5715 0.500 -0.652 0.570 105 110 52
34.2463 63.2516 -29.6417 0.387 -0.617 0.686 99 104 46
34.3047 63.0372 -29.6050 0.164 0.045 0.985 91 96 38
34.3959 63.0366 -29.6922 -0.243 0.209 0.947 84 89 31
39.8482 72.8182 -39.1447 -0.914 0.222 0.339 98 103 47
54.4387 72.5208 -53.0018 0.220 -0.957 0.188 37 39 25
15.5330 81.5616 -19.7939 -0.158 -0.936 -0.315 67 82 42
17.7133 78.6554 -20.6247 0.365 -0.893 -0.262 30 38 17
17.9955 78.2491 -20.7191 -0.669 -0.239 0.704 21 27 24
18.3181 77.4567 -20.6844 -0.666 -0.637 -0.389 13 23 16
18.3585 77.8094 -20.8766 -0.474 -0.460 0.751 14 24 17
19.5646 75.9700 -21.2354 -0.456 -0.874 0.167 114 126 79
20.2135 75.7793 -21.7758 -0.324 -0.908 -0.265 103 112 61
20.2982 75.7163 -21.8298 -0.253 -0.966 -0.057 97 105 61
21.7939 73.7524 -22.4126 -0.176 -0.792 -0.585 94 104 53
31.5213 62.4031 -26.8220 0.208 -0.874 0.440 118 127 64
31.5978 62.3282 -26.8629 -0.112 -0.699 0.706 118 127 64
31.6795 62.3018 -26.9299 -0.057 -0.830 0.555 117 126 63
31.7867 62.5074 -27.1223 -0.699 -0.695 0.168 117 125 65
32.0343 63.1898 -27.6568 -0.236 -0.884 0.404 114 122 63
33.8931 63.1828 -29.4393 0.325 -0.855 0.405 102 107 51
33.9791 63.1507 -29.5079 0.328 -0.852 0.407 95 100 44
34.0737 63.1757 -29.6097 0.310 -0.859 0.408 81 89 30
34.1551 63.1115 -29.6600 0.275 -0.944 0.183 88 96 37
39.8341 73.1394 -39.4750 -0.918 0.220 0.329 99 104 48
46.2911 80.3759 -48.8238 0.636 -0.607 0.476 45 48 29
46.4513 80.4392 -49.0052 0.638 -0.602 0.479 37 39 20
54.8734 71.6388 -53.2689 -0.513 -0.094 0.853 48 51 33
55.2247 71.7344 -53.6479 -0.268 -0.174 0.947 52 55 35
17.2667 78.4364 -20.2744 -0.742 -0.580 0.336 40 48 25
17.6137 78.8079 -20.7710 0.545 -0.838 0.022 40 49 20
17.6653 79.0445 -20.9241 0.529 -0.847 -0.051 28 36 14
17.8906 78.4556 -20.8834 -0.686 -0.402 0.606 17 24 17
18.0033 78.1534 -20.8597 -0.670 -0.409 0.620 16 23 15
18.2093 77.7128 -20.8651 -0.665 -0.638 -0.388 17 27 14
18.2636 77.9355 -21.0149 -0.728 -0.658 -0.194 19 29 16
18.3163 78.1802 -21.1726 -0.218 -0.931 0.292 23 34 17
18.7591 77.7409 -21.4067 0.031 0.141 0.990 78 90 53
20.0865 75.4050 -21.6625 -0.689 -0.637 -0.346 95 103 51
20.3941 75.5179 -22.0079 0.249 -0.106 0.963 62 68 42
20.8294 75.0438 -22.2196 0.238 -0.170 0.956 53 61 24
22.3266 74.3645 -23.3636 -0.345 -0.852 -0.394 156 166 111
22.5801 74.2103 -23.5402 -0.486 -0.796 -0.360 74 82 43
22.7417 74.2702 -23.7219 -0.471 -0.740 -0.480 60 68 28
31.1156 62.3868 -26.5837 0.234 -0.899 0.369 129 138 75
31.1868 62.2602 -26.5968 -0.647 -0.625 0.438 128 137 74
31.2733 62.2885 -26.6925 -0.745 -0.497 0.445 128 137 74
31.3699 62.4132 -26.8401 0.216 -0.869 0.446 124 133 70
31.4525 62.3966 -26.9123 0.216 -0.869 0.446 116 125 62
33.5093 62.8758 -29.1018 0.588 -0.291 0.755 112 117 61
33.5961 62.8564 -29.1769 0.588 -0.291 0.755 106 111 55
33.6831 62.8370 -29.2521 0.588 -0.291 0.755 99 104 48
33.7794 62.8808 -29.3640 0.551 -0.302 0.778 89 94 38
46.1534 80.2224 -48.8626 0.641 -0.596 0.484 33 36 19
46.3342 80.3597 -49.0967 0.643 -0.620 0.450 27 30 13
54.6977 72.4549 -53.6891 0.730 -0.157 0.665 30 32 20
54.8711 71.8195 -53.5780 -0.413 -0.049 0.909 43 46 29
17.1842 78.4450 -20.3730 -0.755 -0.562 0.337 41 48 30
17.2987 78.1435 -20.3507 -0.711 -0.525 0.468 54 62 36
17.9788 78.3475 -21.0966 -0.832 -0.523 -0.187 25 34 14
18.1629 78.1119 -21.1705 -0.733 -0.654 -0.188 36 46 21
18.2235 78.2816 -21.3037 -0.594 -0.772 -0.227 43 53 25
18.6459 77.2836 -21.2718 0.087 0.121 0.989 85 97 57
18.7056 77.4699 -21.4114 -0.045 0.178 0.983 97 108 66
19.0792 76.1075 -21.1719 0.236 -0.038 0.971 112 121 78
19.1693 75.9849 -21.2049 -0.213 -0.920 -0.330 107 116 71
19.8336 75.5880 -21.6711 0.559 -0.822 0.109 88 96 49
19.9111 75.6032 -21.7525 0.537 -0.835 0.123 78 86 38
19.9921 75.5807 -21.8207 0.519 -0.843 0.142 73 81 32
20.6992 74.6732 -22.1033 -0.057 -0.463 0.884 51 58 22
20.7688 74.8005 -22.2264 0.389 -0.316 0.865 60 68 29
21.3870 73.9384 -22.4433 -0.397 -0.754 -0.523 113 123 71
21.6242 73.9695 -22.6858 -0.174 -0.790 -0.587 113 123 71
22.3213 74.5172 -23.5993 -0.349 -0.935 0.070 59 69 20
22.4053 74.4794 -23.6638 -0.227 -0.974 -0.023 50 59 15
22.4882 74.4671 -23.7383 -0.186 -0.982 -0.033 43 51 10
22.5744 74.3893 -23.7872 -0.602 -0.645 -0.471 49 57 15
23.3451 73.7876 -24.2658 -0.229 -0.971 0.070 99 110 52
23.4338 73.6352 -24.2843 -0.644 -0.698 0.313 101 112 54
23.5186 73.5889 -24.3457 -0.823 -0.142 0.550 102 113 55
30.8665 62.2339 -26.4350 0.397 -0.896 -0.199 130 138 78
30.9639 62.3848 -26.5954 0.273 -0.954 -0.123 126 134 74
31.0432 62.3416 -26.6529 0.231 -0.915 0.331 122 131 68
31.1242 62.3150 -26.7193 -0.653 -0.603 0.458 122 131 68
31.2081 62.3167 -26.8010 -0.713 -0.561 0.421 122 131 68
31.3033 62.4285 -26.9420 -0.102 -0.945 0.311 119 128 65
33.4430 62.8992 -29.2134 0.182 -0.177 0.967 97 102 46
33.5056 62.7073 -29.1892 0.620 -0.383 0.685 83 88 32
33.7123 62.8981 -29.4726 0.690 -0.530 0.493 97 102 46
44.9220 80.1655 -47.8882 0.662 -0.712 0.236 76 81 41
44.9989 79.9332 -47.8600 0.649 -0.698 0.303 76 80 45
45.2902 79.9823 -48.1627 0.230 -0.761 0.606 58 61 34
45.3812 79.8043 -48.1721 -0.444 -0.350 0.825 49 51 27
46.0088 80.0434 -48.8827 0.676 -0.603 0.424 28 31 14
46.2080 80.2476 -49.1648 0.667 -0.595 0.448 24 26 12
54.7726 70.7904 -53.2633 0.086 -0.128 0.988 42 45 26
57.0957 73.7286 -56.7979 0.211 -0.479 0.852 54 60 25
57.1075 73.4148 -56.6711 0.110 -0.357 0.928 59 65 29
53.6373 65.2897 -49.7465 -0.240 -0.919 -0.314 60 66 32
53.6925 65.1106 -49.7209 -0.539 -0.837 -0.093 64 70 34
53.7584 64.9541 -49.7155 -0.542 -0.837 -0.080 65 71 33
53.8694 64.8896 -49.7942 -0.542 -0.837 -0.080 65 71 33
17.0963 78.4958 -20.4853 -0.755 -0.562 0.337 40 47 32
17.4201 78.3957 -20.7540 0.682 -0.721 0.123 53 64 21
17.9437 78.6359 -21.3665 -0.839 -0.519 -0.165 44 55 20
18.0500 78.3936 -21.3620 -0.595 -0.771 -0.227 53 65 28
18.3958 77.3954 -21.2540 0.160 0.106 0.981 82 95 51
18.5294 76.8783 -21.1542 0.155 0.110 0.982 89 103 54
19.0131 75.9728 -21.2206 0.235 -0.829 0.508 104 113 68
19.1456 76.2110 -21.4543 -0.119 -0.925 -0.360 94 103 56
19.6914 75.4145 -21.6291 0.551 -0.827 0.116 78 85 41
20.0954 75.2940 -21.9662 0.158 -0.330 0.931 42 49 10
20.1894 75.1165 -21.9785 0.016 -0.153 0.988 45 52 19
20.2804 74.9719 -22.0024 0.016 -0.153 0.988 48 54 27
20.4534 74.7868 -22.0876 0.293 -0.231 0.928 54 61 32
20.5568 74.4809 -22.0520 0.221 -0.626 0.748 59 66 33
21.2207 74.0644 -22.5093 -0.290 -0.788 -0.543 141 151 99
22.2362 74.6243 -23.7391 0.143 -0.512 0.847 57 66 19
22.3183 74.6263 -23.8193 0.214 -0.537 0.816 59 68 23
22.4038 74.5654 -23.8750 0.220 -0.543 0.811 62 71 28
23.2657 73.8015 -24.3699 -0.703 -0.707 0.084 106 117 59
23.3581 73.5555 -24.3502 -0.714 -0.667 0.213 104 115 57
30.8958 62.3848 -26.6886 0.274 -0.953 -0.130 124 132 72
30.9708 62.2959 -26.7217 0.238 -0.911 0.337 116 125 62
33.1983 62.9247 -29.1537 0.180 -0.175 0.968 98 103 47
33.2745 62.8293 -29.1851 0.180 -0.175 0.968 89 94 38
33.3509 62.7354 -29.2172 -0.101 -0.220 0.970 86 91 35
33.7734 62.5577 -29.5470 0.388 -0.811 0.438 108 116 57
39.1850 70.7303 -38.3989 -0.984 -0.159 -0.084 97 102 46
44.1180 79.5509 -47.0751 0.812 -0.523 0.261 86 89 46
44.5416 79.6019 -47.5072 0.789 -0.578 0.208 74 78 41
45.0096 79.8052 -48.0497 0.494 -0.488 0.720 58 61 34
45.1573 79.8379 -48.2069 0.230 -0.736 0.636 49 51 29
45.2662 79.7262 -48.2628 -0.518 -0.404 0.754 37 39 18
54.3028 70.9425 -53.1075 0.635 -0.189 0.749 30 33 16
54.4373 70.9049 -53.2209 -0.221 0.218 0.950 33 36 19
54.6125 70.2970 -53.1210 0.805 -0.421 0.418 40 43 26
57.3118 73.6850 -57.2314 0.840 -0.423 0.342 58 63 30
15.3371 81.6703 -20.3711 0.162 -0.897 -0.411 59 74 35
17.0048 78.5743 -20.6068 -0.755 -0.547 0.361 39 46 31
17.4447 78.1604 -20.8486 0.700 -0.694 0.169 53 64 23
17.5154 78.8879 -21.2413 -0.943 -0.328 0.048 37 46 20
18.6920 76.0563 -21.1190 0.046 0.156 0.987 102 114 65
18.9401 75.9077 -21.2931 0.235 -0.829 0.508 96 103 59
19.4733 75.2310 -21.5080 0.551 -0.827 0.111 84 91 49
19.5427 75.3214 -21.6156 0.552 -0.826 0.112 72 79 37
19.6177 75.3550 -21.7032 0.551 -0.827 0.116 65 72 31
20.0405 75.0127 -21.9602 0.061 -0.246 0.967 51 57 19
20.1302 74.8838 -21.9896 0.025 -0.145 0.989 53 60 26
20.2347 74.5764 -21.9540 0.409 -0.311 0.858 55 62 30
20.3033 74.6949 -22.0732 0.380 -0.271 0.884 59 66 35
20.3881 74.6216 -22.1226 0.382 -0.278 0.881 63 70 37
20.4672 74.6178 -22.1976 0.331 -0.242 0.912 70 78 40
20.9509 74.5118 -22.6189 -0.079 -0.997 0.001 131 141 89
21.0544 74.1833 -22.5728 -0.296 -0.790 -0.537 129 139 87
21.1316 74.2147 -22.6616 -0.296 -0.790 -0.537 110 120 68
21.9091 74.6566 -23.6118 0.139 -0.949 -0.284 52 61 14
21.9919 74.6393 -23.6843 0.318 -0.646 0.694 55 64 18
22.0754 74.6111 -23.7526 0.318 -0.636 0.703 61 70 24
22.1622 74.5248 -23.7982 0.156 -0.503 0.850 68 77 30
22.7427 74.4660 -24.3344 -0.611 -0.668 -0.425 97 106 58
22.8777 75.1791 -24.7830 -0.367 -0.762 -0.534 100 110 56
23.1118 73.6090 -24.3100 -0.441 -0.853 -0.279 106 117 58
30.3856 62.0590 -26.2085 0.496 -0.861 -0.112 128 138 77
30.8403 62.5220 -26.8553 0.241 -0.952 -0.191 116 124 64
32.9546 62.9529 -29.0957 -0.656 -0.752 -0.057 93 98 44
33.0390 62.9195 -29.1626 -0.228 -0.375 0.898 84 89 33
33.1115 62.7959 -29.1778 0.174 -0.168 0.970 89 94 38
33.1890 62.7105 -29.2147 0.180 -0.171 0.969 97 102 46
39.5301 73.8539 -40.3249 -0.919 0.275 0.284 104 109 53
39.1552 70.9720 -38.6771 -0.983 -0.163 -0.087 98 103 47
44.3503 79.2265 -47.3894 0.785 -0.602 0.144 65 69 36
44.5743 79.5586 -47.7543 0.779 -0.591 0.208 57 60 29
44.7531 79.7140 -47.9968 0.512 -0.483 0.710 51 53 27
45.2470 80.0019 -48.6036 -0.561 -0.403 0.723 33 34 18
45.4423 80.2053 -48.8836 -0.519 -0.647 0.558 33 34 20
45.5673 80.1483 -48.9792 -0.502 -0.663 0.555 30 32 18
45.6659 79.9952 -49.0065 -0.476 -0.732 0.487 30 32 18
54.6382 70.2051 -53.3349 0.866 -0.426 0.261 32 35 17
55.1490 70.9738 -54.1725 0.819 -0.549 0.165 41 45 20
54.6018 67.5976 -52.1374 -0.445 -0.867 -0.224 52 57 28
17.3830 77.9966 -20.8906 0.701 -0.697 0.154 51 62 23
17.4578 78.0217 -20.9745 0.703 -0.694 0.156 50 59 26
18.5459 75.9546 -21.1038 -0.799 -0.180 0.574 106 120 66
18.9146 76.1403 -21.5451 -0.629 -0.536 0.563 94 103 56
18.9877 76.1912 -21.6388 -0.040 -0.205 0.978 94 103 58
19.0459 76.3936 -21.7861 -0.130 -0.982 -0.134 87 96 51
19.2098 75.5278 -21.5569 -0.481 -0.481 0.733 81 90 46
19.3208 75.1870 -21.5119 0.544 -0.830 0.120 74 81 39
19.3950 75.2229 -21.6000 0.544 -0.830 0.120 63 69 31
19.4656 75.2998 -21.7030 0.552 -0.825 0.123 61 67 30
19.5402 75.3364 -21.7919 0.552 -0.825 0.123 57 63 26
19.9756 74.8511 -21.9970 0.053 -0.225 0.973 55 61 23
20.0639 74.7376 -22.0318 0.061 -0.246 0.967 61 69 33
20.1521 74.6239 -22.0664 0.061 -0.246 0.967 63 70 36
20.2375 74.5420 -22.1125 0.475 -0.643 0.600 65 72 38
20.3168 74.5326 -22.1853 0.475 -0.643 0.600 65 73 34
20.6522 74.2788 -22.3971 0.249 -0.106 0.963 105 115 63
20.7937 74.4955 -22.6317 -0.444 -0.795 -0.413 124 134 81
20.8701 74.5379 -22.7248 -0.379 -0.739 -0.557 105 115 62
20.9495 74.5423 -22.8039 -0.381 -0.787 -0.485 92 102 50
21.0284 74.5548 -22.8862 -0.381 -0.787 -0.485 90 100 48
21.1001 74.6729 -23.0087 -0.472 -0.732 -0.492 89 99 47
21.1772 74.7185 -23.1040 -0.640 -0.659 -0.395 95 105 52
21.5963 74.4870 -23.4071 0.228 -0.870 0.437 73 82 39
21.8362 74.5469 -23.6669 0.353 -0.621 0.699 61 70 27
21.9195 74.5179 -23.7348 0.353 -0.621 0.699 65 74 32
22.0017 74.5097 -23.8109 0.318 -0.636 0.703 69 77 34
22.7203 75.0208 -24.7378 -0.659 -0.727 -0.195 103 113 60
22.8010 75.0921 -24.8481 -0.692 -0.694 -0.198 100 110 56
30.1203 61.6333 -25.9178 -0.958 -0.274 -0.083 131 141 80
30.3154 62.0284 -26.2845 0.496 -0.861 -0.112 125 135 74
32.7104 62.9732 -29.0334 -0.350 -0.937 -0.007 98 103 49
32.8057 63.0272 -29.1501 -0.495 -0.868 -0.037 88 93 39
32.8931 63.0167 -29.2302 -0.656 -0.752 -0.057 84 89 35
32.9576 62.8297 -29.2090 -0.232 -0.375 0.897 90 95 39
33.0185 62.6181 -29.1732 0.071 -0.147 0.987 94 99 43
39.5349 74.2876 -40.7333 -0.921 0.273 0.278 104 109 53
39.3436 72.8039 -39.8821 -0.945 0.247 0.213 100 105 49
43.7711 78.3903 -46.6860 0.470 -0.881 -0.045 65 66 34
44.2633 79.2500 -47.5494 0.789 -0.594 0.156 48 51 22
44.4769 79.5439 -47.8886 0.778 -0.600 0.187 42 45 18
44.6553 79.6987 -48.1312 0.625 -0.780 0.024 38 40 17
45.2334 80.3017 -48.9629 -0.668 -0.410 0.621 33 33 21
45.4211 80.4759 -49.2233 -0.692 -0.339 0.637 33 33 22
55.0105 70.8576 -54.2194 0.848 -0.515 0.127 37 41 18
16.7927 78.9526 -20.9231 -0.805 -0.216 0.553 31 37 23
17.0347 78.2701 -20.8506 -0.697 -0.446 0.562 45 52 35
18.2134 76.1525 -21.0418 0.161 -0.111 0.981 97 111 62
18.6712 76.2123 -21.5142 -0.480 -0.717 0.505 85 94 49
18.7504 76.2007 -21.5860 -0.453 -0.725 0.518 83 92 45
19.1292 75.5399 -21.6564 -0.555 -0.519 0.650 69 78 35
19.2371 75.2348 -21.6237 -0.001 -0.991 -0.136 60 68 27
19.3180 75.2013 -21.6873 0.519 -0.852 -0.072 52 58 21
19.3873 75.2895 -21.7945 -0.055 -0.966 -0.254 51 57 23
19.4496 75.4555 -21.9300 0.040 -0.950 -0.311 49 54 21
19.5218 75.5216 -22.0301 0.026 -0.946 -0.325 50 56 22
20.4741 74.5358 -22.5117 -0.090 -0.946 -0.312 117 127 74
20.5490 74.5876 -22.6080 -0.208 -0.906 -0.368 119 129 76
20.6253 74.6264 -22.6997 -0.361 -0.736 -0.573 105 115 62
20.7040 74.6361 -22.7807 -0.478 -0.725 -0.496 86 96 43
20.7744 74.7576 -22.9040 -0.376 -0.740 -0.558 87 97 45
20.8558 74.7377 -22.9742 -0.400 -0.747 -0.531 93 103 51
20.9343 74.7598 -23.0605 -0.395 -0.749 -0.531 101 111 61
21.2509 74.8363 -23.4031 -0.779 -0.615 -0.122 95 104 56
21.5143 74.5282 -23.5203 0.104 -0.883 0.458 59 67 28
21.6001 74.4545 -23.5705 0.186 -0.701 0.688 52 61 20
21.6819 74.4430 -23.6450 0.357 -0.610 0.707 63 71 29
21.7660 74.3970 -23.7060 0.386 -0.505 0.772 72 80 40
22.3171 76.4190 -25.1547 -0.839 -0.442 -0.318 97 107 53
29.9384 62.2481 -26.1749 -0.947 -0.295 -0.132 129 139 78
30.0146 62.1790 -26.2178 -0.966 -0.241 -0.094 127 137 76
30.0746 61.9042 -26.1521 -0.966 -0.240 -0.096 124 134 73
30.3309 62.0442 -26.4648 0.556 -0.822 -0.123 115 125 64
32.4716 63.0321 -28.9932 0.196 -0.976 0.098 93 98 44
32.5556 62.9986 -29.0598 -0.174 -0.983 -0.062 82 87 33
32.6439 62.9989 -29.1459 -0.350 -0.937 -0.007 88 93 39
32.7412 63.0692 -29.2723 -0.495 -0.868 -0.037 96 101 47
32.8314 63.0807 -29.3653 -0.656 -0.752 -0.057 100 105 51
39.7007 76.1004 -41.9237 -0.943 0.242 0.228 107 112 56
43.6649 78.3346 -46.7887 0.472 -0.881 -0.036 49 49 21
43.9181 78.7988 -47.2446 0.777 -0.612 0.145 36 39 11
44.0752 78.8823 -47.4351 0.774 -0.615 0.148 35 37 11
44.3341 79.3549 -47.9003 0.776 -0.608 0.164 33 35 12
44.5139 79.5174 -48.1485 0.776 -0.608 0.164 31 33 13
56.2875 72.4251 -56.4028 0.839 -0.430 0.334 45 48 27
56.1674 67.7295 -54.1670 0.684 0.024 0.729 68 74 30
16.6220 79.0316 -20.9699 -0.658 -0.513 0.551 29 35 21
16.7197 78.8787 -20.9958 -0.857 -0.362 0.366 31 37 25
17.1992 78.1653 -21.1393 -0.808 -0.543 -0.231 54 65 22
18.5121 76.2253 -21.5386 -0.699 -0.691 0.182 87 96 52
18.5885 76.2380 -21.6188 -0.472 -0.715 0.516 81 90 44
18.9609 75.6496 -21.7148 -0.574 -0.429 0.697 61 70 26
19.3854 75.2960 -21.9682 -0.081 -0.929 -0.362 51 56 24
19.4580 75.3543 -22.0654 -0.052 -0.954 -0.295 54 59 26
19.5295 75.4277 -22.1685 -0.006 -0.987 -0.160 59 64 32
20.3874 74.6314 -22.6433 -0.391 -0.736 -0.553 105 116 60
20.4646 74.6551 -22.7294 -0.391 -0.736 -0.553 91 102 46
20.5364 74.7491 -22.8421 -0.367 -0.733 -0.573 85 95 40
20.6136 74.7804 -22.9315 -0.367 -0.733 -0.573 91 101 48
20.6822 74.9252 -23.0641 -0.376 -0.740 -0.558 92 102 51
29.7424 62.7281 -26.3600 -0.928 -0.344 -0.145 129 139 76
29.8169 62.6273 -26.3869 -0.950 -0.285 -0.127 129 139 77
29.8878 62.4798 -26.3890 -0.948 -0.293 -0.128 129 139 78
29.9715 62.5032 -26.4812 -0.964 -0.241 -0.116 123 133 72
32.1190 62.8612 -28.7376 -0.196 -0.963 -0.185 108 113 59
32.2228 63.0035 -28.9035 0.345 -0.931 -0.120 101 106 52
32.3211 63.0937 -29.0403 0.326 -0.937 -0.126 93 98 44
32.4069 63.0748 -29.1153 0.202 -0.975 0.094 87 92 38
32.4881 63.0174 -29.1684 -0.174 -0.983 -0.062 86 91 37
32.6672 63.0370 -29.3520 -0.321 -0.947 0.017 100 105 51
32.7625 63.0893 -29.4687 -0.498 -0.865 -0.065 106 111 57
39.7097 76.5797 -42.3671 -0.944 0.242 0.225 107 112 56
43.6276 79.6283 -47.5712 -0.599 -0.441 0.668 58 60 30
15.0277 82.0018 -20.9466 0.492 -0.787 -0.372 63 78 40
16.6082 79.1028 -21.1666 -0.768 -0.640 -0.039 30 36 22
16.8388 78.5235 -21.1273 -0.840 -0.543 0.010 39 46 30
18.4312 76.2327 -21.6367 -0.440 -0.609 0.660 82 94 47
18.4959 76.3536 -21.7552 -0.502 -0.490 0.713 74 86 41
18.8799 75.6636 -21.8152 -0.656 -0.453 0.604 47 58 20
18.9742 75.5011 -21.8331 -0.646 -0.438 0.625 44 51 15
19.0703 75.3192 -21.8439 -0.657 -0.426 0.622 42 50 13
19.9208 74.5665 -22.3311 -0.334 -0.943 -0.011 83 94 48
20.1443 74.7048 -22.6126 -0.426 -0.724 -0.543 99 111 59
20.2952 74.7896 -22.7988 -0.386 -0.743 -0.547 83 94 36
20.3683 74.8645 -22.9045 -0.391 -0.736 -0.553 86 97 40
20.4402 74.9587 -23.0178 -0.363 -0.736 -0.572 92 102 50
20.5175 74.9905 -23.1078 -0.363 -0.736 -0.572 97 107 60
20.9700 75.4014 -23.7376 -0.798 -0.547 -0.254 53 64 20
21.6219 74.1669 -23.8107 0.408 -0.911 -0.055 87 98 53
21.7784 74.2591 -24.0057 0.537 -0.839 0.092 93 106 56
21.9059 77.7907 -25.7435 0.455 -0.690 0.563 103 112 57
29.6999 63.0978 -26.6471 -0.618 -0.353 0.702 122 132 72
29.7825 63.1000 -26.7288 -0.933 -0.346 -0.098 122 132 72
29.8511 62.9093 -26.7087 -0.933 -0.346 -0.098 123 131 72
29.9307 62.8714 -26.7692 -0.960 -0.252 -0.120 117 125 66
31.9723 62.9494 -28.7996 -0.246 -0.945 -0.214 92 97 41
32.0581 62.9380 -28.8783 -0.235 -0.949 -0.211 88 96 39
32.1557 63.0263 -29.0139 0.324 -0.936 -0.138 89 97 40
32.2540 63.1174 -29.1516 0.347 -0.930 -0.117 92 100 43
39.4165 74.9724 -41.5654 -0.907 0.278 0.318 102 110 53
39.2455 73.5538 -40.7503 -0.891 0.296 0.344 94 102 45
44.0010 79.8573 -48.2763 -0.369 -0.927 0.064 31 34 19
44.1322 79.8325 -48.3931 -0.320 -0.943 -0.091 31 33 19
15.1485 82.2206 -21.3486 0.500 -0.784 -0.367 42 57 26
17.1434 77.9241 -21.3273 -0.849 -0.489 -0.199 63 73 39
17.3869 77.2060 -21.2357 -0.751 -0.055 0.658 79 89 54
17.9893 75.3644 -20.9792 -0.431 -0.752 -0.499 73 82 40
18.1845 75.6533 -21.3031 -0.109 -0.384 0.917 82 91 48
18.2086 76.1206 -21.5415 -0.143 -0.173 0.974 80 92 46
18.2804 76.1701 -21.6345 -0.149 -0.153 0.977 75 87 41
18.3696 76.0635 -21.6728 -0.413 -0.613 0.673 68 80 34
18.6222 75.8786 -21.8352 -0.545 -0.451 0.706 42 53 15
19.4598 75.3107 -22.3944 -0.164 -0.935 0.315 70 77 37
19.5357 75.3394 -22.4818 -0.188 -0.907 0.377 71 77 37
19.7499 74.7195 -22.4067 -0.417 -0.726 -0.546 100 109 62
19.9716 74.8737 -22.6947 -0.473 -0.696 -0.540 84 97 44
20.0508 74.8703 -22.7706 -0.433 -0.718 -0.545 78 91 37
20.1257 74.9180 -22.8660 -0.306 -0.760 -0.574 81 94 39
20.1981 74.9999 -22.9744 -0.344 -0.747 -0.569 90 103 48
20.2747 75.0350 -23.0655 -0.385 -0.741 -0.550 100 113 58
20.3515 75.0701 -23.1569 -0.380 -0.742 -0.552 102 114 64
20.4224 75.1814 -23.2775 -0.391 -0.738 -0.550 95 106 64
20.4884 75.3594 -23.4239 -0.259 -0.871 -0.418 87 98 57
20.6154 75.8029 -23.7521 -0.235 -0.970 -0.060 69 80 38
21.6228 74.1803 -23.9928 0.408 -0.912 -0.042 95 107 56
21.6852 74.4804 -24.1918 0.507 -0.862 -0.010 98 111 58
21.7295 77.8986 -25.8062 0.564 -0.640 0.522 102 111 56
21.8156 77.9037 -25.8928 0.564 -0.640 0.522 102 111 55
29.5454 63.0506 -26.6352 0.800 -0.278 0.531 122 132 72
29.9093 63.5155 -27.2052 -0.938 -0.279 -0.206 115 123 64
29.9697 63.2083 -27.1232 -0.952 -0.253 -0.170 113 121 62
31.4831 63.0786 -28.5454 0.457 -0.854 0.248 111 116 60
31.5648 63.0340 -28.6049 0.229 -0.865 0.446 112 117 61
31.6485 63.0077 -28.6748 -0.024 -0.956 0.292 110 115 59
31.7379 63.0332 -28.7740 -0.059 -0.945 0.323 98 103 47
31.8242 63.0276 -28.8560 -0.175 -0.983 0.047 84 89 33
31.9086 63.0039 -28.9277 -0.160 -0.972 -0.172 83 88 32
31.9932 62.9811 -29.0001 -0.235 -0.949 -0.211 90 98 41
39.6022 76.9311 -42.8619 -0.895 0.281 0.345 107 115 58
39.4124 75.3821 -41.9641 -0.905 0.279 0.322 102 110 53
39.2517 74.0017 -41.1724 -0.894 0.290 0.342 94 102 45
39.1185 72.7778 -40.4795 -0.887 0.293 0.357 89 97 40
42.4295 78.2144 -46.2201 0.731 -0.411 0.545 54 58 36
42.5698 78.2502 -46.3740 0.729 -0.409 0.549 50 53 34
43.9589 80.0640 -48.5678 -0.501 -0.858 0.113 31 33 20
55.7093 69.7847 -55.3491 0.481 0.220 0.848 32 35 16
55.4401 68.9141 -54.6854 0.264 0.310 0.914 32 35 16
55.2945 67.6869 -53.9788 0.580 0.151 0.801 47 50 31
16.6428 78.7657 -21.4019 -0.772 -0.570 -0.283 37 44 28
16.9270 78.3743 -21.4999 -0.799 -0.549 -0.244 50 59 30
17.2977 77.2728 -21.3542 -0.754 -0.094 0.650 74 84 48
18.2043 75.4531 -21.4025 -0.522 -0.721 -0.456 68 79 36
18.2939 76.0247 -21.7547 -0.413 -0.613 0.673 54 65 22
18.3795 75.9495 -21.8039 -0.498 -0.852 0.161 49 60 19
18.4642 75.8834 -21.8565 -0.521 -0.489 0.700 45 56 18
18.5325 75.9690 -21.9631 -0.656 -0.736 -0.166 38 48 13
19.1639 75.1270 -22.1933 -0.743 -0.484 0.463 66 75 31
19.2573 74.9684 -22.2116 -0.602 -0.625 0.496 62 71 25
19.9553 75.0531 -22.9357 -0.433 -0.718 -0.545 89 102 48
20.4522 75.8183 -23.7771 0.406 -0.914 0.003 59 69 31
20.5192 75.9988 -23.9264 -0.731 -0.581 0.359 55 66 26
20.6099 75.8812 -23.9610 -0.751 -0.563 0.345 59 69 32
28.9994 61.8827 -25.7206 0.306 -0.730 0.611 128 138 78
31.3193 63.0003 -28.5137 0.457 -0.854 0.248 107 112 56
31.4073 63.0197 -28.6090 0.457 -0.854 0.248 103 108 52
31.4894 62.9798 -28.6712 0.229 -0.865 0.446 94 99 43
31.5748 62.9708 -28.7508 -0.025 -0.953 0.302 87 92 36
31.6629 62.9845 -28.8436 -0.061 -0.953 0.297 90 95 39
31.7550 63.0344 -28.9571 -0.160 -0.972 -0.172 93 98 42
39.5479 77.1085 -43.1117 -0.834 0.291 0.469 107 115 58
39.3717 75.6158 -42.2486 -0.890 0.292 0.351 102 110 53
39.2402 74.3687 -41.5429 -0.890 0.292 0.351 94 102 45
39.1216 73.2052 -40.8885 -0.880 0.297 0.371 89 97 40
41.9571 77.7060 -45.7520 0.434 -0.844 0.315 58 64 28
42.1092 77.7999 -45.9446 0.729 -0.414 0.546 51 56 24
42.8183 78.5653 -46.9944 0.766 -0.521 0.377 34 37 20
15.1217 82.3205 -21.7383 0.552 -0.768 -0.324 41 56 25
16.4298 79.1624 -21.5555 -0.721 -0.688 -0.088 32 39 23
16.9192 78.4020 -21.6831 -0.833 -0.406 0.376 62 71 40
17.0365 78.0913 -21.6539 -0.771 -0.180 0.611 68 77 45
17.1680 77.6624 -21.5836 -0.768 -0.176 0.615 68 76 40
17.8420 75.9154 -21.4338 -0.659 -0.635 -0.403 69 78 37
17.9202 75.9011 -21.5040 -0.420 -0.765 -0.489 65 73 32
17.9860 75.9953 -21.6125 -0.433 -0.760 -0.485 59 68 26
18.0622 76.0015 -21.6903 -0.433 -0.760 -0.485 56 64 23
18.1385 76.0078 -21.7683 -0.433 -0.760 -0.485 46 57 15
18.2091 76.0661 -21.8649 -0.493 -0.769 -0.407 46 57 17
18.2817 76.1097 -21.9565 -0.658 -0.749 0.071 44 54 17
18.3670 76.0398 -22.0079 -0.662 -0.749 0.038 44 54 18
19.0838 75.1341 -22.2914 -0.746 -0.491 0.450 60 69 22
19.1780 74.9689 -22.3072 -0.602 -0.625 0.496 70 79 32
20.2159 75.7404 -23.6867 0.390 -0.912 -0.124 55 66 24
20.4556 75.7782 -23.9401 -0.651 -0.646 0.399 61 72 32
20.5458 75.6648 -23.9760 -0.712 -0.504 0.489 70 81 40
21.0524 74.3012 -23.8399 -0.316 -0.888 -0.336 92 105 52
21.1284 74.3635 -23.9436 -0.425 -0.847 -0.319 96 109 53
21.2055 74.4148 -24.0432 -0.487 -0.792 -0.368 99 112 56
21.2875 74.3984 -24.1162 -0.487 -0.792 -0.368 98 111 55
28.9256 61.7731 -25.7541 0.260 -0.746 0.613 129 139 79
29.3773 62.5923 -26.5794 0.801 -0.276 0.532 113 123 63
31.0706 62.9228 -28.3983 -0.108 -0.985 0.137 110 115 59
31.1598 62.9606 -28.5036 0.172 -0.959 0.227 102 107 51
31.2478 62.9832 -28.6006 0.365 -0.901 0.235 94 99 43
31.3378 63.0233 -28.7078 0.361 -0.901 0.243 87 92 36
31.4172 62.9559 -28.7545 0.114 -0.918 0.380 86 91 35
31.5103 63.0214 -28.8765 -0.308 -0.936 0.169 90 95 39
39.3295 75.8453 -42.5312 -0.862 0.311 0.402 102 110 53
39.2103 74.6491 -41.8575 -0.861 0.311 0.403 94 102 45
39.2112 73.4841 -41.3165 -0.607 -0.774 -0.181 90 94 43
40.9955 78.4443 -45.3786 -0.925 -0.001 0.381 89 93 43
41.0536 78.1190 -45.2844 -0.832 -0.095 0.547 88 94 43
41.5804 77.5912 -45.5569 0.644 -0.708 0.289 69 75 39
41.6968 77.5348 -45.6451 0.502 -0.846 0.179 61 66 34
41.8457 77.6192 -45.8308 0.434 -0.844 0.315 49 53 26
14.8285 82.1018 -21.5328 -0.828 -0.505 0.245 53 71 30
14.9411 81.8777 -21.5388 -0.830 -0.496 0.255 42 58 21
