ply
format ascii 1.0
element vertex 880
property float x
property float y
property float z
property float nx
property float ny
property float nz
property uchar diffuse_red
property uchar diffuse_green
property uchar diffuse_blue
end_header
35.0825 69.1667 -57.1663 -0.754 -0.519 0.402 57 20 23
35.2153 69.1131 -57.2451 -0.685 -0.724 0.080 55 22 23
35.3642 69.5573 -57.6815 0.113 -0.911 -0.395 44 18 15
35.8102 67.0744 -56.3566 0.235 -0.448 0.863 45 30 24
35.9384 66.9814 -56.4041 0.220 -0.447 0.867 45 32 25
36.0823 67.2583 -56.7206 0.174 -0.449 0.877 46 35 27
36.2152 67.2648 -56.8410 0.399 -0.517 0.757 46 37 28
40.8284 62.2363 -57.3913 -0.831 -0.113 0.545 102 101 44
50.8635 52.1699 -59.1904 0.209 -0.859 -0.468 106 106 41
51.4862 52.9054 -60.2409 0.488 -0.833 -0.260 103 98 53
51.8943 53.3529 -60.9054 0.457 -0.826 -0.329 76 70 39
52.1807 53.8262 -61.4817 0.424 -0.785 -0.452 49 44 19
70.5262 47.2527 -72.9352 0.409 -0.336 0.849 80 89 42
19.0236 67.0925 -41.9487 0.546 -0.572 0.612 85 92 47
30.2529 73.7206 -56.3471 0.205 -0.951 0.232 65 66 35
30.5311 73.4876 -56.4284 -0.313 -0.763 0.565 54 54 26
35.5817 66.8555 -56.2390 0.255 -0.452 0.855 57 40 31
35.7093 66.7571 -56.2823 0.234 -0.464 0.854 49 37 26
39.5822 65.0786 -58.4994 0.331 -0.255 0.909 44 48 23
39.7975 64.5272 -58.3051 0.004 -0.096 0.995 46 49 22
40.6098 61.0479 -56.6019 -0.913 0.148 0.380 99 100 43
50.6022 51.9618 -59.0250 0.203 -0.861 -0.466 106 104 41
50.8067 52.2060 -59.3728 0.191 -0.880 -0.435 103 105 39
51.0287 52.5025 -59.7722 0.359 -0.870 -0.339 102 103 41
51.2412 52.7634 -60.1386 0.383 -0.881 -0.277 101 101 48
51.8523 53.4377 -61.1396 0.432 -0.838 -0.333 54 49 21
52.0716 53.7033 -61.5153 0.466 -0.822 -0.327 48 44 21
64.9102 40.7418 -63.7361 0.383 -0.775 0.503 24 30 18
65.0014 40.6765 -63.7705 0.333 -0.753 0.567 43 52 26
70.4398 47.4307 -73.2010 0.610 -0.344 0.714 96 105 58
70.3393 47.0657 -72.8602 0.461 -0.344 0.818 81 90 43
70.5604 46.9354 -72.9628 0.356 -0.397 0.846 73 82 34
18.9504 67.0058 -42.0362 0.545 -0.573 0.612 84 92 42
30.0044 74.1447 -56.6732 -0.537 -0.237 0.810 66 67 36
30.1477 73.9365 -56.6534 -0.533 -0.235 0.813 65 66 35
30.4336 73.4929 -56.5944 -0.533 -0.235 0.813 54 55 24
32.9021 75.7513 -60.3257 -0.688 -0.722 0.070 26 21 19
35.4859 66.6533 -56.2478 0.245 -0.432 0.868 51 37 23
39.5890 64.6379 -58.4315 0.298 -0.221 0.929 47 51 24
40.0225 64.9533 -59.0302 -0.678 0.174 0.714 40 42 17
40.4598 61.5833 -57.0653 -0.914 0.145 0.380 96 98 48
50.3638 51.8242 -58.9271 0.370 -0.835 -0.407 108 105 46
50.5115 51.8864 -59.0997 0.297 -0.835 -0.462 107 107 47
50.9992 52.6281 -60.0426 0.383 -0.881 -0.277 99 103 46
51.8004 53.4926 -61.3454 0.432 -0.838 -0.333 43 41 16
18.9182 66.7076 -42.0113 0.469 -0.385 0.795 84 92 41
29.9359 73.3616 -56.3147 0.511 -0.467 0.721 66 67 36
32.8007 76.5807 -61.0756 -0.929 -0.370 0.028 24 20 18
39.5616 63.8415 -58.0825 -0.288 -0.393 0.873 48 52 25
39.6676 63.5688 -57.9846 -0.259 -0.427 0.866 49 53 28
40.0303 63.2330 -58.0672 -0.874 0.035 0.485 35 36 4
40.1017 62.6523 -57.7234 -0.829 0.083 0.553 43 44 10
40.1839 62.1912 -57.4728 -0.825 0.085 0.558 60 60 24
40.2686 61.7684 -57.2511 -0.824 0.089 0.560 80 81 41
50.0571 51.4550 -58.6065 0.266 -0.842 -0.469 109 104 46
50.2756 51.7563 -59.0086 0.279 -0.840 -0.465 107 105 47
50.9405 52.6602 -60.2233 0.353 -0.871 -0.342 92 96 46
69.2368 45.6563 -71.3441 0.649 -0.702 0.293 79 91 46
69.4011 45.6726 -71.4994 0.571 -0.750 0.334 51 62 18
39.4503 63.5586 -58.0163 -0.157 -0.499 0.852 46 50 23
39.5680 63.4095 -58.0147 -0.262 -0.433 0.862 48 52 25
40.1845 61.7494 -57.3885 -0.824 0.088 0.560 60 57 25
40.2568 61.2210 -57.0806 -0.887 0.002 0.461 84 81 46
40.4143 61.4767 -57.3984 -0.910 0.009 0.414 94 91 53
40.5003 61.0886 -57.2011 -0.910 0.009 0.414 97 99 55
40.9340 60.3882 -57.0892 -0.869 -0.224 0.441 103 100 45
49.9491 51.7497 -58.9239 0.080 -0.873 -0.481 109 104 48
50.3330 52.1738 -59.5586 0.300 -0.897 -0.325 108 104 48
50.5274 52.3879 -59.8796 0.311 -0.894 -0.321 105 104 51
50.6802 52.4616 -60.0654 0.268 -0.873 -0.407 97 97 49
69.0988 45.5359 -71.3510 0.769 -0.582 0.266 65 75 35
39.6404 63.6671 -58.4895 -0.635 -0.373 0.677 45 50 20
39.7579 63.5126 -58.4836 -0.632 -0.371 0.680 43 47 19
39.8675 63.2842 -58.4186 -0.658 -0.435 0.615 38 37 16
40.1731 61.2010 -57.2163 -0.915 0.003 0.403 54 50 23
40.2612 60.8270 -57.0296 -0.907 0.016 0.421 76 73 42
40.5960 60.3812 -57.0089 -0.769 0.130 0.626 100 98 48
40.9660 60.2531 -57.2435 -0.722 -0.042 0.690 102 99 44
41.0721 60.0698 -57.2072 -0.721 -0.043 0.692 103 100 45
49.5140 51.3659 -58.4770 0.232 -0.852 -0.469 110 106 44
49.7112 51.6063 -58.8200 0.059 -0.861 -0.505 109 104 48
50.1090 52.0854 -59.5077 0.258 -0.897 -0.359 107 102 49
50.2829 52.2348 -59.7659 0.298 -0.897 -0.325 107 100 50
50.4733 52.4361 -60.0752 0.329 -0.895 -0.301 102 98 54
50.6538 52.6009 -60.3501 0.309 -0.896 -0.320 89 86 48
67.9985 58.1483 -79.5016 -0.632 -0.096 0.769 68 76 35
29.7188 71.5492 -55.5823 -0.804 -0.530 0.270 64 65 34
29.9146 81.0806 -62.5144 0.865 -0.415 0.282 39 40 9
39.6439 63.2094 -58.3988 -0.152 -0.455 0.877 40 43 19
40.1834 60.8576 -57.2055 -0.914 0.006 0.405 49 47 24
40.3641 60.1742 -56.8797 -0.888 -0.079 0.453 82 81 48
40.5093 60.3276 -57.1163 -0.776 0.129 0.618 93 91 42
40.5894 59.9131 -56.8927 -0.828 0.094 0.553 95 93 42
49.2938 51.2761 -58.4246 0.176 -0.857 -0.485 109 106 35
49.4921 51.5242 -58.7750 0.174 -0.858 -0.483 109 106 41
50.0628 52.1602 -59.7281 0.258 -0.897 -0.359 107 101 53
50.2391 52.3176 -59.9948 0.258 -0.897 -0.359 103 95 52
50.6013 52.6553 -60.5530 0.311 -0.894 -0.321 66 63 33
67.8480 58.0022 -79.5172 -0.628 -0.097 0.772 68 76 37
76.2797 56.4469 -85.8316 -0.628 -0.775 0.065 79 94 41
17.9500 70.3502 -44.6021 -0.867 -0.436 0.240 85 92 48
29.7837 70.8503 -55.3846 -0.849 -0.422 0.318 64 65 34
39.6475 62.7571 -58.3096 -0.652 -0.286 0.702 34 35 21
40.0183 61.2806 -57.5844 -0.914 0.006 0.405 34 32 14
40.2314 60.8627 -57.4744 -0.871 0.053 0.489 37 37 14
40.5010 59.8403 -56.9836 -0.826 0.095 0.555 90 88 39
40.5920 59.5289 -56.8420 -0.860 0.033 0.509 96 93 42
49.8503 52.1100 -59.7138 0.079 -0.911 -0.404 108 102 53
50.0282 52.2759 -59.9887 0.184 -0.891 -0.414 97 90 45
50.1959 52.4039 -60.2277 0.243 -0.900 -0.362 86 79 41
50.9426 53.1386 -61.4090 0.346 -0.868 -0.357 44 42 19
67.2917 57.7340 -79.0875 -0.634 -0.484 0.603 70 76 38
67.3737 57.5726 -79.0447 -0.611 -0.463 0.642 70 78 39
67.6709 57.8067 -79.4734 -0.580 -0.114 0.806 66 74 36
72.7407 54.4929 -81.5794 -0.988 -0.117 0.101 11 15 15
18.0266 69.4860 -44.2750 -0.064 -0.532 0.844 85 93 44
18.1432 69.4607 -44.3598 -0.074 -0.418 0.905 86 93 50
29.6870 70.8964 -55.5738 -0.707 -0.544 0.452 63 63 35
38.7563 62.4784 -57.5527 0.044 -0.998 0.037 49 53 31
38.8970 62.6060 -57.7682 -0.050 -0.997 0.052 47 50 28
39.1612 62.6498 -58.0326 0.754 -0.655 -0.046 39 43 19
39.7535 62.0292 -58.1112 -0.900 0.001 0.436 32 32 22
39.9406 61.3209 -57.7694 -0.916 0.003 0.400 32 32 20
40.0271 60.9171 -57.5568 -0.915 0.005 0.404 27 27 13
40.1479 60.8426 -57.6100 -0.874 0.049 0.484 23 24 7
40.2230 60.3538 -57.3265 -0.860 0.084 0.504 32 33 12
40.3311 60.1749 -57.2939 -0.826 0.095 0.555 58 58 26
40.5070 59.4827 -56.9538 -0.857 0.030 0.514 85 85 43
40.5928 59.1320 -56.7784 -0.848 0.025 0.530 95 95 48
49.3078 52.2551 -59.5476 0.216 -0.959 -0.181 109 107 36
50.1503 52.4827 -60.4539 0.243 -0.900 -0.362 60 55 23
50.3243 52.6290 -60.7122 0.258 -0.897 -0.359 49 45 17
50.5007 52.7806 -60.9763 0.318 -0.896 -0.311 41 37 15
50.7117 53.0436 -61.3507 0.319 -0.871 -0.373 39 34 15
67.1696 57.6381 -79.1616 -0.629 -0.491 0.602 66 72 34
67.2508 57.4754 -79.1168 -0.611 -0.463 0.642 65 71 36
67.5672 57.7454 -79.5892 -0.514 -0.129 0.848 61 68 35
57.6038 36.1015 -55.3084 0.263 -0.781 0.567 127 141 85
65.1997 39.4949 -64.4396 -0.434 -0.479 0.763 19 27 11
18.0760 69.3279 -44.4266 -0.074 -0.418 0.905 83 91 46
29.5835 71.0926 -55.8653 -0.699 -0.618 0.360 62 62 36
30.0956 75.2289 -59.2912 0.306 -0.899 0.314 35 36 21
38.1484 62.3747 -57.1682 -0.403 -0.915 0.028 53 56 25
38.2626 62.1911 -57.1372 -0.413 -0.910 0.017 53 56 25
38.3908 62.1873 -57.2477 -0.422 -0.906 -0.011 47 51 26
39.3226 62.4772 -58.2796 0.203 -0.898 -0.391 34 37 17
39.7612 61.6356 -58.0623 -0.901 -0.117 0.418 29 29 19
39.9441 60.9026 -57.6970 -0.911 0.003 0.413 29 29 17
40.0328 60.5274 -57.5057 -0.917 -0.058 0.395 29 30 16
40.1404 60.3381 -57.4648 -0.860 0.084 0.504 29 30 14
40.2423 60.1010 -57.3844 -0.822 0.099 0.561 33 33 15
40.3322 59.7642 -57.2218 -0.826 0.095 0.555 42 42 21
40.5002 59.0173 -56.8333 -0.944 -0.093 0.318 72 73 41
40.5873 58.6860 -56.6721 -0.946 -0.098 0.308 89 91 51
40.6257 57.9600 -56.1842 -0.970 -0.139 0.199 96 99 53
49.9525 52.4881 -60.4938 0.148 -0.899 -0.413 58 54 28
50.1047 52.5626 -60.6819 0.254 -0.898 -0.358 42 38 16
50.2779 52.7059 -60.9379 0.258 -0.897 -0.359 38 35 14
67.0077 57.7832 -79.3734 -0.337 -0.225 0.914 66 72 35
66.9984 56.8283 -78.6787 -0.266 -0.795 0.544 53 60 27
19.3007 68.2641 -44.9641 -0.810 -0.529 0.253 100 109 55
29.4677 74.6036 -58.5410 0.444 -0.731 0.518 59 59 31
29.5115 76.8573 -60.2070 -0.326 -0.586 0.742 50 50 22
30.0041 74.9840 -59.2905 -0.143 -0.969 -0.199 32 32 19
35.5382 65.9421 -57.6603 -0.674 -0.717 0.178 38 41 22
37.9323 62.3210 -57.1649 -0.582 -0.812 -0.034 50 53 24
38.0566 62.2671 -57.2360 -0.396 -0.899 -0.188 50 53 24
38.5428 61.9200 -57.4157 -0.383 -0.922 -0.051 39 42 24
40.1434 59.9334 -57.3981 -0.872 0.076 0.484 27 28 20
40.2498 59.7433 -57.3550 -0.827 0.095 0.555 30 31 23
40.3386 59.4035 -57.1883 -0.842 0.027 0.539 39 40 28
40.4278 59.0764 -57.0310 -0.944 -0.093 0.318 48 49 30
40.5164 58.7537 -56.8765 -0.948 -0.100 0.303 70 73 45
49.9099 52.5796 -60.7331 0.122 -0.898 -0.422 46 44 29
50.0878 52.7416 -61.0076 0.113 -0.885 -0.452 43 41 28
66.7129 58.3207 -79.7520 -0.617 -0.608 -0.500 69 74 41
66.6737 57.9250 -79.4316 -0.783 -0.613 -0.103 70 75 42
66.7925 57.8298 -79.4680 -0.389 -0.822 -0.415 71 77 43
66.9654 56.8955 -78.9464 -0.195 -0.788 0.585 47 54 23
63.3981 43.1138 -65.8376 0.048 -0.446 0.894 72 81 52
65.0178 39.1808 -64.4314 -0.835 -0.507 0.213 43 55 16
18.9764 67.7297 -44.5095 -0.159 -0.687 -0.709 88 95 53
19.0725 67.8047 -44.6490 -0.104 -0.710 -0.697 89 96 52
19.1560 67.9492 -44.8279 -0.240 -0.792 -0.562 97 105 56
19.2269 68.1649 -45.0472 -0.507 -0.839 0.199 105 114 61
19.3524 68.0875 -45.1023 -0.855 -0.467 0.226 106 115 61
19.5148 67.8077 -45.0433 -0.854 -0.464 0.234 100 109 56
29.5000 78.0823 -61.3475 -0.662 -0.541 0.519 40 40 16
29.9099 74.8251 -59.3484 0.069 -0.930 0.362 28 28 17
38.5512 63.0451 -58.4655 0.207 -0.761 -0.614 32 34 21
39.0175 62.3963 -58.4083 0.196 -0.864 -0.463 27 29 14
40.1628 59.6817 -57.4548 -0.919 -0.025 0.393 28 28 25
40.2661 59.4683 -57.3916 -0.945 -0.094 0.312 30 31 25
40.3562 59.1445 -57.2366 -0.949 -0.105 0.297 32 33 22
40.4497 58.8591 -57.1126 -0.945 -0.094 0.312 35 37 19
40.4977 58.1957 -56.6740 -0.931 -0.118 0.345 46 49 22
40.5899 57.9207 -56.5562 -0.941 -0.134 0.312 65 71 36
40.7005 57.8037 -56.5694 -0.974 -0.138 0.178 85 90 52
40.8570 57.0621 -56.1703 -0.949 -0.310 -0.064 102 100 57
40.9431 56.7675 -56.0329 -0.929 -0.364 -0.066 101 100 54
41.0279 56.4709 -55.8930 -0.897 -0.419 -0.143 102 100 51
41.1288 56.3034 -55.8611 -0.890 -0.429 -0.156 103 102 48
41.2289 56.1328 -55.8259 -0.900 -0.416 -0.130 105 105 46
41.4913 56.2549 -56.1472 -0.902 -0.410 -0.134 105 105 43
48.2746 52.0363 -59.1011 -0.211 -0.968 -0.133 110 108 49
48.9969 52.3453 -59.9656 0.159 -0.964 -0.215 107 99 48
49.2943 52.4868 -60.3319 0.225 -0.954 -0.198 79 67 31
49.4419 52.5506 -60.5090 0.261 -0.945 -0.195 57 46 16
49.6690 52.4362 -60.6273 0.122 -0.924 -0.361 38 34 16
66.3950 58.1745 -79.6173 -0.342 -0.723 -0.601 64 68 42
66.6465 58.0082 -79.7198 -0.783 -0.613 -0.103 64 68 41
18.2842 67.4417 -43.9037 -0.472 -0.788 -0.396 84 92 45
18.9826 67.7950 -44.7812 0.254 -0.751 -0.610 92 99 56
19.0493 68.0275 -45.0099 -0.230 -0.809 -0.541 98 107 60
19.1432 68.1193 -45.1601 -0.516 -0.828 0.220 109 117 68
29.3374 73.0847 -57.8290 0.365 -0.930 -0.041 57 57 31
37.4525 63.4206 -57.9940 -0.692 -0.158 0.705 46 48 26
37.7797 62.5318 -57.6370 -0.602 -0.792 -0.098 42 44 22
39.9422 59.5585 -57.3910 -0.863 0.042 0.504 31 32 26
40.1464 59.1105 -57.2459 -0.921 -0.059 0.384 30 29 25
40.2394 58.8144 -57.1128 -0.924 -0.064 0.377 29 28 22
40.3341 58.5415 -56.9980 -0.931 -0.118 0.345 23 24 13
40.4244 58.2385 -56.8575 -0.931 -0.118 0.345 26 27 11
40.5183 57.9749 -56.7488 -0.941 -0.134 0.312 39 41 19
40.9776 56.6716 -56.2072 -0.872 -0.443 -0.208 101 99 52
41.0720 56.4493 -56.1291 -0.872 -0.443 -0.208 103 102 49
41.1658 56.2283 -56.0514 -0.872 -0.443 -0.208 104 104 47
48.7855 52.2961 -59.9522 0.042 -0.980 -0.195 96 91 37
48.9323 52.3626 -60.1310 0.160 -0.965 -0.207 84 73 27
49.0782 52.4242 -60.3054 0.160 -0.965 -0.207 71 56 19
49.2258 52.4905 -60.4848 0.227 -0.954 -0.195 62 45 16
49.3702 52.5433 -60.6515 0.235 -0.950 -0.204 51 37 12
49.4780 52.4653 -60.6904 0.127 -0.920 -0.371 42 33 12
66.6193 58.0918 -80.0092 -0.783 -0.613 -0.103 62 66 44
63.1018 42.8064 -65.7504 0.131 -0.486 0.864 117 127 76
17.6187 69.1886 -44.8076 -0.184 -0.954 0.237 88 96 50
19.0252 68.2563 -45.3761 -0.711 -0.697 0.089 93 101 56
33.7170 66.1354 -56.8893 -0.500 -0.781 0.374 56 35 29
33.8447 66.0345 -56.9291 -0.500 -0.781 0.374 56 41 33
34.6119 65.5991 -57.2927 0.771 -0.512 0.379 47 50 29
37.1378 63.9131 -58.3052 -0.300 -0.541 0.786 47 48 29
37.4587 62.8378 -57.8037 -0.526 -0.344 0.778 38 39 21
41.1951 56.0947 -56.1921 -0.899 -0.421 -0.122 104 102 51
41.2925 55.9069 -56.1413 -0.896 -0.423 -0.135 104 102 49
41.3953 55.7621 -56.1268 -0.894 -0.429 -0.128 101 100 44
48.4408 52.2250 -59.8039 -0.030 -0.954 -0.299 106 103 51
48.5808 52.2700 -59.9613 -0.030 -0.954 -0.299 86 82 34
48.7252 52.3296 -60.1333 0.042 -0.980 -0.195 70 64 23
48.8739 52.4032 -60.3194 0.138 -0.973 -0.185 58 44 12
49.0182 52.4590 -60.4886 0.169 -0.965 -0.203 52 30 7
66.4465 57.8993 -79.9683 -0.581 -0.713 -0.394 58 61 42
17.5186 69.2201 -44.9641 -0.212 -0.948 0.239 91 98 56
18.4073 67.5483 -44.5269 -0.586 -0.803 -0.108 79 87 42
18.5336 67.4629 -44.5766 -0.586 -0.803 -0.108 42 45 21
33.7496 65.5009 -56.6869 -0.005 -0.503 0.864 56 41 33
37.0572 64.0076 -58.5353 -0.184 -0.555 0.811 44 45 28
37.3602 62.6245 -57.7885 -0.435 -0.176 0.883 36 37 21
37.5844 62.1408 -57.6327 -0.276 -0.349 0.896 36 37 21
40.7947 57.4234 -57.0247 -0.923 -0.369 -0.114 49 43 21
40.9596 56.7622 -56.6856 -0.923 -0.385 -0.012 74 69 39
41.0565 56.5551 -56.6197 -0.922 -0.386 -0.039 85 80 47
41.4354 55.7098 -56.3358 -0.864 -0.491 -0.114 109 106 51
41.5268 55.4862 -56.2529 -0.872 -0.463 -0.157 106 103 47
41.6210 55.2877 -56.1909 -0.872 -0.463 -0.157 103 101 42
41.7148 55.0901 -56.1292 -0.872 -0.463 -0.157 104 102 43
42.0220 54.6931 -56.1110 -0.913 -0.299 0.277 106 104 47
47.3712 51.7837 -58.7370 0.020 -0.974 -0.225 111 107 44
48.1114 52.2072 -59.7075 -0.126 -0.937 -0.326 103 99 52
48.2497 52.2484 -59.8609 -0.048 -0.958 -0.283 88 83 41
48.3896 52.2941 -60.0191 -0.030 -0.954 -0.299 71 65 29
48.5298 52.3394 -60.1773 -0.030 -0.954 -0.299 56 49 18
48.6208 52.2010 -60.1566 0.019 -0.973 -0.230 43 34 9
48.7554 52.2242 -60.2936 0.063 -0.970 -0.233 44 25 8
48.8972 52.2722 -60.4551 0.063 -0.970 -0.233 53 25 16
49.0394 52.3203 -60.6171 0.063 -0.970 -0.233 54 24 17
49.1837 52.3744 -60.7855 0.042 -0.972 -0.231 50 26 17
17.3068 69.2531 -45.0227 0.054 -0.834 0.549 86 93 51
18.1836 67.6608 -44.6293 -0.622 -0.781 -0.050 93 102 46
18.4203 67.5722 -44.7750 -0.586 -0.803 -0.108 61 65 40
32.2522 66.7765 -56.5263 -0.819 -0.379 0.431 41 14 13
36.9460 63.5762 -58.3507 -0.099 -0.990 -0.102 42 43 28
37.2606 62.3873 -57.7536 -0.440 -0.184 0.879 32 33 19
37.3688 62.0815 -57.6244 -0.326 -0.278 0.904 33 34 20
37.4755 61.7673 -57.4876 -0.073 -0.502 0.862 32 32 19
40.8995 56.8937 -56.9440 -0.922 -0.386 -0.015 35 28 8
40.9980 56.6950 -56.8851 -0.922 -0.386 -0.035 47 41 19
41.0867 56.4259 -56.7656 -0.871 -0.472 -0.135 65 59 36
41.1888 56.2647 -56.7377 -0.869 -0.481 -0.119 83 76 50
41.2863 56.0721 -56.6824 -0.886 -0.445 -0.132 92 88 43
42.0210 54.3695 -56.0809 -0.894 -0.406 -0.191 109 104 46
42.1573 54.4665 -56.2740 -0.960 -0.273 0.065 110 106 46
42.2354 54.1848 -56.1358 -0.962 -0.270 0.053 110 106 45
47.7754 52.1606 -59.5834 -0.098 -0.936 -0.337 96 93 43
47.9178 52.2203 -59.7544 -0.092 -0.939 -0.330 82 78 35
48.0644 52.2944 -59.9399 -0.126 -0.937 -0.326 69 64 28
48.1983 52.3183 -60.0770 -0.030 -0.954 -0.299 50 43 15
48.3382 52.3636 -60.2353 -0.030 -0.954 -0.299 39 31 11
17.1928 69.3490 -45.2153 -0.581 -0.814 -0.010 87 93 54
18.0745 67.7459 -44.8143 -0.628 -0.776 -0.053 97 105 54
18.3130 67.6498 -44.9561 -0.591 -0.800 -0.102 69 74 42
28.5558 80.7562 -63.8261 0.155 0.117 0.981 54 54 24
32.1618 66.7782 -56.6828 -0.815 -0.382 0.436 36 14 13
36.7054 63.1151 -58.0259 -0.032 -0.752 -0.658 42 45 27
37.0116 63.9486 -58.9176 -0.038 -0.795 -0.606 36 38 26
37.0547 62.4942 -57.8776 -0.408 -0.395 0.823 33 35 24
37.1367 61.7509 -57.3996 -0.289 -0.310 0.906 31 33 22
41.0299 56.5776 -57.0419 -0.872 -0.471 -0.134 42 31 21
41.1324 56.4153 -57.0131 -0.875 -0.468 -0.128 48 36 22
41.2297 56.2170 -56.9530 -0.875 -0.468 -0.128 59 50 16
41.3344 56.0779 -56.9434 -0.825 -0.463 -0.322 75 67 26
41.4300 55.8751 -56.8783 -0.827 -0.457 -0.328 84 80 32
41.5250 55.6724 -56.8129 -0.828 -0.454 -0.330 97 93 44
41.9510 54.3939 -56.2456 -0.855 -0.433 -0.287 108 104 50
42.7259 53.9081 -56.5776 -0.649 -0.722 -0.240 110 106 45
46.2821 52.5273 -58.7309 -0.060 -0.998 0.003 113 109 46
46.5454 52.0463 -58.6095 -0.222 -0.967 -0.125 113 108 47
46.7958 52.0484 -58.8348 -0.417 -0.840 0.346 112 108 50
46.9128 52.0139 -58.9137 -0.384 -0.858 0.340 113 108 50
47.1150 52.3294 -59.3284 -0.073 -0.957 0.280 113 109 50
47.1334 51.8905 -59.0193 -0.064 -0.973 -0.223 109 105 46
47.4542 52.1682 -59.5118 -0.065 -0.946 -0.318 93 91 31
48.0193 52.3904 -60.1815 -0.099 -0.942 -0.320 44 34 12
48.1505 52.4026 -60.3078 -0.098 -0.951 -0.293 36 27 10
64.5990 43.5178 -68.4151 0.114 -0.956 0.269 14 19 12
7.5873 64.4703 -33.2106 -0.684 -0.653 -0.325 68 81 37
17.1843 68.4216 -44.7410 -0.482 -0.867 0.127 83 90 51
17.3251 68.2739 -44.7570 -0.383 -0.910 0.161 85 91 53
17.7082 68.0136 -44.9060 -0.546 -0.801 0.244 100 108 61
17.8370 67.9208 -44.9521 -0.505 -0.833 0.227 106 114 64
17.9672 67.8202 -44.9937 -0.606 -0.794 -0.049 104 112 64
18.1953 67.7779 -45.1663 -0.011 -0.950 -0.311 80 86 51
18.2613 67.9988 -45.3899 0.291 -0.767 -0.573 37 41 16
18.3226 68.2483 -45.6306 0.466 -0.765 -0.445 22 26 5
28.4670 80.3834 -63.7461 0.157 0.117 0.981 54 57 26
28.7233 78.2094 -62.3563 0.378 -0.127 0.917 52 55 26
28.8678 78.1912 -62.4721 0.373 -0.119 0.920 40 43 16
29.0156 78.1084 -62.5426 0.373 -0.119 0.920 25 27 7
29.1586 78.1279 -62.6851 0.382 -0.126 0.916 20 20 10
29.3028 78.1282 -62.8144 0.383 -0.119 0.916 20 20 12
32.0720 66.7239 -56.7984 -0.720 -0.376 0.584 30 11 9
32.3336 66.1318 -56.5915 0.013 -0.860 -0.509 53 17 21
36.3776 63.4080 -58.1815 -0.252 -0.965 -0.071 43 45 31
36.5064 63.4062 -58.2954 -0.345 -0.938 -0.028 39 41 27
36.8042 64.1215 -59.0946 -0.000 -0.834 -0.552 36 38 26
41.4084 56.2725 -57.3687 -0.829 -0.456 -0.324 43 36 12
41.9282 54.7375 -56.6905 -0.854 -0.435 -0.287 103 100 57
43.2728 53.2544 -56.7892 -0.672 -0.660 -0.336 108 109 44
45.2051 52.4724 -57.9358 -0.234 -0.955 0.182 109 104 45
45.3172 52.4187 -57.9961 -0.226 -0.961 0.162 109 105 44
45.4293 52.3651 -58.0565 -0.222 -0.961 0.163 110 106 43
45.5445 52.3260 -58.1304 -0.222 -0.961 0.163 111 107 44
45.6590 52.2832 -58.2010 -0.244 -0.950 0.195 110 106 45
45.7733 52.2396 -58.2708 -0.244 -0.950 0.195 112 107 47
45.8954 52.2310 -58.3736 -0.184 -0.958 0.222 112 108 46
46.0740 52.4726 -58.7135 -0.179 -0.983 0.033 111 106 43
46.1901 52.4335 -58.7882 -0.173 -0.985 -0.019 112 106 45
46.4842 52.0837 -58.7909 -0.222 -0.967 -0.125 114 109 57
46.7262 52.0498 -58.9822 -0.413 -0.839 0.356 107 100 56
47.0472 52.3390 -59.4847 -0.100 -0.978 0.182 100 93 47
47.1659 52.3081 -59.5680 -0.093 -0.977 0.194 91 84 38
47.4038 52.2466 -59.7350 -0.065 -0.946 -0.318 60 49 10
47.9611 52.4363 -60.3750 -0.073 -0.944 -0.321 50 26 17
48.1013 51.9933 -60.1705 0.155 -0.988 -0.010 46 21 19
64.7780 52.2537 -75.2871 0.299 -0.932 -0.205 11 15 2
17.2134 68.3626 -44.9445 -0.666 -0.742 -0.077 81 88 47
17.1181 69.3368 -45.5879 -0.193 -0.836 0.513 82 89 48
17.6114 68.0341 -45.0554 -0.546 -0.801 0.244 92 99 55
17.7277 68.0022 -45.1358 -0.496 -0.835 0.237 101 108 62
17.8499 67.9418 -45.2002 -0.480 -0.840 0.251 102 110 64
17.9735 67.8746 -45.2607 -0.138 -0.952 0.272 95 102 60
18.0862 67.8609 -45.3514 -0.011 -0.949 -0.316 84 90 52
28.6390 77.8043 -62.2473 0.066 -0.252 0.965 52 55 26
28.7881 77.6820 -62.2895 0.066 -0.252 0.965 40 43 16
28.9403 77.4905 -62.2827 0.071 -0.254 0.965 25 27 7
31.9821 66.6786 -56.9206 -0.716 -0.378 0.587 28 11 11
32.3698 66.3333 -57.0098 0.107 -0.881 -0.461 59 19 27
36.2934 63.4434 -58.3644 -0.252 -0.965 -0.071 39 41 30
36.4220 63.4368 -58.4747 -0.350 -0.936 -0.039 36 38 25
41.2604 55.7420 -57.0547 -0.770 -0.203 0.605 43 33 19
41.3652 55.6091 -57.0492 -0.815 -0.215 0.537 45 36 20
41.6331 55.7630 -57.4044 -0.872 -0.421 -0.249 53 43 30
41.7227 55.5253 -57.3069 -0.880 -0.407 -0.243 59 50 36
41.8121 55.2908 -57.2116 -0.878 -0.416 -0.236 64 56 39
43.6603 53.0980 -57.2276 -0.670 -0.659 -0.342 107 105 47
43.7706 53.0332 -57.2779 -0.715 -0.642 -0.279 107 105 48
43.8675 52.8967 -57.2627 -0.720 -0.648 -0.248 109 104 49
44.2975 53.2228 -57.8920 -0.399 -0.655 0.642 107 105 48
44.4256 53.2467 -58.0247 -0.185 -0.629 0.755 107 105 49
44.5419 53.2089 -58.1007 -0.166 -0.926 0.337 109 103 49
44.7287 52.9042 -58.0401 -0.094 -0.930 0.355 110 104 50
44.7860 52.5771 -57.8468 -0.167 -0.971 0.169 110 104 50
44.9030 52.5471 -57.9292 -0.243 -0.953 0.181 110 104 50
45.0200 52.5165 -58.0112 -0.240 -0.943 0.229 108 103 49
45.1339 52.4710 -58.0792 -0.240 -0.943 0.229 107 102 48
45.2472 52.4223 -58.1442 -0.234 -0.955 0.182 107 102 47
45.3499 52.3243 -58.1631 -0.259 -0.964 -0.059 106 101 42
45.4678 52.2980 -58.2490 -0.259 -0.964 -0.059 112 107 50
45.5859 52.2716 -58.3351 -0.259 -0.964 -0.059 110 105 49
45.6954 52.2060 -58.3842 -0.299 -0.950 -0.089 112 105 50
45.8176 52.1979 -58.4877 -0.307 -0.948 -0.085 111 104 48
46.9717 52.3179 -59.6118 -0.093 -0.977 0.194 61 49 21
47.0912 52.2895 -59.6976 -0.093 -0.977 0.194 53 44 12
47.1409 51.9772 -59.5085 -0.051 -0.985 -0.166 46 36 5
47.4860 52.3489 -60.0959 -0.051 -0.954 -0.296 46 21 8
47.6233 52.3884 -60.2484 -0.054 -0.953 -0.297 53 22 18
47.8974 51.9667 -60.1786 0.149 -0.988 -0.045 55 21 19
48.0130 51.9221 -60.2489 0.193 -0.981 -0.002 56 21 21
60.8291 36.6293 -60.2947 0.559 -0.809 0.181 116 128 77
16.9724 68.5405 -45.0837 -0.658 -0.749 -0.072 78 85 43
17.4723 68.2557 -45.3185 -0.656 -0.711 0.251 75 82 40
17.6014 68.1644 -45.3657 -0.591 -0.806 0.037 87 94 52
17.7315 68.0670 -45.4094 -0.591 -0.806 0.037 91 98 56
17.8526 68.0130 -45.4775 -0.521 -0.847 0.107 84 91 49
18.0683 68.0369 -45.6891 0.004 -0.949 -0.314 68 74 40
18.1557 68.1530 -45.8547 0.134 -0.986 -0.098 22 27 1
17.5856 72.7765 -48.8170 0.071 -0.847 -0.528 71 76 44
18.4475 69.5254 -47.1479 -0.854 -0.497 0.155 69 77 31
28.1376 79.7880 -63.5567 0.232 -0.635 0.737 55 58 29
31.8932 66.5602 -56.9889 -0.658 -0.425 0.622 26 13 12
32.0239 66.3406 -56.9412 -0.007 -0.999 -0.033 42 18 20
32.1499 66.5007 -57.1746 0.337 -0.926 -0.173 49 19 23
32.2775 66.5689 -57.3404 0.190 -0.953 -0.236 58 20 27
36.2148 63.6046 -58.6473 0.063 -0.995 -0.079 36 38 27
36.3421 63.5646 -58.7315 -0.320 -0.947 -0.032 32 34 23
40.7195 55.9423 -56.9337 -0.762 -0.174 0.623 35 18 16
40.8283 55.8335 -56.9496 -0.761 -0.184 0.622 35 18 15
42.0370 54.8240 -57.2759 -0.831 -0.557 -0.014 54 52 29
42.1378 54.6790 -57.2574 -0.813 -0.579 -0.064 62 63 32
42.2400 54.5460 -57.2493 -0.715 -0.657 -0.237 71 73 37
42.3562 54.5048 -57.3226 -0.742 -0.661 -0.114 85 87 48
42.4601 54.3858 -57.3265 -0.699 -0.670 -0.250 89 92 48
42.5695 54.3024 -57.3620 -0.644 -0.727 -0.240 95 97 52
43.5447 53.5375 -57.6627 -0.452 -0.892 0.007 103 102 50
44.0880 53.1486 -57.8582 -0.285 -0.691 0.665 107 104 53
44.1993 53.0863 -57.9112 -0.306 -0.659 0.687 107 104 53
44.3074 53.0079 -57.9494 -0.335 -0.653 0.679 107 104 53
44.4151 52.9281 -57.9860 -0.342 -0.720 0.604 109 102 54
44.5314 52.8930 -58.0641 -0.286 -0.663 0.691 106 100 52
44.7106 52.5563 -57.9720 -0.339 -0.940 0.032 106 100 52
44.8321 52.5482 -58.0750 -0.245 -0.949 0.198 106 100 52
44.9483 52.5136 -58.1533 -0.287 -0.945 0.160 110 104 56
45.0622 52.4676 -58.2209 -0.287 -0.945 0.160 107 101 53
45.1761 52.4216 -58.2886 -0.287 -0.945 0.160 103 96 48
45.2891 52.3713 -58.3522 -0.276 -0.960 -0.037 101 93 44
45.4031 52.3259 -58.4205 -0.259 -0.964 -0.059 111 103 57
45.5213 52.2995 -58.5067 -0.259 -0.964 -0.059 108 100 57
45.6395 52.2731 -58.5930 -0.259 -0.964 -0.059 105 97 54
45.7570 52.2427 -58.6756 -0.255 -0.960 -0.115 102 94 51
46.6900 51.9596 -59.3003 -0.380 -0.855 0.354 47 31 16
46.8037 51.9111 -59.3660 -0.235 -0.881 0.412 40 26 8
46.9497 51.9959 -59.5607 -0.051 -0.985 -0.166 38 25 6
47.0792 52.0107 -59.6881 -0.051 -0.985 -0.166 41 27 8
60.5424 40.9535 -63.4649 -0.443 -0.661 -0.606 12 18 9
59.7690 32.3179 -56.2822 0.667 -0.569 0.481 115 128 83
59.9092 32.3533 -56.4347 0.667 -0.569 0.481 109 120 77
16.8354 69.2558 -45.7230 -0.786 -0.581 -0.210 75 82 40
17.3715 68.2925 -45.4781 -0.656 -0.711 0.251 57 63 25
17.4931 68.2374 -45.5458 -0.592 -0.806 0.021 74 80 41
17.6240 68.1377 -45.5882 -0.591 -0.806 0.037 81 88 47
18.0587 68.1724 -46.0052 -0.101 -0.952 -0.290 40 44 15
17.5286 72.5639 -48.8427 -0.271 -0.797 -0.541 81 86 56
17.6474 72.5594 -48.9461 -0.328 -0.759 -0.563 70 77 37
28.4169 78.0358 -62.7608 -0.721 -0.567 0.399 52 55 26
31.8053 66.3898 -57.0183 0.017 -0.995 -0.094 28 12 11
31.9328 66.4038 -57.1434 0.017 -0.995 -0.094 40 16 18
32.0590 66.5361 -57.3568 0.193 -0.951 -0.242 48 16 21
32.1866 66.6042 -57.5229 0.193 -0.951 -0.242 57 19 26
32.3147 66.6645 -57.6835 0.192 -0.949 -0.251 63 21 29
36.2614 63.6812 -58.9803 0.037 -0.998 -0.056 29 31 18
40.9321 55.3310 -56.8779 -0.865 -0.092 0.494 34 20 16
41.9268 55.4170 -57.8369 -0.840 -0.455 -0.295 35 28 20
41.9766 54.9197 -57.5065 -0.831 -0.557 -0.014 34 30 19
42.0787 54.7809 -57.4935 -0.815 -0.578 -0.039 33 30 16
42.1899 54.7037 -57.5351 -0.713 -0.658 -0.243 34 31 13
42.2985 54.6108 -57.5626 -0.742 -0.661 -0.114 40 38 15
42.4094 54.5342 -57.6046 -0.700 -0.669 -0.250 46 44 18
42.5134 54.4144 -57.6077 -0.650 -0.728 -0.216 54 53 25
42.6223 54.3267 -57.6394 -0.650 -0.728 -0.216 63 60 26
43.3654 53.6301 -57.7818 -0.455 -0.890 -0.001 99 97 57
43.4777 53.5700 -57.8374 -0.452 -0.892 0.007 101 97 57
43.5888 53.5031 -57.8868 -0.682 -0.701 -0.208 106 103 63
43.7772 53.1870 -57.8176 -0.679 -0.638 -0.363 107 102 62
43.8814 53.0863 -57.8352 -0.679 -0.638 -0.363 107 103 61
44.6432 52.5750 -58.1343 -0.339 -0.940 0.032 103 96 57
44.7619 52.5531 -58.2245 -0.277 -0.939 0.205 104 96 57
44.9925 52.4742 -58.3722 -0.263 -0.951 0.160 102 94 55
45.1070 52.4307 -58.4424 -0.263 -0.951 0.160 94 86 47
45.2211 52.3851 -58.5106 -0.200 -0.970 0.138 90 80 46
45.3374 52.3500 -58.5886 -0.200 -0.970 0.138 80 69 38
45.4538 52.3148 -58.6667 -0.136 -0.966 0.220 75 63 37
45.5683 52.2705 -58.7361 -0.127 -0.968 0.216 68 56 30
45.6948 52.2810 -58.8578 -0.255 -0.960 -0.115 62 50 24
45.8149 52.2619 -58.9514 -0.245 -0.963 -0.109 50 38 12
45.9842 52.4615 -59.2542 -0.179 -0.984 -0.027 46 35 9
46.0539 52.2156 -59.1312 -0.173 -0.982 -0.070 45 31 7
46.6193 51.9570 -59.4444 -0.329 -0.857 0.397 44 23 20
46.7285 51.8893 -59.4915 -0.216 -0.883 0.416 42 22 16
59.1160 32.0944 -55.6897 0.676 -0.456 0.579 11 19 8
59.2453 32.1169 -55.8229 0.676 -0.456 0.579 6 14 3
59.3489 32.1021 -55.9049 0.675 -0.467 0.571 23 31 12
59.4897 32.1402 -56.0603 0.732 -0.486 0.478 50 59 29
59.6575 32.2163 -56.2685 0.679 -0.564 0.471 85 95 57
59.8004 32.2560 -56.4270 0.679 -0.564 0.471 68 78 43
16.9762 69.1950 -46.0291 -0.921 -0.388 0.031 68 75 33
17.2565 68.3951 -45.6752 -0.783 -0.608 -0.130 58 65 24
18.0755 70.4619 -47.9791 -0.082 -0.928 -0.363 72 80 34
31.7160 66.3255 -57.1259 -0.160 -0.957 -0.240 28 10 10
40.9074 54.7884 -56.6575 -0.692 -0.709 0.135 29 18 15
41.7355 55.4712 -57.9206 -0.889 -0.446 0.103 20 9 10
41.9152 55.0106 -57.7333 -0.831 -0.553 0.057 21 13 12
42.3612 54.7012 -57.9003 -0.698 -0.672 -0.249 26 22 9
42.5635 54.4219 -57.8709 -0.644 -0.734 -0.216 30 26 4
43.2985 53.6645 -57.9585 -0.455 -0.890 -0.001 54 48 23
43.4125 53.6133 -58.0224 -0.460 -0.888 0.012 56 51 24
43.5385 53.6293 -58.1480 -0.682 -0.701 -0.208 65 59 33
44.5784 52.6081 -58.3102 -0.338 -0.940 0.046 67 57 30
44.9773 52.7467 -58.7745 -0.347 -0.938 0.021 55 45 18
45.0351 52.4268 -58.5841 -0.263 -0.951 0.160 53 43 17
45.1490 52.3800 -58.6512 -0.200 -0.970 0.138 52 40 19
45.2582 52.3110 -58.6972 -0.111 -0.942 0.316 46 33 17
45.3739 52.2724 -58.7720 -0.111 -0.942 0.316 44 31 18
45.4918 52.2441 -58.8568 -0.121 -0.972 0.202 42 28 16
45.6267 52.2934 -59.0156 -0.242 -0.965 -0.100 39 25 13
45.7466 52.2729 -59.1082 -0.242 -0.965 -0.100 39 26 12
46.5455 51.9418 -59.5765 -0.385 -0.782 0.490 44 18 23
46.6589 51.8914 -59.6404 -0.368 -0.793 0.486 43 18 22
46.7056 51.5630 -59.4335 -0.231 -0.884 0.407 45 20 23
46.8396 51.6003 -59.5825 -0.616 -0.724 0.310 43 20 22
58.9814 31.9573 -55.6265 0.676 -0.459 0.577 14 21 3
59.0672 31.9177 -55.6738 0.666 -0.451 0.593 12 19 3
59.2062 31.9546 -55.8269 0.684 -0.488 0.542 13 20 3
59.3512 31.9994 -55.9914 0.732 -0.486 0.478 24 32 7
59.4934 32.0395 -56.1498 0.727 -0.494 0.477 37 46 19
59.6343 32.0772 -56.3053 0.730 -0.490 0.475 31 39 19
60.1521 32.3194 -56.9551 0.672 -0.689 0.272 16 21 18
60.2753 32.3293 -57.0736 0.639 -0.675 0.369 13 18 12
16.8070 69.5438 -46.3678 -0.938 -0.315 0.147 72 79 37
18.0660 70.6077 -48.3132 0.161 -0.960 -0.231 76 83 39
32.0053 66.5892 -57.8247 -0.114 -0.920 -0.375 54 16 23
32.1328 66.6875 -58.0145 0.255 -0.927 -0.276 62 20 27
35.4189 63.0176 -58.1842 0.497 -0.851 0.168 41 43 29
35.5480 63.0632 -58.3354 0.497 -0.851 0.168 37 39 26
35.6781 63.1222 -58.4976 0.494 -0.852 0.172 35 37 24
41.7586 55.2982 -58.0250 -0.856 -0.516 -0.021 20 11 17
41.9875 55.1728 -58.1360 -0.728 -0.676 -0.117 18 12 16
42.1821 54.8242 -58.0461 -0.742 -0.661 -0.114 23 18 14
42.2703 54.5956 -57.9516 -0.585 -0.810 -0.038 22 17 10
42.3773 54.4923 -57.9694 -0.562 -0.827 -0.033 23 19 8
42.4930 54.4451 -58.0379 -0.558 -0.829 -0.024 26 19 9
42.5373 53.9527 -57.7029 0.338 -0.167 0.926 29 23 13
43.2324 53.7051 -58.1413 -0.460 -0.888 0.012 29 23 12
43.3452 53.6459 -58.1979 -0.460 -0.888 0.012 31 23 10
44.5101 52.6247 -58.4711 -0.338 -0.940 0.046 38 26 12
44.6735 52.8250 -58.7709 -0.478 -0.875 0.080 36 24 9
44.9100 52.7679 -58.9408 -0.347 -0.938 0.021 42 30 15
44.9631 52.4229 -58.7260 -0.263 -0.951 0.160 41 29 15
45.0782 52.3813 -58.7981 -0.198 -0.970 0.137 42 28 17
45.1809 52.2808 -58.8143 -0.111 -0.942 0.316 40 25 18
45.2965 52.2422 -58.8891 -0.111 -0.942 0.316 40 25 20
45.4219 52.2486 -59.0070 -0.260 -0.957 -0.125 41 26 22
45.5416 52.2281 -59.0994 -0.260 -0.957 -0.125 40 25 20
45.6532 52.1698 -59.1557 -0.254 -0.962 -0.101 37 22 16
46.3039 51.7430 -59.4176 0.174 -0.934 0.312 49 20 26
61.0088 41.3359 -64.7562 -0.679 -0.483 -0.553 75 85 48
60.1477 39.6729 -62.7136 -0.689 -0.466 -0.556 48 57 25
66.5603 43.6786 -71.5459 -0.286 -0.951 0.122 12 17 11
66.6649 43.6156 -71.5923 -0.272 -0.953 0.135 12 17 7
58.8484 31.8224 -55.5656 0.680 -0.462 0.569 25 33 10
58.9500 31.8060 -55.6447 0.670 -0.476 0.570 29 37 15
59.0580 31.7986 -55.7365 0.672 -0.466 0.575 25 33 11
59.2135 31.8593 -55.9229 0.732 -0.486 0.478 21 29 7
59.3647 31.9128 -56.1000 0.732 -0.486 0.478 19 26 9
59.5324 31.9891 -56.3094 0.729 -0.487 0.481 18 23 14
18.1271 69.8037 -47.9862 0.122 -0.972 -0.200 76 83 39
28.0747 78.4868 -63.6101 -0.833 -0.466 0.298 50 53 24
31.6500 67.0283 -58.0785 -0.787 -0.509 0.350 31 8 10
33.2017 64.5002 -57.5470 -0.151 -0.572 0.806 48 51 24
35.5889 63.0429 -58.5890 0.626 -0.765 0.151 31 33 22
42.7712 53.5864 -57.8460 0.043 -0.476 0.879 22 13 15
43.0971 54.0644 -58.5058 -0.498 -0.866 0.046 21 12 14
43.4296 53.8408 -58.6351 -0.511 -0.857 0.068 27 18 11
43.5767 53.9712 -58.8677 -0.709 -0.643 -0.290 29 18 11
43.6811 53.8604 -58.8773 -0.709 -0.643 -0.290 29 19 11
43.8231 53.2799 -58.5617 -0.618 -0.782 0.073 30 20 12
43.9328 53.2054 -58.6038 -0.617 -0.783 0.078 31 21 13
44.0426 53.1323 -58.6472 -0.614 -0.785 0.078 31 21 14
44.1700 53.1522 -58.7774 -0.565 -0.804 -0.183 33 19 14
44.4597 52.7324 -58.7181 -0.397 -0.909 0.130 34 21 14
44.6060 52.8467 -58.9376 -0.478 -0.875 0.080 35 21 15
44.8910 52.4190 -58.8681 -0.263 -0.951 0.160 37 24 18
45.0016 52.3555 -58.9195 -0.153 -0.981 0.116 38 25 17
45.1002 52.2348 -58.9161 -0.048 -0.956 0.289 36 23 17
45.4495 52.1299 -59.1514 0.204 -0.976 -0.075 37 22 19
45.5834 52.1747 -59.3067 0.163 -0.969 -0.185 38 23 18
45.7100 52.1841 -59.4282 0.159 -0.972 -0.171 37 22 17
60.4110 39.9816 -63.3768 -0.641 -0.505 -0.579 65 75 40
61.1261 36.6694 -61.4902 0.497 -0.859 0.124 15 18 10
61.2671 36.6926 -61.6353 0.490 -0.822 0.290 15 17 12
58.5944 31.6745 -55.3845 0.605 -0.625 0.493 30 39 15
58.6993 31.6638 -55.4710 0.612 -0.619 0.492 53 62 32
58.8058 31.6551 -55.5606 0.620 -0.618 0.484 65 74 46
58.9351 31.6790 -55.6957 0.620 -0.618 0.484 55 64 36
59.3942 31.8492 -56.2405 0.695 -0.559 0.452 9 14 8
27.9676 78.5017 -63.7981 -0.834 -0.459 0.307 50 53 24
31.6864 67.0882 -58.3978 -0.656 -0.754 0.028 36 11 15
31.8179 66.9444 -58.4063 -0.647 -0.763 0.007 46 17 22
31.9490 66.8116 -58.4229 0.252 -0.933 -0.258 54 21 27
35.1040 62.5327 -57.9913 0.748 -0.598 0.289 38 41 25
42.4318 53.4495 -57.6453 0.281 -0.148 0.948 16 7 12
42.5436 53.3882 -57.6993 0.156 0.011 0.988 16 6 14
42.6373 53.2176 -57.6531 0.159 -0.069 0.985 17 7 16
42.7195 52.9803 -57.5452 0.142 -0.042 0.989 21 11 20
43.4539 52.9999 -58.2247 -0.387 -0.858 0.337 24 14 12
43.5674 52.9494 -58.2885 -0.344 -0.897 0.280 24 12 11
43.7027 53.0188 -58.4643 -0.550 -0.809 0.208 23 9 8
43.8270 53.0255 -58.5818 -0.706 -0.686 0.177 22 8 7
44.3700 52.6411 -58.7778 -0.387 -0.905 0.175 34 19 18
44.5553 52.9543 -59.1860 -0.338 -0.890 0.306 36 22 20
44.6674 52.8931 -59.2403 -0.338 -0.890 0.306 35 21 19
44.7715 52.7928 -59.2576 -0.398 -0.867 0.301 35 20 20
44.7846 52.2470 -58.8502 -0.228 -0.952 0.206 35 20 20
44.8366 51.9005 -58.6313 -0.037 -0.999 0.025 35 20 19
44.9580 51.8931 -58.7354 -0.040 -0.999 0.014 34 18 15
58.4823 31.5689 -55.3629 0.611 -0.617 0.496 52 61 33
58.5906 31.5636 -55.4569 0.618 -0.619 0.485 86 95 64
58.7188 31.5867 -55.5905 0.618 -0.619 0.485 104 114 79
58.8374 31.5955 -55.7046 0.595 -0.688 0.416 92 102 69
58.9706 31.6248 -55.8476 0.603 -0.640 0.477 52 60 37
59.1120 31.6654 -56.0067 0.604 -0.646 0.466 19 25 12
59.2421 31.6891 -56.1425 0.604 -0.646 0.466 11 16 9
59.3598 31.6948 -56.2534 0.604 -0.652 0.457 12 16 15
17.9954 70.0819 -48.5430 0.061 -0.844 -0.533 77 83 35
27.9185 77.5519 -63.2950 -0.750 -0.383 0.540 50 53 24
31.5941 67.1179 -58.5782 -0.665 -0.739 0.105 31 11 13
31.9852 66.9357 -58.7922 0.004 -0.945 -0.328 59 20 21
35.0179 62.5175 -58.1324 0.059 -0.998 -0.031 39 42 25
35.1354 62.2441 -58.0280 0.432 -0.827 0.360 36 38 24
64.6127 50.8988 -75.9861 0.585 -0.672 0.453 14 20 6
64.7455 50.8567 -76.0739 0.524 -0.650 0.550 13 19 9
59.4941 35.8158 -59.7158 0.112 -0.617 0.779 121 134 76
59.8047 36.1117 -60.2254 0.652 -0.728 0.212 120 134 73
58.3762 31.4720 -55.3528 0.611 -0.617 0.496 83 93 57
58.4816 31.4627 -55.4411 0.598 -0.689 0.410 104 114 76
58.6045 31.4786 -55.5648 0.595 -0.688 0.416 119 130 90
58.7365 31.5071 -55.7063 0.595 -0.688 0.416 118 127 94
58.8648 31.5298 -55.8402 0.545 -0.699 0.463 57 65 42
58.9879 31.5444 -55.9629 0.545 -0.699 0.463 21 27 14
59.1034 31.5479 -56.0703 0.478 -0.726 0.494 14 19 12
17.8730 70.2144 -48.7670 0.061 -0.844 -0.533 76 84 33
31.6356 66.8950 -58.6850 -0.120 -0.938 0.326 34 15 19
31.7655 66.8496 -58.7677 -0.120 -0.938 0.326 39 16 20
33.6703 61.6993 -56.5071 0.620 -0.303 0.723 50 55 25
33.7932 61.6942 -56.6146 0.620 -0.303 0.723 44 48 22
34.9734 63.9362 -59.4222 0.674 -0.535 0.509 39 42 24
35.1205 64.5225 -60.0098 0.524 -0.713 0.466 36 38 24
35.2518 64.5545 -60.1538 0.500 -0.710 0.496 32 34 21
64.5198 50.8464 -76.0956 0.652 -0.649 0.393 14 19 12
62.0263 43.8868 -68.4421 -0.140 -0.456 0.879 119 134 67
58.3816 31.3747 -55.4431 0.598 -0.689 0.410 114 125 81
58.5097 31.3986 -55.5779 0.600 -0.678 0.425 122 133 89
58.6369 31.4205 -55.7103 0.598 -0.683 0.420 120 130 95
58.7681 31.4478 -55.8505 0.545 -0.699 0.463 46 55 31
58.8909 31.4622 -55.9730 0.545 -0.699 0.463 14 20 7
59.0115 31.4732 -56.0911 0.478 -0.726 0.494 13 18 12
31.5454 66.8142 -58.7818 -0.102 -0.912 0.397 32 16 19
31.6762 66.7124 -58.8215 -0.086 -0.927 0.365 37 17 21
34.4823 63.1458 -58.5974 0.782 -0.621 -0.055 48 52 23
34.7541 63.8285 -59.3756 0.670 -0.527 0.523 41 45 19
34.8854 63.9255 -59.5703 0.674 -0.497 0.547 38 41 21
35.1513 64.1693 -60.0017 0.666 -0.474 0.577 32 34 20
35.2792 64.1143 -60.0752 0.675 -0.473 0.566 29 31 17
64.4986 50.6426 -76.1525 0.623 -0.649 0.436 10 14 14
58.2818 31.2871 -55.4450 0.598 -0.689 0.410 123 135 87
58.4087 31.3093 -55.5776 0.600 -0.678 0.425 127 138 94
58.5397 31.3371 -55.7183 0.600 -0.678 0.425 106 117 79
6.8721 65.2562 -35.3458 -0.435 -0.646 0.627 66 80 44
17.7686 70.3478 -49.2430 0.284 -0.938 -0.201 76 84 38
31.4531 66.8438 -58.9627 0.028 -0.902 0.430 31 15 18
31.9391 60.3589 -54.3386 -0.090 -0.941 0.326 53 23 21
32.6470 61.1945 -55.6359 -0.639 -0.707 -0.302 55 37 27
32.7677 61.2111 -55.7587 -0.630 -0.721 -0.290 51 52 28
34.3995 63.3415 -58.9087 0.122 -0.917 -0.379 47 53 20
34.5296 63.4602 -59.1198 0.111 -0.917 -0.383 44 49 16
34.6603 63.5822 -59.3341 0.139 -0.901 -0.412 41 46 14
34.7872 63.5320 -59.4103 -0.499 -0.461 0.733 38 42 21
34.9121 63.4156 -59.4331 -0.501 -0.473 0.725 36 39 22
35.0318 63.1325 -59.3209 -0.366 -0.363 0.857 32 34 20
35.1553 62.9954 -59.3262 -0.366 -0.363 0.857 29 31 17
17.7366 66.2328 -46.2196 -0.292 0.029 0.956 74 81 40
31.6181 60.4374 -54.3288 -0.464 -0.491 0.737 29 10 13
31.8560 60.3255 -54.4579 -0.090 -0.941 0.326 47 20 17
32.3177 61.5945 -55.8745 -0.662 -0.681 -0.313 61 19 21
33.1678 61.1683 -56.3152 0.776 -0.440 0.452 53 58 28
33.2891 61.1034 -56.3749 0.685 -0.281 0.673 50 55 25
33.5319 61.0077 -56.5211 0.460 -0.685 -0.565 33 37 9
33.9197 62.5134 -58.0561 0.683 -0.691 -0.237 61 67 32
34.0492 62.7819 -58.3850 0.621 -0.784 -0.024 57 63 28
34.1740 62.7174 -58.4481 0.529 -0.848 -0.029 52 58 25
34.3135 63.4008 -59.1115 0.152 -0.915 -0.374 49 55 22
34.4419 63.4460 -59.2641 -0.024 -0.863 -0.505 45 50 17
34.5723 63.5575 -59.4704 -0.012 -0.877 -0.480 41 46 15
34.7045 63.7186 -59.7173 -0.737 -0.294 0.608 40 43 22
34.9534 63.4235 -59.7127 -0.729 -0.286 0.622 37 39 25
31.8909 60.2922 -54.6850 -0.659 -0.750 -0.051 55 21 20
32.2302 61.8049 -56.1869 -0.377 -0.908 -0.183 62 19 21
32.3543 61.5101 -56.0679 -0.308 -0.946 -0.099 57 22 20
32.4764 61.3689 -56.0681 -0.587 -0.809 0.020 51 26 18
32.5978 61.2944 -56.1203 -0.572 -0.820 -0.002 53 52 28
33.0833 61.2134 -56.4998 0.425 -0.730 0.535 54 59 29
33.9623 62.7627 -58.5233 0.630 -0.776 -0.010 57 61 32
34.0866 62.6668 -58.5612 0.529 -0.848 -0.029 54 58 31
34.2273 63.4658 -59.3194 -0.016 -0.855 -0.519 52 56 29
34.3581 63.6236 -59.5632 -0.024 -0.863 -0.505 50 55 27
34.4907 63.8262 -59.8439 -0.029 -0.913 -0.406 49 53 27
34.6296 64.2516 -60.3059 -0.108 -0.873 0.475 45 48 28
34.7579 64.2003 -60.3827 -0.123 -0.865 0.486 42 45 28
35.2472 63.2772 -60.1021 -0.502 -0.351 0.790 29 32 15
38.1289 61.5514 -61.3737 0.540 -0.806 -0.241 25 26 20
38.2633 61.6047 -61.5384 0.477 -0.858 0.190 20 21 15
38.4058 61.7524 -61.7849 0.376 -0.926 -0.024 19 20 14
38.5384 61.7713 -61.9209 0.383 -0.923 -0.025 19 20 14
59.0527 36.0558 -60.3900 -0.696 -0.672 -0.254 58 69 24
17.8324 65.9340 -46.5137 -0.088 -0.257 0.963 66 72 38
17.9644 66.3389 -46.9549 -0.884 -0.024 0.468 41 46 14
18.4356 66.1664 -47.2493 -0.417 -0.171 0.893 72 79 37
31.4483 60.5262 -54.6873 -0.825 -0.503 0.258 28 11 13
31.6875 60.3782 -54.7890 -0.535 -0.845 0.023 43 21 16
31.8064 60.3353 -54.8637 -0.505 -0.861 0.055 53 22 20
34.1430 63.6543 -59.6275 -0.016 -0.855 -0.519 46 49 28
34.2735 63.7861 -59.8511 -0.005 -0.863 -0.505 48 52 30
34.5394 64.1790 -60.4053 -0.142 -0.853 0.502 59 62 45
34.6682 64.1526 -60.5022 -0.133 -0.856 0.499 54 56 42
34.7862 63.7121 -60.2615 -0.813 -0.337 0.476 39 41 27
35.1563 63.1620 -60.1646 -0.513 -0.340 0.788 29 32 16
37.4802 60.8890 -60.4913 0.256 -0.897 -0.361 26 27 21
37.9026 61.3945 -61.2776 0.543 -0.804 -0.242 23 24 18
38.1770 61.5849 -61.6793 0.472 -0.864 0.175 17 18 12
38.3182 61.7179 -61.9137 0.370 -0.929 -0.017 15 16 10
38.4515 61.7463 -62.0581 0.360 -0.932 -0.029 17 18 12
31.3685 60.3386 -54.6878 -0.455 -0.851 0.261 26 12 13
31.4871 60.3015 -54.7669 -0.476 -0.829 0.294 33 22 17
31.5978 60.6589 -55.1523 0.185 -0.781 0.597 40 22 18
31.7174 60.6104 -55.2233 0.156 -0.785 0.600 51 22 22
31.8396 60.4086 -55.1749 -0.071 -0.749 0.658 60 22 25
32.0678 71.8122 -64.4473 -0.830 -0.295 0.473 63 18 23
33.7918 63.0028 -59.0250 0.140 -0.870 -0.474 31 33 18
34.0579 63.8315 -59.9275 -0.018 -0.854 -0.521 34 37 21
34.1885 63.9622 -60.1510 -0.005 -0.863 -0.505 39 42 26
34.4495 64.1156 -60.5120 -0.159 -0.854 0.496 43 45 33
34.5774 64.0528 -60.5792 -0.159 -0.854 0.496 45 47 35
34.6982 63.7073 -60.4153 -0.813 -0.337 0.476 47 49 38
35.0653 63.0405 -60.2216 -0.526 -0.288 0.800 29 31 19
37.6881 61.3904 -61.3128 0.362 -0.872 -0.330 15 16 10
37.8258 61.5028 -61.5283 0.577 -0.778 -0.248 10 11 5
38.0896 61.5512 -61.8084 0.476 -0.864 0.164 14 15 9
62.4198 55.2124 -79.0581 0.502 -0.338 0.796 35 38 27
62.4980 55.0418 -78.9941 0.478 -0.327 0.815 25 29 15
31.2807 60.4865 -54.9477 -0.116 -0.792 0.599 21 9 10
31.4002 60.4239 -55.0073 -0.116 -0.792 0.599 23 11 8
31.5153 60.5672 -55.2273 0.156 -0.785 0.600 32 15 13
31.6346 60.5300 -55.3070 0.156 -0.785 0.600 46 20 21
31.7567 60.3372 -55.2652 -0.071 -0.749 0.658 58 23 24
31.9692 71.8130 -64.6198 -0.830 -0.295 0.473 65 18 24
33.7051 63.0521 -59.2198 0.211 -0.870 -0.445 24 25 22
33.8310 63.0089 -59.3007 0.151 -0.889 -0.432 19 20 17
33.9716 63.9619 -60.1905 -0.028 -0.860 -0.510 19 19 17
34.1021 64.0841 -60.4078 -0.015 -0.862 -0.506 18 19 16
34.3586 64.0020 -60.5775 0.107 -0.889 0.445 22 23 16
34.4874 63.9866 -60.6835 -0.145 -0.854 0.499 25 26 18
35.1002 62.8388 -60.3295 0.149 -0.324 0.934 33 34 27
37.7440 61.5460 -61.7234 0.560 -0.788 -0.255 12 13 7
60.9248 42.1835 -67.5370 0.134 -0.636 0.760 18 22 10
17.7871 65.8707 -47.0869 -0.695 0.082 0.714 56 64 27
31.1937 60.5866 -55.1712 -0.282 -0.952 -0.121 20 10 10
31.3115 60.6050 -55.2942 -0.275 -0.955 -0.108 25 12 10
31.4284 60.6740 -55.4570 -0.248 -0.969 0.012 33 16 14
31.5487 60.6029 -55.5104 -0.292 -0.956 0.001 44 21 21
31.6688 60.5328 -55.5647 -0.413 -0.908 0.063 56 23 26
32.9870 61.2861 -57.3799 0.480 -0.649 -0.590 46 54 32
33.1108 61.8889 -57.9768 0.484 -0.653 -0.582 35 45 26
33.2363 62.3299 -58.4456 0.505 -0.683 -0.527 32 33 29
33.7427 62.9332 -59.3946 0.208 -0.888 -0.410 18 18 19
33.8856 64.1478 -60.4995 -0.028 -0.860 -0.510 18 18 19
34.2668 63.8336 -60.5980 0.002 -0.915 0.403 15 16 12
34.3937 63.7361 -60.6364 -0.159 -0.815 0.557 17 18 12
34.9977 62.3236 -60.0592 -0.596 -0.384 0.705 29 30 24
35.1255 62.3386 -60.1886 0.217 -0.270 0.938 28 29 23
63.1371 52.7673 -78.2575 0.662 -0.743 -0.095 108 120 71
63.4652 53.0949 -78.8216 0.707 -0.706 -0.051 112 123 83
60.8166 42.0902 -67.5666 0.115 -0.627 0.770 15 17 13
62.8650 42.9726 -70.1563 0.258 -0.805 0.534 113 128 59
64.6174 38.2929 -68.0155 0.597 -0.798 -0.082 78 87 53
16.4663 70.0415 -49.4513 -0.005 -0.588 0.809 74 81 40
31.2257 60.6519 -55.4773 -0.299 -0.954 0.010 24 11 9
31.3452 60.6131 -55.5560 -0.253 -0.967 -0.021 32 16 13
31.4645 60.5842 -55.6425 -0.400 -0.915 -0.042 44 21 21
31.5851 60.4931 -55.6802 -0.536 -0.844 0.003 54 24 26
31.7049 60.4393 -55.7472 -0.441 -0.897 -0.032 60 21 26
33.0252 62.2550 -58.4239 0.490 -0.654 -0.577 39 43 25
33.4045 63.1459 -59.4902 0.751 -0.613 0.244 21 22 17
33.5312 63.1739 -59.6294 0.493 -0.858 0.140 18 19 14
33.6584 63.2217 -59.7849 0.493 -0.858 0.140 18 19 14
33.9250 64.1062 -60.7423 0.185 -0.932 -0.312 18 19 14
34.0517 63.9591 -60.7405 0.348 -0.914 0.208 18 19 14
34.1776 63.7886 -60.7191 0.001 -0.911 0.413 16 16 14
34.3047 63.7017 -60.7662 -0.155 -0.812 0.562 14 14 12
34.4327 63.6605 -60.8508 -0.812 -0.337 0.476 13 13 11
34.9097 62.2698 -60.1703 -0.602 -0.375 0.705 22 22 20
35.0341 62.1805 -60.2130 0.217 -0.270 0.938 21 22 18
35.1525 61.9090 -60.1034 -0.166 -0.366 0.916 25 27 15
36.4970 60.7338 -60.3949 0.795 -0.580 0.177 22 23 17
36.6356 60.9446 -60.6921 0.512 -0.859 -0.022 19 20 14
38.3989 62.0597 -63.2126 -0.630 -0.680 0.376 15 19 12
63.0303 52.6910 -78.3415 0.667 -0.741 -0.077 101 113 63
60.2860 42.2024 -67.3724 0.476 -0.744 0.469 66 72 43
64.5368 38.2460 -68.1000 0.577 -0.812 -0.087 69 79 42
17.8179 65.3703 -47.1566 -0.672 0.197 0.714 40 48 9
31.1387 60.7324 -55.6870 -0.329 -0.943 0.050 25 12 11
31.2591 60.6681 -55.7459 -0.482 -0.876 0.010 33 16 14
31.3794 60.6012 -55.8028 -0.482 -0.876 0.010 43 21 21
31.4995 60.5447 -55.8678 -0.441 -0.897 -0.032 53 25 26
31.6195 60.4879 -55.9325 -0.441 -0.897 -0.032 59 22 26
34.3418 63.5310 -60.9021 -0.771 -0.215 0.599 16 17 12
34.8260 62.3703 -60.4101 -0.737 -0.201 0.646 16 17 12
34.9550 62.4269 -60.5749 -0.715 -0.700 -0.001 16 17 12
35.0758 62.2039 -60.5059 -0.685 -0.728 -0.002 24 26 16
35.7435 57.0642 -56.9664 -0.764 -0.644 -0.037 36 38 25
36.0253 60.5652 -60.0564 0.801 -0.583 0.135 30 31 23
36.2728 60.4715 -60.2088 0.797 -0.579 0.174 22 23 15
36.6728 60.8417 -60.8769 0.797 -0.572 0.193 11 12 6
38.3111 62.0346 -63.3515 -0.597 -0.782 -0.178 20 21 15
64.1630 51.0808 -78.3277 0.676 -0.718 -0.163 9 12 21
62.5367 42.8436 -70.1696 0.254 -0.785 0.565 121 135 73
64.4387 38.1747 -68.1484 0.524 -0.852 -0.004 58 68 33
31.0551 60.6829 -55.7951 -0.328 -0.941 0.086 22 10 7
31.1749 60.6396 -55.8705 -0.390 -0.916 -0.097 28 12 9
31.2952 60.5770 -55.9308 -0.464 -0.879 -0.106 36 14 14
31.4153 60.5216 -55.9967 -0.464 -0.879 -0.106 44 16 17
31.5351 60.4768 -56.0710 -0.399 -0.911 -0.109 59 22 26
32.9778 65.8209 -61.7416 -0.621 0.113 0.775 34 36 24
33.1073 65.1721 -61.3344 -0.820 0.000 0.572 27 29 18
33.3609 64.0792 -60.6813 -0.835 -0.410 0.366 15 16 7
34.7468 62.6583 -60.8074 -0.840 -0.542 0.026 14 15 9
34.8714 62.5375 -60.8243 -0.709 -0.705 -0.010 14 15 9
36.0380 62.7136 -62.0444 -0.127 -0.958 -0.255 29 30 22
36.1362 62.0357 -61.5847 -0.326 -0.812 -0.484 24 25 17
36.2634 61.9985 -61.6720 -0.290 -0.806 -0.516 20 21 13
36.3986 62.1173 -61.8932 -0.412 -0.767 -0.492 16 17 11
37.9843 62.3477 -63.5443 -0.720 -0.694 -0.003 16 17 12
38.1093 62.2490 -63.5796 -0.522 -0.833 0.185 23 24 18
44.9376 61.0573 -68.9167 0.318 -0.705 0.634 33 15 11
62.4258 42.7505 -70.2014 0.218 -0.802 0.555 115 128 74
16.8689 67.3960 -48.3751 -0.672 0.181 0.718 73 80 39
30.9681 60.7503 -55.9954 -0.366 -0.925 0.106 23 11 8
31.3300 60.5384 -56.1573 -0.337 -0.934 0.119 43 13 15
31.9469 67.9174 -62.7436 -0.619 0.139 0.773 63 21 15
33.4000 64.0576 -60.9406 -0.870 -0.386 0.306 17 19 5
34.3024 63.9658 -61.7002 -0.877 -0.478 0.041 15 16 11
34.5381 62.9266 -61.0709 -0.840 -0.543 0.004 16 17 12
34.7867 62.6261 -61.0559 -0.709 -0.705 -0.010 16 17 11
34.9112 62.5010 -61.0691 -0.709 -0.705 -0.010 21 23 13
35.1684 62.5265 -61.3277 -0.034 -0.904 -0.427 26 28 15
36.0680 62.4303 -62.0812 -0.325 -0.818 -0.474 20 21 15
36.1966 62.4049 -62.1793 -0.311 -0.818 -0.483 18 19 13
36.9775 62.3734 -62.8758 -0.801 -0.530 0.280 16 17 12
37.3728 62.3934 -63.2576 0.203 -0.963 0.178 15 16 11
37.5111 62.4919 -63.4660 -0.895 -0.411 0.174 17 18 13
37.6346 62.3644 -63.4761 -0.893 -0.394 0.219 20 21 16
37.7708 62.4226 -63.6495 -0.605 -0.708 0.363 20 21 16
37.8966 62.3306 -63.6909 -0.521 -0.765 0.379 19 20 15
44.8896 62.0629 -69.9394 -0.216 -0.517 0.829 25 11 8
45.0158 61.9657 -69.9769 -0.188 -0.512 0.838 33 15 13
62.3335 42.6879 -70.2749 0.340 -0.776 0.532 113 125 78
16.8289 67.1509 -48.3660 -0.653 0.185 0.734 73 80 39
31.2435 60.6013 -56.3548 -0.001 -0.582 0.813 45 13 16
32.7956 65.4758 -61.7832 -0.486 0.063 0.871 52 53 37
33.4381 63.8908 -61.0807 -0.864 -0.496 0.085 17 19 5
33.5644 63.6439 -60.9955 -0.857 -0.513 0.051 18 20 6
34.4560 63.1840 -61.4448 -0.821 -0.489 -0.296 19 20 15
34.7170 63.3082 -61.7881 -0.527 -0.843 0.109 19 20 15
