ply
format ascii 1.0
element vertex 666
property float x
property float y
property float z
property float nx
property float ny
property float nz
property uchar diffuse_red
property uchar diffuse_green
property uchar diffuse_blue
end_header
65.9990 6.6118 -52.7109 0.791 -0.271 0.548 13 18 11
66.5564 6.5727 -53.6099 0.792 -0.306 0.528 12 18 12
66.7940 6.4169 -54.0583 0.795 -0.336 0.506 10 17 11
48.0851 35.9768 -42.2379 -0.045 0.407 0.912 102 105 46
60.7383 0.5877 -47.9434 0.732 -0.448 0.513 37 44 27
48.5038 30.6282 -44.3556 0.778 0.092 0.621 86 90 37
49.5795 33.2016 -46.0806 0.794 0.077 0.604 75 78 32
41.0408 4.0392 -31.0893 0.889 -0.044 0.456 101 106 42
41.0820 4.1626 -31.2471 0.844 -0.008 0.536 97 101 43
41.1622 4.7491 -31.6589 0.904 -0.136 0.406 97 101 41
84.3568 66.2254 -94.0714 0.213 0.309 0.927 90 98 47
50.7826 18.0393 -45.6469 0.502 -0.131 0.855 90 98 47
41.1628 5.0136 -31.9881 0.926 -0.252 0.282 63 65 26
41.2213 5.2047 -32.1902 0.825 -0.558 -0.090 58 62 29
41.1594 5.1184 -32.1862 0.822 -0.562 -0.093 58 62 29
75.2429 70.4920 -89.9619 0.569 0.235 0.788 13 15 9
78.1396 89.8251 -100.2999 0.279 -0.853 0.441 128 140 78
81.5541 71.8875 -98.8748 -0.683 0.309 0.662 86 95 48
81.2413 71.5313 -98.7703 -0.427 0.336 0.839 109 119 66
72.1505 51.2425 -82.2424 -0.673 -0.675 -0.302 134 146 80
74.0012 74.0515 -92.1201 -0.845 -0.535 -0.015 113 121 71
73.9392 73.4119 -91.8400 -0.818 -0.571 -0.069 129 138 82
73.9346 72.9149 -91.6695 -0.817 -0.573 -0.064 130 140 80
80.8962 71.1087 -98.6067 0.558 0.118 0.822 123 134 77
95.2349 69.8421 -113.7119 -0.184 0.337 0.923 72 76 48
61.3364 12.6411 -57.9568 0.527 -0.427 0.735 74 90 41
48.0359 15.1169 -44.5108 0.802 -0.570 0.178 41 45 23
73.9441 74.7460 -92.6334 -0.784 -0.619 -0.049 102 110 64
78.7581 64.1826 -94.3125 -0.826 -0.170 0.537 112 123 66
56.9601 -0.6689 -48.8977 0.732 0.080 0.677 102 115 69
71.2432 67.3922 -87.8761 -0.839 -0.079 0.538 115 123 70
70.7389 65.2674 -86.6026 -0.970 -0.220 0.108 75 80 46
71.2067 68.0846 -88.3963 -0.638 0.146 0.756 113 122 66
70.4289 64.3805 -86.2754 -0.987 -0.142 0.080 24 25 15
95.0706 72.4278 -115.9454 -0.177 0.292 0.940 11 13 3
41.4059 64.0121 -54.7040 -0.670 0.337 0.662 98 103 45
71.1192 68.6623 -88.8256 -0.637 0.143 0.758 113 122 70
70.3564 64.0635 -86.4002 -0.980 -0.181 0.086 9 9 10
94.7292 71.6918 -115.7083 -0.153 0.310 0.938 13 16 6
70.0037 63.0783 -85.9840 -0.904 -0.427 0.025 10 11 14
70.7028 59.6090 -85.5415 -0.790 0.054 0.611 120 131 66
94.3803 71.3555 -115.5983 -0.191 0.298 0.935 10 12 8
94.2516 69.9356 -114.9624 -0.208 0.298 0.932 89 99 49
40.8570 59.1531 -52.8902 -0.796 0.281 0.536 95 102 49
70.2785 63.5906 -86.7776 -0.904 -0.428 0.014 7 11 10
70.5810 60.0162 -85.8548 -0.820 0.162 0.548 120 132 69
70.4644 59.3405 -85.4894 -0.790 0.049 0.611 107 118 59
93.9349 70.0527 -115.0410 -0.213 0.290 0.933 86 96 47
70.1267 63.5273 -86.9029 -0.896 -0.444 -0.010 7 11 10
70.3255 61.8164 -86.5165 -0.672 -0.056 0.738 82 92 59
70.2881 58.8022 -85.4090 -0.860 -0.002 0.510 62 70 31
70.2443 58.2977 -85.1823 -0.886 -0.113 0.450 31 37 11
40.1658 48.0785 -48.6514 -0.647 0.342 0.681 104 108 55
70.1400 58.3283 -85.3800 -0.886 -0.113 0.450 15 19 5
60.4896 1.1194 -54.3405 0.748 0.025 0.663 102 117 56
20.6339 103.9920 -47.3363 0.361 0.220 0.906 73 93 42
40.2295 49.8807 -49.5749 -0.640 0.284 0.714 101 104 57
40.1635 48.0869 -48.8577 -0.631 0.303 0.714 104 107 60
70.0894 58.0742 -85.5357 -0.670 -0.496 0.552 8 10 11
69.5242 13.7903 -69.0094 0.432 0.370 0.822 26 32 18
40.1114 49.6892 -49.5862 -0.712 0.218 0.668 105 107 67
40.1446 48.9741 -49.3644 -0.685 0.240 0.688 97 100 58
40.1151 47.5910 -48.8314 -0.699 0.244 0.672 101 103 61
40.3271 47.8198 -49.1491 -0.716 0.275 0.642 103 106 61
69.9657 58.0614 -85.6972 -0.670 -0.496 0.552 9 10 16
90.3562 61.4954 -109.5346 -0.164 -0.965 0.202 23 26 13
86.2752 54.3493 -102.4273 -0.519 -0.212 0.828 13 16 8
69.7363 57.8102 -85.6548 -0.641 -0.491 0.590 10 11 15
88.6522 59.1109 -107.1343 -0.333 -0.931 0.150 10 13 4
41.2699 31.6459 -44.6759 -0.902 0.229 0.366 24 24 1
41.3786 31.2822 -44.6633 -0.875 0.265 0.404 17 16 6
41.1161 34.7578 -45.8224 -0.829 0.285 0.481 20 19 5
41.4634 33.0268 -45.5696 -0.902 0.238 0.360 9 10 6
69.9860 58.0918 -86.6463 -0.460 -0.543 0.702 10 11 15
75.2060 55.5270 -91.8321 -0.899 -0.063 0.434 8 11 3
69.8711 55.5528 -86.1811 0.080 0.195 0.978 118 130 67
70.2853 55.2800 -86.5426 -0.960 -0.023 0.277 50 57 23
70.3365 55.0025 -86.4959 -0.945 0.001 0.328 26 31 10
70.3807 54.7115 -86.4362 -0.945 0.001 0.326 16 19 10
41.3694 83.4382 -65.0337 0.415 -0.890 0.192 19 23 9
68.4187 54.9449 -84.6240 -0.569 -0.573 0.590 7 12 8
70.3557 54.9027 -86.7819 -0.955 -0.128 0.268 11 14 8
70.5528 54.9375 -87.0164 -0.538 -0.604 0.589 12 13 16
74.1391 51.0730 -89.5808 0.233 -0.174 0.957 12 14 7
74.4272 51.2564 -89.9735 0.263 -0.176 0.949 14 17 7
70.2840 54.9956 -87.0398 -0.947 -0.000 0.320 11 13 9
70.4573 54.9790 -87.2284 -0.935 -0.085 0.343 11 12 15
74.1776 51.3459 -90.0298 0.320 -0.112 0.941 20 25 7
74.2796 51.1854 -90.0835 0.320 -0.112 0.941 12 16 2
45.4173 100.6142 -76.8055 -0.655 -0.540 0.528 49 53 30
44.9647 86.3317 -70.8197 -0.641 -0.702 -0.310 37 38 26
45.0916 90.6400 -72.9572 -0.652 -0.704 -0.281 45 46 29
87.8265 65.0187 -111.3350 -0.741 -0.123 0.660 129 141 77
62.4336 1.2114 -58.4324 0.797 -0.113 0.594 85 99 53
69.4701 50.1952 -86.0485 -0.927 -0.015 0.375 91 99 61
69.4500 49.7926 -85.8657 -0.935 -0.123 0.333 63 69 37
69.4365 49.4062 -85.6968 -0.934 -0.120 0.337 34 40 14
69.4016 49.5564 -86.0106 -0.934 -0.124 0.334 13 18 1
69.3751 49.1445 -85.8156 -0.935 -0.147 0.323 11 15 1
69.4378 48.9163 -85.7959 -0.933 -0.153 0.327 9 13 1
76.1636 31.1337 -86.3611 0.630 0.226 0.743 24 32 14
69.4242 49.1076 -86.1505 -0.920 -0.195 0.339 7 10 1
69.4148 49.3091 -86.5163 -0.925 -0.204 0.321 7 10 5
40.4694 74.0951 -63.9701 -0.946 -0.208 0.248 52 59 28
41.0960 73.7304 -64.5417 -0.178 -0.349 0.920 39 42 23
40.4324 77.5266 -65.6458 -0.249 0.393 0.885 45 51 24
40.7487 76.4045 -65.8515 -0.808 -0.422 0.411 33 37 23
48.3840 17.3251 -50.0412 0.380 -0.886 -0.266 10 13 18
56.6354 30.2856 -64.9919 -0.647 -0.763 -0.005 37 42 20
39.8909 77.7455 -65.7268 -0.289 0.379 0.879 36 40 15
40.7191 74.2574 -65.2219 -0.497 -0.613 0.614 31 34 23
48.2124 17.0177 -49.8690 0.341 -0.888 -0.308 8 12 15
71.6242 45.6538 -89.0362 -0.803 -0.493 0.334 31 36 18
38.3416 88.1663 -68.6429 0.245 0.376 0.894 28 29 19
39.5528 79.0101 -66.1782 -0.426 -0.884 -0.192 42 46 23
39.6732 78.7611 -66.2128 -0.492 -0.846 -0.207 35 39 16
40.4819 76.6668 -66.2667 -0.918 -0.322 0.230 29 32 21
44.1173 51.7348 -59.9472 0.600 -0.613 0.513 28 14 13
48.0426 16.7130 -49.6979 -0.397 -0.836 -0.379 13 17 15
48.1695 16.8349 -49.8968 -0.172 -0.948 -0.268 14 19 11
39.6779 79.0188 -66.6410 -0.496 -0.847 -0.190 30 33 14
39.7882 78.5982 -66.5903 -0.392 -0.901 -0.187 27 30 13
39.9153 78.4641 -66.6813 -0.397 -0.900 -0.182 26 29 14
47.9943 16.7483 -49.8110 -0.383 -0.839 -0.387 24 29 21
48.1246 16.8802 -50.0189 -0.340 -0.859 -0.382 44 51 34
47.0397 17.0145 -48.9662 -0.660 -0.671 -0.338 107 116 61
47.1092 16.9795 -49.0322 -0.660 -0.671 -0.338 107 116 59
47.1691 16.9156 -49.0747 -0.660 -0.670 -0.340 109 118 64
47.2398 16.8839 -49.1437 -0.660 -0.670 -0.340 93 101 53
47.2932 16.8005 -49.1702 -0.663 -0.670 -0.335 76 83 44
47.9703 16.8531 -49.9828 -0.379 -0.840 -0.388 28 34 20
85.0611 59.3083 -111.4647 -0.587 0.051 0.808 15 20 2
39.2504 84.1818 -69.0007 -0.141 -0.954 0.265 42 45 22
46.4736 20.7200 -50.0572 0.277 0.036 0.960 54 58 31
46.3886 20.1401 -49.7075 -0.834 -0.542 -0.103 46 50 25
47.3569 16.9285 -49.4537 -0.683 -0.678 -0.273 36 39 19
47.9340 16.9239 -50.1267 -0.376 -0.848 -0.374 33 40 20
48.0673 17.0642 -50.3431 -0.356 -0.852 -0.384 71 80 48
69.3529 46.1936 -87.8088 -0.954 0.048 0.295 10 12 10
84.4744 57.8048 -110.5047 -0.616 0.048 0.787 16 21 3
38.6159 80.0660 -66.7999 0.083 -0.643 0.761 47 51 25
39.1291 84.8222 -69.4683 -0.528 -0.828 0.190 42 45 24
46.2801 20.5692 -49.9287 0.392 0.115 0.913 54 58 31
46.2321 20.1129 -49.6741 0.144 0.175 0.974 54 58 33
46.3488 20.2306 -49.8621 -0.834 -0.542 -0.103 46 50 25
47.8883 16.9689 -50.2491 -0.130 -0.921 -0.367 38 47 22
48.0037 17.0588 -50.4234 -0.188 -0.926 -0.327 76 86 49
38.7566 83.2522 -68.6782 -0.569 -0.820 0.062 42 45 25
46.1655 20.4010 -49.8840 0.374 0.116 0.920 54 58 32
46.0785 19.8071 -49.5220 0.238 0.155 0.959 52 56 31
46.2096 19.6345 -49.7617 -0.148 0.155 0.977 13 14 2
46.2402 19.4573 -49.7196 -0.159 0.159 0.974 10 11 4
47.9887 17.1290 -50.7526 -0.251 -0.919 -0.304 100 111 68
46.1296 19.0218 -49.5575 0.508 0.150 0.848 12 13 10
47.5160 17.1528 -50.3644 -0.507 -0.787 -0.351 4 8 7
37.7924 84.5574 -69.1146 -0.107 -0.200 0.974 42 47 27
47.5159 17.5848 -50.7156 -0.525 -0.761 -0.381 4 8 9
47.4850 17.2454 -50.5276 -0.507 -0.787 -0.351 4 8 7
47.5336 17.1426 -50.5391 -0.342 -0.884 -0.318 4 9 4
37.5998 83.5539 -68.7706 0.029 -0.420 0.907 39 43 28
47.4789 17.6624 -50.8671 -0.535 -0.762 -0.365 4 8 9
47.4686 17.3820 -50.7288 -0.506 -0.786 -0.356 4 8 8
47.6191 17.3315 -50.8845 -0.484 -0.795 -0.365 23 28 19
56.8557 27.0126 -66.1814 -0.725 -0.653 -0.222 6 10 12
47.4378 17.4775 -50.8957 -0.506 -0.786 -0.356 7 11 11
47.6006 17.4617 -51.0819 -0.484 -0.794 -0.367 32 37 28
56.9634 26.8889 -66.4673 -0.809 -0.580 -0.094 10 16 4
80.6755 47.8502 -104.1138 -0.713 -0.072 0.698 20 25 1
55.0380 44.1075 -72.2317 -0.925 -0.301 -0.233 25 28 17
47.4147 17.5974 -51.0839 -0.484 -0.801 -0.354 7 11 11
47.5958 17.6343 -51.3163 -0.382 -0.842 -0.380 36 41 32
47.6882 17.6570 -51.4367 -0.390 -0.840 -0.378 68 76 55
80.2993 47.1139 -103.6714 -0.690 -0.205 0.694 41 47 19
45.7702 20.6681 -50.6918 -0.493 0.351 0.796 50 52 30
47.4739 17.7123 -51.3693 -0.482 -0.802 -0.354 8 13 9
47.5719 17.7519 -51.5044 -0.363 -0.850 -0.381 42 47 38
47.6699 17.7905 -51.6390 -0.357 -0.854 -0.378 71 79 58
45.6817 20.5919 -50.7184 -0.483 0.352 0.802 50 52 30
99.1105 58.5080 -132.1013 -0.646 -0.416 0.640 68 78 42
100.8416 57.0414 -133.4944 -0.604 -0.790 -0.108 11 13 12
38.7983 80.7958 -70.6040 0.502 0.347 0.792 21 21 18
45.6437 20.7019 -50.8918 -0.430 0.315 0.846 48 50 27
49.3402 27.7798 -58.6096 -0.915 -0.211 0.343 9 11 1
71.7651 27.1091 -85.1717 -0.564 -0.480 0.672 11 13 11
45.5103 20.4593 -50.7869 -0.450 0.312 0.837 48 50 27
45.4858 20.0630 -50.5721 -0.459 0.330 0.825 49 51 25
50.3866 14.4424 -53.8302 -0.764 -0.640 -0.085 6 8 7
45.2730 18.6335 -49.8101 -0.680 -0.061 0.731 70 75 44
48.9259 28.5543 -59.0801 -0.954 -0.283 0.104 39 42 25
32.1787 96.3702 -71.3719 -0.612 0.209 0.763 46 50 25
36.8893 32.2848 -46.5081 0.486 0.313 0.816 20 21 16
53.7724 45.0116 -72.9924 -0.879 -0.151 0.453 72 77 50
45.9860 14.0786 -48.8262 -0.963 -0.018 0.268 6 9 0
32.1910 93.0860 -70.1806 -0.603 0.069 0.795 42 46 23
35.7584 90.9907 -73.8630 -0.355 -0.925 -0.136 18 19 20
36.1427 88.4649 -73.1096 -0.971 -0.018 0.238 12 12 13
37.5188 71.9254 -66.7909 -0.750 -0.609 0.256 11 10 6
38.6974 74.8882 -69.6539 0.611 -0.657 0.442 16 15 10
53.8105 44.0460 -73.1117 -0.887 -0.151 0.437 27 30 9
53.9643 43.6685 -73.1162 -0.909 -0.175 0.378 6 8 7
53.7167 42.4136 -72.2092 -0.661 -0.395 0.638 6 7 9
35.8411 88.7796 -73.2546 -0.980 -0.103 0.168 14 14 14
38.4353 75.2236 -69.8215 0.178 -0.721 0.670 17 18 13
53.5779 44.5217 -73.3284 -0.883 -0.196 0.426 82 88 52
51.0349 13.4436 -55.1212 0.167 -0.955 0.245 8 10 6
38.3245 75.9667 -70.3752 -0.199 -0.658 0.726 22 21 17
38.5227 77.2749 -71.2573 0.092 -0.635 0.767 25 25 18
55.0815 46.2447 -76.2767 -0.573 -0.820 -0.020 1 3 11
37.2878 80.9478 -71.8894 -0.307 -0.877 -0.371 25 27 5
38.2607 77.7874 -71.5226 -0.472 -0.196 0.860 28 25 19
48.4314 29.9923 -60.4198 -0.976 -0.117 0.184 14 14 15
48.5497 29.3081 -60.2276 -0.977 -0.127 0.174 73 80 47
36.0785 89.0669 -74.7748 0.186 -0.828 0.529 19 21 9
37.0315 82.0681 -72.4734 -0.190 -0.904 -0.384 58 62 33
37.1731 82.1240 -72.6748 -0.190 -0.904 -0.384 50 55 25
35.9105 88.9607 -74.8821 0.186 -0.828 0.529 25 28 11
37.0075 81.8379 -72.6763 -0.512 -0.831 0.220 65 74 37
37.1284 81.2789 -72.5459 -0.528 -0.817 0.230 60 73 33
37.2743 81.4679 -72.8194 0.318 -0.945 -0.074 56 67 32
37.4164 81.5318 -73.0259 0.318 -0.945 -0.074 54 63 30
37.5591 81.5958 -73.2331 0.318 -0.945 -0.074 48 52 24
97.4742 55.7202 -133.9337 -0.111 -0.521 0.846 7 12 6
36.7616 83.5173 -73.5644 -0.901 -0.423 0.097 59 69 29
36.9076 83.6626 -73.8171 -0.909 -0.403 0.107 57 68 28
37.1680 82.9448 -73.7773 -0.533 -0.810 0.245 66 75 39
97.1972 55.5227 -133.9274 -0.169 -0.508 0.844 6 11 2
97.3065 55.3000 -133.9502 -0.156 -0.516 0.842 7 13 4
30.7144 92.5228 -71.0053 -0.852 -0.277 0.444 51 56 24
36.6317 84.5487 -74.2790 -0.785 -0.614 0.082 60 67 32
36.7633 84.1673 -74.2487 -0.908 -0.405 0.108 64 71 36
49.6874 14.7041 -55.0981 -0.904 -0.426 0.032 45 49 29
97.0201 55.0908 -133.9250 -0.118 -0.282 0.952 12 18 5
36.4569 84.0093 -74.1466 -0.813 -0.577 0.076 63 64 35
37.1465 83.2954 -74.6366 -0.426 -0.861 0.277 87 70 54
37.2715 82.7832 -74.5308 -0.418 -0.872 0.256 57 36 22
67.9331 31.8116 -86.5386 -0.800 -0.594 0.082 9 11 7
96.7304 54.8771 -133.8921 0.473 -0.185 0.862 21 28 10
36.2907 83.7648 -74.1729 -0.780 -0.618 0.102 61 55 34
36.5768 83.8546 -74.5735 -0.888 -0.447 0.111 55 41 24
36.7101 83.5438 -74.5798 -0.842 -0.529 0.104 45 28 13
52.5398 49.3156 -76.9808 -0.781 -0.623 -0.046 10 12 11
52.9736 9.9947 -57.2679 -0.722 -0.685 -0.104 5 7 5
51.8560 52.1434 -79.7162 -0.080 -0.956 0.282 4 5 1
45.6746 11.4913 -50.3391 -0.939 -0.257 0.227 6 7 12
44.7091 48.9303 -69.7951 -0.937 -0.273 0.220 42 12 19
47.1328 4.2286 -48.6393 0.592 -0.802 -0.081 58 64 39
48.3472 5.4553 -50.8722 0.911 -0.080 0.405 7 10 2
47.4804 3.5901 -48.7290 0.517 -0.856 -0.024 5 7 3
68.5173 22.6337 -86.1849 0.315 -0.942 0.113 7 11 10
47.2409 32.1047 -64.4855 -0.926 -0.217 0.309 62 67 45
45.2366 13.7337 -51.6565 -0.830 0.173 0.530 86 91 67
47.4569 4.2274 -49.1908 0.837 -0.122 0.533 77 85 50
47.3087 3.4845 -48.5859 0.507 -0.861 -0.038 19 24 4
68.4691 22.4464 -86.2831 0.253 -0.952 0.174 7 12 8
68.6404 22.4536 -86.5065 0.361 -0.931 0.056 7 12 5
68.8745 22.5423 -86.8559 0.340 -0.940 0.036 21 25 11
29.1202 87.6330 -72.6604 0.253 0.196 0.947 25 28 11
68.1559 22.3460 -86.0894 0.335 -0.938 0.088 7 11 10
68.2977 22.3152 -86.2541 0.361 -0.927 0.098 8 13 9
68.5313 22.4054 -86.6048 0.361 -0.931 0.056 7 12 5
68.7699 22.5004 -86.9645 0.340 -0.940 0.036 28 33 17
29.0854 87.7068 -73.0293 0.349 0.163 0.923 24 25 10
45.3660 13.0312 -51.7556 -0.941 -0.275 0.198 9 11 3
67.9308 22.1422 -85.9490 0.368 -0.924 0.106 7 12 10
68.1849 22.2617 -86.3436 0.361 -0.927 0.098 7 12 10
68.4222 22.3571 -86.7030 0.361 -0.931 0.056 7 12 5
68.6377 22.4220 -87.0170 0.361 -0.931 0.056 38 43 23
78.5392 30.9044 -104.5572 -0.320 -0.629 0.709 7 11 8
28.9590 86.7397 -72.6897 0.184 -0.202 0.962 27 28 9
42.9400 20.8364 -53.2304 -0.667 -0.305 0.679 40 42 23
42.9265 20.3858 -52.9566 -0.679 -0.330 0.656 40 42 22
46.3015 33.3688 -64.6973 0.882 -0.383 0.275 8 10 4
45.3028 13.2705 -51.9740 -0.967 -0.250 0.058 6 11 5
67.7408 21.9849 -85.8788 0.377 -0.915 0.143 7 12 8
68.0721 22.2083 -86.4333 0.361 -0.927 0.098 7 11 10
68.3589 22.3698 -86.8953 0.382 -0.916 0.124 7 12 8
68.5652 22.4224 -87.1912 0.443 -0.886 0.135 48 54 27
68.7346 22.4253 -87.4115 0.288 -0.950 0.122 103 111 72
45.2412 13.2682 -52.0582 -0.950 -0.311 -0.017 5 9 8
45.9730 9.0957 -50.6161 -0.911 -0.387 -0.140 53 57 41
67.6195 21.9194 -85.9488 0.315 -0.933 0.172 7 12 8
68.0575 22.2862 -86.7252 0.295 -0.948 0.116 7 11 10
68.2429 22.3126 -86.9800 0.295 -0.948 0.116 6 11 6
68.4701 22.3932 -87.3199 0.295 -0.948 0.122 66 73 39
68.5849 22.3242 -87.4290 0.217 -0.939 0.266 110 119 74
28.7570 86.8279 -73.2232 0.153 -0.151 0.977 27 25 10
67.5163 21.8782 -86.0562 0.256 -0.963 0.082 6 10 9
67.9632 22.2579 -86.8541 0.278 -0.950 0.142 8 12 10
68.1764 22.3214 -87.1671 0.295 -0.948 0.122 7 13 3
68.3489 22.3296 -87.3954 0.271 -0.952 0.145 83 91 50
68.4535 22.2470 -87.4834 -0.251 -0.386 0.888 118 128 76
67.4166 21.8419 -86.1712 0.256 -0.963 0.082 9 13 13
67.8631 22.2220 -86.9715 0.104 -0.991 -0.078 6 11 8
68.0477 22.2475 -87.2261 0.070 -0.994 -0.083 16 22 9
68.2239 22.2607 -87.4627 0.235 -0.937 0.259 102 111 65
42.4771 19.9816 -52.8714 -0.046 -0.006 0.999 38 39 23
42.4481 19.4488 -52.5229 0.074 0.208 0.975 38 40 22
67.4346 21.9648 -86.5325 0.020 -1.000 0.019 8 12 12
67.7409 22.1563 -87.0430 0.111 -0.990 -0.083 5 10 6
67.9232 22.1790 -87.2937 0.058 -0.996 -0.061 39 46 30
68.0770 22.1627 -87.4844 -0.327 -0.334 0.884 114 124 75
68.1490 22.0372 -87.5051 -0.327 -0.334 0.884 112 123 63
68.2210 21.9120 -87.5258 -0.327 -0.334 0.884 117 130 63
47.4662 24.5935 -62.2728 -0.798 0.217 0.562 74 81 44
67.0616 21.7793 -86.2045 0.048 -0.994 0.102 6 9 8
67.3387 21.9342 -86.6572 0.006 -0.992 0.126 5 9 7
67.6733 22.1643 -87.2289 0.111 -0.990 -0.083 6 11 6
67.8276 22.1493 -87.4215 0.265 -0.948 0.174 53 60 44
67.9510 22.0925 -87.5494 -0.255 -0.396 0.882 113 122 75
68.0282 21.9737 -87.5804 -0.255 -0.396 0.882 112 123 66
68.1113 21.8633 -87.6242 -0.341 -0.330 0.880 111 123 62
27.4512 102.7164 -82.3972 0.013 -0.874 0.486 29 26 15
67.2516 21.9155 -86.8006 0.006 -0.992 0.126 9 14 10
67.6056 22.1723 -87.4154 0.111 -0.990 -0.083 3 8 3
67.7177 22.1005 -87.5197 0.262 -0.943 0.205 36 43 29
67.8261 22.0236 -87.6163 -0.255 -0.396 0.882 109 118 75
67.9033 21.9050 -87.6473 -0.255 -0.396 0.882 113 122 72
67.9890 21.7978 -87.6962 -0.341 -0.330 0.880 107 117 64
45.8278 9.3840 -51.5264 -0.942 -0.245 0.228 77 86 41
67.2285 21.9842 -87.0805 0.014 -0.994 0.113 10 15 10
67.5376 22.1804 -87.6024 0.111 -0.990 -0.083 4 9 3
67.6073 22.0510 -87.6170 0.266 -0.942 0.203 18 24 10
67.7231 21.9841 -87.7293 -0.341 -0.330 0.880 89 97 58
67.7950 21.8581 -87.7487 -0.341 -0.330 0.880 103 111 68
67.8667 21.7324 -87.7681 -0.341 -0.330 0.880 103 112 68
28.3732 85.1043 -73.9589 0.082 0.163 0.983 23 21 8
67.0876 21.8928 -87.1113 0.004 -0.994 0.108 8 14 3
67.4707 22.1902 -87.7926 0.108 -0.991 -0.082 9 15 2
67.4936 21.9973 -87.7076 0.262 -0.943 0.205 9 17 0
67.5930 21.9082 -87.7851 -0.102 -0.450 0.887 44 53 24
67.6863 21.8109 -87.8497 -0.285 -0.339 0.896 66 76 44
67.7600 21.6876 -87.8728 -0.285 -0.339 0.896 78 87 57
67.8335 21.5645 -87.8960 -0.285 -0.339 0.896 70 79 54
27.9753 82.0234 -71.9596 0.318 -0.065 0.946 36 39 20
67.0465 21.9376 -87.3551 -0.640 -0.750 0.165 8 14 3
67.3815 21.9456 -87.8015 0.262 -0.943 0.205 7 13 0
67.4496 21.8142 -87.8123 0.136 -0.625 0.769 9 16 0
67.5187 21.6847 -87.8255 -0.113 -0.401 0.909 26 34 12
67.6349 21.6184 -87.9388 -0.285 -0.339 0.896 38 46 26
67.7085 21.4954 -87.9619 -0.285 -0.339 0.896 37 43 28
66.9704 21.7110 -87.3899 -0.793 -0.538 0.286 8 14 4
67.3008 21.7129 -87.8275 -0.118 -0.398 0.910 1 5 0
67.3820 21.5998 -87.8664 -0.118 -0.398 0.910 7 13 2
67.5098 21.5493 -88.0048 -0.285 -0.339 0.896 13 19 9
67.5835 21.4263 -88.0278 -0.285 -0.339 0.896 14 19 12
42.7686 30.1933 -60.7654 0.162 0.584 0.795 28 18 19
66.9390 21.7691 -87.6559 -0.787 -0.553 0.272 9 15 5
67.0297 21.6688 -87.7150 -0.692 -0.713 0.110 9 14 8
67.1369 21.5910 -87.8096 0.069 -0.641 0.764 6 11 6
67.1934 21.4449 -87.7958 0.123 -0.591 0.797 8 13 8
67.3121 21.3826 -87.9151 -0.151 -0.387 0.910 7 12 9
67.3998 21.2789 -87.9682 -0.140 -0.394 0.908 7 11 12
66.9438 21.6525 -87.8646 -0.373 -0.922 0.105 9 14 5
67.0335 21.5509 -87.9216 -0.346 -0.938 0.016 7 12 7
67.0585 21.3620 -87.8392 -0.340 -0.936 0.094 6 10 9
67.1651 21.2836 -87.9327 -0.330 -0.940 0.091 6 10 11
27.2429 75.4535 -68.4135 0.159 0.223 0.962 51 55 32
36.1923 60.3384 -71.0214 -0.263 -0.956 -0.128 57 14 18
47.1033 24.5258 -63.5010 -0.347 -0.904 0.250 11 14 5
45.8633 7.9104 -51.6239 -0.780 -0.574 -0.249 34 38 22
67.0652 21.4705 -88.1886 -0.510 -0.849 -0.140 6 10 9
67.0775 21.2644 -88.0780 -0.254 -0.934 -0.250 6 10 9
42.7924 31.9534 -62.5705 0.218 0.525 0.823 24 14 15
67.2423 21.5858 -88.7716 -0.246 -0.954 -0.171 6 10 9
47.1826 22.2413 -62.6290 -0.903 -0.425 0.067 46 53 37
47.9020 8.4597 -55.0068 0.926 -0.069 0.371 2 6 6
67.2101 21.6426 -89.0415 -0.246 -0.954 -0.171 6 11 7
47.4635 17.7208 -60.7906 -0.790 0.237 0.566 40 47 18
47.2957 17.1497 -60.4021 -0.780 0.258 0.571 45 52 17
47.2113 16.8290 -60.2826 -0.761 0.264 0.592 62 68 38
45.5892 7.9853 -52.4119 -0.847 -0.007 0.532 74 82 40
22.9932 92.0649 -76.1736 0.559 -0.800 0.217 67 74 43
31.9464 64.4030 -70.4710 0.613 -0.790 -0.015 71 21 22
32.0504 65.1236 -71.0772 0.625 -0.781 -0.014 70 20 21
32.1637 65.4001 -71.4094 0.378 -0.251 0.891 69 19 18
32.5087 66.3190 -72.4708 0.657 -0.754 0.019 64 18 20
32.6374 65.5520 -72.1504 0.312 -0.178 0.933 57 14 17
45.4794 8.2486 -52.5936 -0.224 0.353 0.908 69 75 50
31.5787 64.2253 -70.1865 0.657 -0.752 -0.048 71 20 22
46.0742 7.1340 -52.8414 -0.585 -0.797 0.147 6 8 9
32.1227 63.7023 -71.2500 0.444 -0.676 0.588 39 7 13
46.6989 19.0490 -61.8453 -0.961 -0.068 0.269 2 6 9
46.5993 18.9650 -61.8636 -0.969 -0.172 0.179 2 6 9
45.8504 7.1112 -53.1657 -0.594 -0.238 0.769 21 24 13
54.5335 20.7481 -74.1623 0.730 0.142 0.669 26 30 16
54.7280 20.3819 -74.1862 0.782 -0.058 0.620 6 7 9
53.7345 19.7180 -72.6186 -0.581 0.202 0.788 67 75 39
54.5088 20.0836 -73.9296 0.766 -0.063 0.640 6 7 9
54.4961 19.8021 -73.7240 0.780 -0.080 0.621 6 7 9
45.0033 9.5478 -53.9605 0.547 -0.830 0.107 32 36 24
45.1963 7.4913 -52.8439 -0.767 -0.619 -0.169 3 7 6
56.2796 18.8052 -75.7595 -0.851 -0.477 -0.220 81 90 35
44.9336 9.5144 -54.0122 0.518 -0.848 0.112 32 36 22
45.0239 9.5498 -54.1611 0.518 -0.848 0.112 56 62 37
45.1102 9.3459 -54.1428 0.022 -0.024 0.999 63 73 39
45.5537 6.5725 -52.8807 -0.893 -0.448 0.044 58 62 45
50.9183 2.6175 -57.6324 -0.424 -0.846 -0.323 14 16 14
45.0676 9.1647 -54.1314 -0.189 -0.187 0.964 63 73 38
45.0746 8.9612 -54.0026 -0.936 -0.154 0.317 63 73 36
67.4760 17.1132 -90.6421 -0.651 -0.641 0.406 6 11 7
67.8802 16.3774 -90.7025 -0.724 -0.609 0.324 16 22 10
45.4098 7.6823 -53.7641 -0.862 0.082 0.501 3 6 12
45.5565 6.2692 -53.0010 0.748 0.033 0.663 70 76 50
56.6013 19.3495 -77.3218 -0.673 -0.661 -0.332 9 10 5
56.7193 19.3272 -77.4708 -0.696 -0.652 -0.302 11 10 14
56.5731 19.6846 -77.7660 -0.811 -0.507 -0.292 14 16 13
56.7795 19.5816 -77.9830 -0.673 -0.658 -0.337 4 5 8
51.8968 8.7641 -63.7250 -0.522 -0.848 0.094 6 7 10
27.4848 63.9250 -67.9745 0.107 -0.886 -0.451 56 18 26
45.0095 7.9482 -53.7232 -0.870 -0.340 0.357 5 10 4
56.6752 19.7758 -78.2273 -0.521 -0.769 -0.371 7 9 8
56.8061 19.7751 -78.4099 -0.521 -0.769 -0.371 5 6 8
56.6818 19.9340 -78.6039 -0.509 -0.777 -0.371 6 8 7
26.9662 62.8236 -67.1391 -0.469 -0.801 -0.372 49 16 15
45.2396 7.5553 -54.2776 -0.222 -0.961 -0.166 43 50 34
45.3868 7.7407 -54.6158 -0.110 -0.265 0.958 61 67 38
71.2108 42.4753 -115.4783 0.302 -0.953 -0.039 84 94 45
45.3280 7.1106 -54.2571 -0.614 0.236 0.753 61 67 40
48.0615 6.4255 -57.6333 -0.808 -0.574 -0.136 4 8 9
44.8875 7.7475 -54.2563 -0.626 -0.779 -0.019 2 5 10
44.8199 7.7160 -54.3085 -0.598 -0.801 -0.020 2 5 10
44.8083 7.4684 -54.1146 -0.204 -0.978 -0.044 4 8 10
44.7588 7.7033 -54.3837 -0.696 -0.717 -0.038 4 5 10
44.7417 7.4389 -54.1688 -0.169 -0.983 -0.076 7 8 13
51.1651 1.6637 -59.1491 0.494 -0.857 -0.144 8 10 9
51.4180 1.8932 -59.6745 0.499 -0.855 -0.143 8 9 9
44.9390 7.4417 -54.7951 -0.401 -0.619 0.675 56 65 36
45.0132 7.2196 -54.7392 -0.938 -0.270 0.218 56 66 32
45.0766 3.5448 -52.1498 0.674 0.247 0.696 11 15 14
45.1540 3.5542 -52.2673 0.686 0.230 0.690 19 23 20
45.3205 3.7725 -52.6648 0.713 0.195 0.674 27 33 22
44.7715 7.5646 -54.8178 0.165 -0.982 -0.090 31 34 25
44.6988 3.1029 -51.4406 0.931 -0.196 0.308 4 9 3
45.2990 3.6644 -52.7136 0.258 0.252 0.933 14 19 13
59.2601 -0.8126 -69.4582 0.875 -0.106 0.473 14 15 19
62.3340 1.2053 -75.5600 0.304 -0.939 0.159 12 15 8
51.9875 79.2265 -119.7614 -0.183 0.306 0.934 16 18 16
44.3784 7.5328 -54.9234 0.199 -0.960 -0.199 7 8 12
10.1327 113.6239 -85.4104 0.502 -0.777 0.379 68 76 35
45.0236 7.3178 -55.8740 -0.781 -0.592 -0.199 3 7 7
45.7419 3.5224 -54.0531 0.773 -0.346 0.532 9 14 10
9.0498 112.0887 -84.1652 -0.430 -0.702 0.567 56 63 31
8.8891 111.8023 -84.2085 -0.276 -0.543 0.793 56 63 32
46.7555 -0.3900 -53.6440 -0.887 -0.456 0.073 8 13 11
44.3034 0.0614 -50.8162 0.323 0.145 0.935 13 18 11
40.1633 16.4465 -58.7806 -0.738 -0.179 0.651 3 5 1
51.6670 56.4554 -109.4984 -0.124 -0.983 -0.135 3 5 1
65.6077 12.5284 -94.3330 -0.185 -0.983 -0.003 30 37 17
55.9186 2.4217 -71.5042 0.593 0.025 0.805 5 10 4
45.0319 0.1207 -53.2006 0.911 0.024 0.411 30 37 19
45.1756 -0.0363 -53.2883 0.899 -0.244 0.365 3 7 11
44.9323 -0.1441 -52.9855 0.884 -0.326 0.334 26 32 17
44.9670 -0.2227 -52.9724 0.883 -0.314 0.349 9 14 9
43.4752 17.4343 -65.7678 -0.837 -0.346 0.424 2 4 3
33.7508 32.2555 -63.9256 0.743 -0.483 0.464 43 45 26
33.2099 31.9747 -63.3851 0.808 -0.493 0.323 25 27 7
60.2135 23.7103 -98.0823 -0.216 -0.964 -0.155 3 7 6
33.4489 32.4041 -64.3982 0.690 -0.498 0.525 85 93 53
61.1726 5.8795 -84.4179 -0.163 -0.707 0.688 8 14 15
6.8339 90.0406 -73.5822 0.627 -0.779 -0.021 65 73 36
7.5356 87.5171 -72.4698 0.735 -0.678 -0.023 61 69 32
51.4916 11.0823 -74.1451 0.907 0.055 0.418 10 16 3
35.1875 68.7525 -99.6091 -0.957 -0.011 0.289 3 8 1
35.3210 67.9896 -99.1471 -0.962 -0.030 0.270 3 8 2
35.5739 66.1038 -97.8848 -0.961 -0.081 0.266 2 6 5
42.3640 13.8421 -62.5586 -0.804 -0.594 -0.030 15 19 18
7.7473 83.8032 -70.3865 0.748 -0.437 0.500 60 70 33
35.2883 67.3292 -98.9709 -0.958 -0.065 0.279 8 13 7
51.0469 9.6168 -72.6493 0.713 -0.006 0.701 6 11 7
35.0188 70.1605 -101.5217 -0.959 -0.168 0.229 7 13 1
35.1705 70.2476 -101.8374 -0.627 -0.758 -0.180 2 7 1
34.6358 70.7551 -103.3594 -0.023 0.151 0.988 5 6 1
51.4372 7.1943 -72.5206 -0.834 -0.468 -0.292 38 45 26
51.4776 6.9866 -72.6318 -0.813 -0.508 -0.283 4 10 1
51.4889 6.6275 -72.3199 -0.792 -0.591 -0.153 4 9 4
52.3101 6.4139 -73.6741 -0.572 -0.103 0.814 68 75 42
9.0600 71.8048 -65.1992 0.501 -0.838 0.216 36 41 21
51.2909 6.6841 -72.5280 -0.911 -0.406 -0.073 4 9 5
51.3569 9.1162 -75.1448 0.891 0.067 0.449 56 63 27
51.6313 6.6101 -73.2451 0.688 0.014 0.725 9 14 10
58.0487 28.4474 -104.3714 -0.690 -0.702 -0.177 35 41 29
58.1683 28.3483 -104.4714 -0.697 -0.697 -0.168 26 32 22
51.3567 6.4361 -72.8783 0.814 -0.063 0.577 2 6 7
33.9932 66.0846 -101.3442 -0.398 0.204 0.895 87 98 42
34.1366 65.8075 -101.3148 -0.421 0.168 0.891 86 97 41
55.4054 24.6361 -96.8731 0.892 -0.390 0.227 4 8 6
58.1327 28.4967 -104.9392 -0.697 -0.697 -0.168 18 21 15
33.9676 65.5780 -101.2952 -0.397 0.179 0.900 86 97 40
45.8820 4.9237 -63.2352 -0.878 -0.398 -0.265 3 7 7
9.5464 64.6040 -61.4042 0.211 -0.842 -0.496 36 39 22
7.9878 90.6480 -83.8769 -0.818 -0.271 0.507 29 30 12
8.6853 88.5786 -83.0287 -0.828 -0.256 0.499 37 36 16
32.7762 65.3063 -100.0371 0.687 -0.162 0.709 84 89 68
7.7550 90.8256 -84.1575 -0.818 -0.271 0.507 28 30 9
32.6141 64.8341 -99.7866 0.740 -0.232 0.632 32 36 22
7.7060 90.7143 -84.4618 -0.755 -0.239 0.611 31 32 14
8.2344 88.8967 -83.5648 -0.782 -0.344 0.520 36 35 15
32.5932 64.3569 -99.7595 0.708 -0.206 0.675 21 25 12
7.4821 90.8475 -84.7176 -0.752 -0.242 0.613 31 32 14
32.5727 63.8641 -99.7148 0.573 -0.728 0.378 17 20 6
30.3633 66.6376 -99.7340 0.598 0.088 0.797 8 9 9
7.0481 91.4231 -86.5725 -0.579 -0.731 0.361 50 45 24
49.9976 6.8226 -74.2011 0.760 -0.327 0.561 3 7 6
26.8539 38.3739 -67.5591 0.353 -0.081 0.932 28 27 9
49.8661 6.9005 -74.3108 0.634 -0.580 0.511 4 8 7
49.8672 6.6978 -74.1069 0.757 -0.326 0.567 0 3 2
49.7525 6.8067 -74.2764 0.634 -0.580 0.511 3 7 6
53.0452 12.5520 -85.6964 0.341 -0.427 0.838 4 8 4
32.4187 37.3593 -76.5669 -0.759 0.159 0.631 56 59 45
49.6300 6.6956 -74.2082 0.636 -0.630 0.446 2 6 5
49.6093 6.4513 -73.9223 0.760 -0.325 0.563 3 7 9
21.4867 60.1999 -81.9354 -0.055 -0.175 0.983 32 24 12
24.7058 68.6692 -96.1405 0.800 -0.092 0.594 23 26 13
33.1846 18.1830 -58.4133 0.515 -0.826 0.229 3 5 3
49.5292 6.6252 -74.2178 0.664 -0.615 0.427 2 6 5
49.6396 6.4241 -74.1975 0.820 -0.323 0.472 12 16 14
46.7934 4.2854 -67.3868 0.640 -0.769 0.007 29 33 19
49.4181 6.5351 -74.1890 0.658 -0.618 0.431 0 3 2
49.5559 6.3861 -74.2688 0.846 -0.337 0.414 19 23 19
33.6353 17.3766 -59.0559 0.648 -0.746 -0.150 8 10 10
46.6547 4.1701 -67.7143 0.645 -0.764 -0.025 8 10 4
6.5340 88.1645 -88.4939 -0.890 -0.122 0.440 47 42 21
6.8564 87.3150 -88.1444 -0.877 -0.111 0.468 48 43 21
3.2115 94.0015 -89.5207 0.079 -0.705 0.705 40 38 16
6.1378 88.9866 -89.2101 -0.848 -0.121 0.517 43 38 18
47.8577 4.0342 -70.3472 0.920 -0.300 0.252 25 31 16
5.8683 89.2792 -89.5837 -0.848 -0.121 0.517 39 34 15
7.4400 85.2173 -87.9329 -0.926 -0.367 0.084 54 49 26
49.5482 -4.5866 -64.2238 -0.539 -0.819 -0.197 4 8 12
5.2767 90.3864 -90.2830 -0.876 -0.162 0.454 28 22 6
47.4721 3.5107 -69.5874 0.889 -0.302 0.344 36 40 27
47.3026 3.2923 -69.2897 0.860 -0.320 0.397 35 37 26
43.4656 1.2708 -60.5800 0.234 -0.972 -0.034 7 9 8
47.5890 3.3945 -70.1402 0.824 -0.409 0.392 5 6 10
4.1102 91.1961 -90.7411 0.161 -0.271 0.949 54 50 25
4.1900 91.3501 -91.0513 -0.073 -0.079 0.994 55 50 27
4.4030 90.9828 -91.0209 -0.071 -0.086 0.994 53 51 28
43.3018 1.1898 -60.4071 0.386 -0.921 -0.055 4 6 5
43.4041 1.2529 -60.6567 0.381 -0.923 -0.060 8 10 9
43.4985 1.2942 -60.8682 0.374 -0.927 -0.041 18 20 19
44.6801 -0.0438 -61.4710 -0.906 -0.394 -0.155 12 14 7
43.2387 1.1675 -60.4754 0.386 -0.921 -0.055 1 3 2
43.3411 1.2315 -60.7273 0.381 -0.923 -0.060 11 13 12
43.4349 1.2715 -60.9370 0.374 -0.927 -0.041 23 25 24
43.5109 1.2654 -61.0644 0.469 -0.739 0.484 29 34 28
47.2466 3.1461 -69.7409 0.644 -0.750 0.148 5 5 8
32.5018 24.6462 -67.8622 -0.881 -0.386 0.274 87 95 44
43.0774 1.0901 -60.3088 0.373 -0.925 -0.070 3 4 6
43.1768 1.1484 -60.5496 0.373 -0.925 -0.070 2 4 3
43.2869 1.2327 -60.8386 0.363 -0.929 -0.065 13 15 12
43.3746 1.2575 -61.0214 0.381 -0.924 -0.039 24 26 24
43.4344 1.2102 -61.0746 0.469 -0.739 0.484 33 35 28
44.7807 -0.6446 -61.3886 -0.007 -0.728 0.686 44 48 22
42.9912 1.0065 -60.2670 0.318 -0.933 -0.169 4 5 6
43.1140 1.1272 -60.6203 0.366 -0.928 -0.071 4 6 5
43.2239 1.2117 -60.9101 0.361 -0.930 -0.068 15 17 14
43.3041 1.2175 -61.0591 0.354 -0.935 -0.036 27 29 27
43.3589 1.1573 -61.0886 0.384 -0.753 0.535 35 38 30
31.4366 28.3899 -70.7741 -0.834 -0.493 -0.246 38 43 23
42.9373 1.0083 -60.3780 0.318 -0.933 -0.169 3 5 1
43.0444 1.0883 -60.6590 0.315 -0.933 -0.173 6 9 3
43.1515 1.1662 -60.9375 0.366 -0.928 -0.071 17 19 13
43.2417 1.1983 -61.1342 0.360 -0.932 -0.044 27 33 25
43.2973 1.1400 -61.1675 -0.097 -0.841 0.533 35 41 29
42.8505 0.9224 -60.3315 0.351 -0.922 -0.162 5 7 1
42.9683 1.0321 -60.6664 0.334 -0.929 -0.162 12 15 6
43.0870 1.1413 -61.0021 0.328 -0.931 -0.157 25 28 17
43.1758 1.1700 -61.1932 0.366 -0.930 -0.040 33 37 22
44.5052 -0.2121 -62.0006 -0.716 0.268 0.645 34 39 18
44.8303 -0.9016 -61.7996 0.595 -0.804 -0.015 9 12 5
22.5020 61.3023 -92.9184 0.800 -0.298 0.520 8 10 6
42.8045 0.9455 -60.4814 0.395 -0.890 -0.228 5 7 2
42.9333 1.0850 -60.8713 0.381 -0.908 -0.172 14 17 7
43.0457 1.1779 -61.1785 0.371 -0.917 -0.145 27 30 16
43.5874 0.1840 -61.0159 -0.679 -0.664 -0.313 3 7 7
31.5505 28.2859 -71.8061 -0.609 -0.753 -0.250 76 84 49
31.8145 28.0882 -72.0538 -0.525 -0.785 -0.329 21 26 9
42.7542 0.9578 -60.6123 0.403 -0.889 -0.215 6 8 3
42.8876 1.1103 -61.0269 0.372 -0.911 -0.177 17 20 7
44.4031 -1.1362 -61.3790 0.609 -0.769 0.192 13 18 14
31.5453 12.6718 -54.3385 0.710 -0.704 0.016 10 11 11
42.4633 0.8780 -60.4111 0.119 -0.560 0.820 1 2 5
5.1946 86.9608 -93.3478 -0.908 -0.161 0.386 39 38 17
48.4812 -3.3287 -66.6323 0.883 -0.092 0.461 36 45 19
15.8144 72.5790 -96.3704 0.096 -0.268 0.959 39 45 32
43.9490 0.3523 -62.9162 -0.694 -0.144 0.706 41 46 27
4.6109 88.2518 -95.4805 -0.867 -0.338 0.365 39 37 22
40.0536 26.2248 -86.8750 -0.829 -0.554 0.075 1 6 11
18.2180 60.9649 -88.5284 0.477 -0.878 -0.046 50 56 28
39.7524 26.4592 -86.9668 -0.841 -0.507 -0.187 3 29 39
4.1809 88.0042 -96.1032 -0.894 -0.240 0.378 37 34 15
45.6698 -1.4790 -64.9818 -0.713 -0.665 -0.221 3 8 4
20.7314 38.5125 -67.7512 -0.476 -0.052 0.878 15 19 5
28.7972 11.9164 -50.3554 0.238 0.018 0.971 9 11 8
29.2744 12.1988 -51.5871 0.676 -0.593 0.438 77 84 48
4.2889 85.8579 -95.9799 -0.885 -0.283 0.370 30 31 16
5.4868 85.9547 -98.9235 0.025 -0.852 0.523 27 30 16
36.6556 22.0698 -78.6669 -0.085 -0.880 -0.467 4 250 242
36.8374 21.9624 -78.8756 -0.229 -0.948 -0.221 5 252 254
36.9141 21.7126 -78.7090 -0.139 -0.989 -0.048 6 255 255
37.0015 21.6142 -78.7511 -0.862 0.082 0.501 1 254 252
19.0491 40.0021 -68.1816 -0.910 -0.084 0.405 63 66 58
37.1268 20.8548 -78.3718 -0.882 0.258 0.394 3 246 241
19.3444 33.5862 -61.0168 -0.222 -0.939 0.264 31 32 17
18.7480 40.4507 -68.5309 -0.839 0.067 0.539 14 16 11
36.0097 20.7801 -76.4919 0.219 -0.828 -0.516 13 248 252
4.7016 82.7411 -95.7224 -0.892 -0.135 0.432 28 25 13
30.3216 10.5604 -53.0555 0.278 -0.197 0.940 5 8 1
36.3773 18.2483 -74.6256 -0.851 -0.318 0.418 231 254 53
45.1090 -5.2993 -61.3051 0.266 -0.961 -0.077 52 57 32
30.2042 10.3027 -52.9456 0.232 -0.254 0.939 5 7 5
30.9538 10.1781 -54.4470 0.630 -0.775 -0.053 86 94 55
30.6884 9.8842 -53.7820 0.722 -0.691 0.036 86 93 48
19.7065 41.8527 -75.1731 -0.599 0.392 0.699 49 57 33
19.6091 41.6964 -75.1688 -0.599 0.392 0.699 86 96 61
30.2671 9.4546 -53.5213 -0.756 0.118 0.643 89 98 44
30.3803 9.5525 -54.3291 0.389 -0.846 -0.364 10 16 4
29.8819 9.8930 -54.2642 -0.976 -0.071 0.205 12 18 7
42.1669 -2.3682 -61.9687 -0.571 -0.805 0.160 25 29 16
23.0721 20.6812 -55.6964 0.754 0.005 0.656 16 20 10
25.3989 30.2423 -73.4220 -0.868 -0.237 0.436 11 17 9
28.2125 15.9549 -59.4687 0.873 -0.471 0.127 11 17 10
22.9953 19.9665 -54.8291 0.815 -0.138 0.563 5 9 10
22.9997 19.5900 -54.5828 0.900 -0.322 0.293 5 9 10
21.9106 32.1682 -70.1669 -0.857 0.128 0.499 52 56 40
22.1430 20.2444 -54.2998 0.501 -0.471 0.726 4 9 5
28.2679 15.2554 -59.6864 0.663 -0.361 0.656 91 101 48
26.0037 17.5929 -58.6589 0.198 -0.641 0.742 77 83 48
23.0882 19.2968 -55.4170 0.696 -0.718 0.008 31 39 18
22.1589 19.1919 -53.6412 0.246 -0.504 0.828 4 6 18
22.6085 28.5287 -68.1945 0.048 -0.295 0.954 8 12 9
22.4153 15.0009 -48.6636 -0.548 0.219 0.807 32 29 14
28.4010 8.2578 -51.2539 0.807 -0.589 0.039 9 13 10
32.8763 9.6019 -62.3851 -0.100 -0.992 -0.074 26 74 94
22.4238 14.7061 -48.4896 -0.458 0.227 0.859 34 30 18
22.4777 14.2594 -48.1853 -0.293 0.157 0.943 34 32 19
23.1879 27.8338 -69.4215 -0.578 0.005 0.816 92 102 49
28.8155 8.7541 -53.7502 0.856 -0.345 0.386 6 7 12
26.3164 15.6790 -59.0171 0.167 -0.879 0.447 5 6 9
30.0219 14.7911 -65.4501 0.859 -0.459 -0.228 28 63 75
26.1089 15.7346 -58.9420 0.207 -0.802 0.560 7 9 6
26.1772 15.6682 -58.9864 0.167 -0.879 0.447 8 10 8
24.4189 27.3328 -73.4002 0.367 -0.902 0.227 14 18 1
28.8023 7.2962 -52.4807 0.826 -0.411 0.387 12 16 4
25.7562 15.6586 -58.9193 0.040 -0.842 0.537 8 10 4
24.3975 27.2405 -73.5837 0.309 -0.893 0.327 7 9 7
9.3127 65.7556 -101.7157 -0.917 0.015 0.399 10 14 1
25.6692 15.4766 -59.5835 0.893 -0.324 0.311 92 100 58
25.7276 15.4611 -59.6850 0.890 -0.332 0.312 91 100 54
9.4399 64.7028 -101.5525 -0.956 -0.048 0.289 24 31 13
29.4291 11.0538 -61.6510 0.835 -0.488 -0.253 26 54 75
29.4741 11.1690 -61.9306 0.841 -0.482 -0.246 21 52 74
22.9644 23.7265 -69.3169 -0.833 0.183 0.523 73 81 57
28.4994 8.1869 -57.6701 0.922 -0.361 0.142 12 17 11
23.9410 14.6602 -59.0672 -0.018 -0.994 -0.110 25 28 19
23.9810 14.7051 -59.2349 -0.019 -0.998 -0.064 17 19 14
23.8483 14.6845 -59.1924 -0.109 -0.989 -0.097 15 17 14
23.8960 14.6987 -59.3259 -0.033 -0.997 -0.067 11 12 12
24.0033 14.4756 -59.1906 0.497 -0.546 0.674 8 9 10
23.7757 21.3855 -70.4757 0.762 -0.619 -0.191 61 70 38
23.7595 14.6925 -59.2995 -0.120 -0.988 -0.098 7 8 11
23.8425 14.5675 -59.2755 0.367 -0.636 0.678 5 6 11
23.4996 14.7711 -59.1344 -0.072 -0.954 -0.292 7 9 6
22.8948 14.5724 -58.2778 -0.479 0.013 0.878 58 62 49
23.9792 12.6364 -60.0776 0.346 -0.135 0.929 6 8 5
23.3111 12.9696 -59.3849 0.209 -0.765 0.609 86 97 56
