ply
format ascii 1.0
element vertex 881
property float x
property float y
property float z
property float nx
property float ny
property float nz
property uchar diffuse_red
property uchar diffuse_green
property uchar diffuse_blue
end_header
37.7015 57.9317 -13.7097 0.134 -0.608 -0.782 92 100 54
37.8592 58.0808 -13.7985 0.134 -0.608 -0.782 88 97 46
38.0154 58.2093 -13.8858 0.143 -0.609 -0.780 121 130 76
38.1415 58.0392 -13.9463 -0.634 -0.634 -0.444 126 135 78
36.6858 57.0039 -13.3167 -0.139 -0.734 -0.665 73 82 39
36.8302 57.0472 -13.3948 -0.139 -0.734 -0.665 73 83 34
37.4776 57.9188 -13.7708 0.145 -0.610 -0.779 92 99 57
37.7975 58.2664 -13.9534 0.134 -0.608 -0.782 89 97 46
37.9538 58.3935 -14.0410 0.143 -0.609 -0.780 121 130 76
38.0655 58.0794 -14.0882 -0.639 -0.632 -0.439 125 134 77
36.1254 56.2744 -13.1683 -0.139 -0.602 -0.786 78 93 58
36.7640 57.1946 -13.5436 -0.139 -0.734 -0.665 73 83 35
37.4155 58.1073 -13.9255 0.142 -0.610 -0.779 90 97 56
37.8750 58.4098 -14.1813 -0.346 -0.782 -0.519 115 124 70
38.0168 58.3890 -14.2556 -0.346 -0.782 -0.518 123 132 76
22.9522 63.8464 -6.6690 0.335 -0.629 -0.702 106 119 66
23.2003 64.2897 -6.8193 0.334 -0.644 -0.689 53 66 21
36.5442 57.2016 -13.6058 -0.108 -0.752 -0.650 74 89 45
36.6952 57.3175 -13.6909 -0.111 -0.738 -0.665 71 83 37
37.3603 58.3742 -14.0882 0.139 -0.610 -0.780 90 97 56
37.5498 58.8552 -14.2089 -0.505 -0.497 -0.706 94 102 57
37.8327 58.7968 -14.3567 -0.403 -0.544 -0.736 114 123 70
22.8595 63.9516 -6.8060 0.301 -0.631 -0.715 106 119 66
36.4865 57.4571 -13.7650 -0.110 -0.743 -0.661 73 89 43
36.6318 57.5042 -13.8443 -0.104 -0.743 -0.661 70 83 37
37.2937 58.5239 -14.2408 0.137 -0.609 -0.781 90 97 56
22.7662 64.0630 -6.9435 0.301 -0.631 -0.715 107 119 68
37.2173 58.5711 -14.3843 0.154 -0.608 -0.779 91 98 56
22.6726 64.1748 -7.0815 0.301 -0.631 -0.715 107 119 69
22.5751 64.3465 -7.2209 0.306 -0.631 -0.713 107 119 69
36.1017 57.4125 -14.0965 0.286 -0.682 -0.673 85 97 57
22.4626 64.7616 -7.3655 -0.545 -0.698 -0.464 106 118 68
36.0309 57.5288 -14.2445 0.286 -0.682 -0.673 85 97 57
36.5334 58.4458 -14.5600 -0.012 -0.585 -0.811 76 87 44
35.0251 56.3822 -13.8257 0.586 -0.809 0.047 78 87 42
36.0115 58.2898 -14.4548 0.024 -0.587 -0.809 85 97 57
36.8641 59.8773 -14.9954 0.558 -0.647 -0.520 83 89 53
22.2624 65.1527 -7.6489 -0.604 -0.650 -0.461 101 114 62
36.4461 59.3402 -14.9274 0.055 -0.693 -0.719 67 78 39
36.5929 59.3676 -15.0076 -0.212 -0.715 -0.666 80 87 53
22.1603 65.3702 -7.7921 -0.595 -0.680 -0.428 102 115 61
36.3898 59.6502 -15.0994 -0.231 -0.705 -0.670 67 77 42
36.5439 59.7586 -15.1883 -0.215 -0.715 -0.666 81 87 54
35.4855 56.4387 -14.6102 0.446 -0.723 -0.528 78 88 53
36.3520 60.1937 -15.2965 -0.167 -0.707 -0.687 66 76 42
36.5095 60.3332 -15.3893 -0.160 -0.713 -0.683 80 87 54
36.4750 60.9199 -15.5933 -0.120 -0.687 -0.716 80 87 54
21.8587 65.9113 -8.2230 -0.553 -0.780 -0.294 101 114 61
36.9818 61.8887 -16.3061 -0.421 -0.488 -0.765 82 90 45
36.8610 63.2234 -16.5207 -0.063 -0.564 -0.823 80 86 46
37.3613 62.0594 -16.7135 -0.436 -0.481 -0.761 117 126 69
35.8064 60.3905 -15.9508 -0.664 -0.690 -0.289 62 73 39
35.4356 60.4501 -15.9423 -0.286 -0.881 -0.377 70 80 46
35.5519 60.0491 -15.9771 -0.372 -0.836 -0.404 75 86 52
35.9914 60.0849 -16.2175 -0.437 -0.821 -0.368 78 83 52
35.3608 60.5728 -16.0987 -0.441 -0.699 -0.562 72 79 46
35.2753 60.5474 -16.2390 -0.437 -0.704 -0.560 72 79 46
34.8505 61.4120 -16.8346 -0.480 -0.571 -0.666 70 77 44
20.8725 66.5604 -10.0115 -0.383 -0.880 0.280 101 111 57
20.6928 66.5354 -10.2946 -0.418 -0.878 0.233 102 112 59
21.0396 66.2988 -10.6556 -0.138 -0.976 0.168 46 57 22
20.5102 66.5467 -10.5798 -0.418 -0.878 0.233 102 112 58
21.2245 70.5707 -11.9522 0.206 -0.760 -0.616 69 78 49
19.7976 66.8442 -11.3762 0.336 -0.777 -0.533 103 113 63
19.7379 67.6063 -12.0117 -0.780 -0.593 0.201 85 95 44
-1.3367 139.2805 -8.8873 0.192 -0.020 0.981 55 71 34
13.4378 109.0941 -13.9350 0.535 -0.817 0.215 56 68 18
2.5656 123.1703 -9.8025 0.269 -0.060 0.961 57 69 31
2.8381 120.6431 -9.9451 0.452 -0.131 0.882 57 69 31
2.9022 119.4007 -10.1197 0.348 -0.148 0.926 57 69 31
19.3112 67.7332 -12.9731 -0.793 -0.415 0.446 75 86 43
35.5575 72.4785 -22.6684 -0.177 -0.632 -0.754 77 84 44
19.0741 68.2887 -13.3076 -0.910 -0.314 0.270 82 93 51
2.3675 118.8823 -10.6210 0.202 -0.957 -0.206 62 76 41
18.9700 68.4002 -13.4634 -0.903 -0.321 0.287 82 93 52
1.9616 120.4393 -10.8851 0.294 -0.662 0.689 58 72 39
16.7740 65.7709 -12.0816 0.827 -0.551 0.113 107 115 66
18.8700 68.4641 -13.6158 -0.888 -0.366 0.278 85 93 54
1.8501 120.2618 -11.0910 0.258 -0.660 0.706 58 71 41
18.3257 68.2418 -14.4844 -0.038 -0.988 -0.149 92 100 61
9.4916 98.0071 -13.9744 0.514 0.074 0.855 54 67 25
18.2287 68.2682 -14.6348 -0.038 -0.988 -0.149 92 100 61
17.4574 70.6538 -14.7482 0.504 -0.753 -0.424 95 104 60
18.1298 68.3115 -14.7870 -0.294 -0.749 0.594 92 100 58
18.0409 68.2548 -14.9302 -0.323 -0.773 0.546 92 101 55
35.6888 81.4387 -26.9641 0.047 -0.875 -0.482 79 85 41
35.8797 81.5835 -27.0946 0.053 -0.877 -0.478 81 83 41
16.9484 67.0204 -14.3222 0.631 -0.772 0.076 107 119 80
17.9527 68.1910 -15.0728 -0.323 -0.773 0.546 92 102 53
35.5886 81.5203 -27.1618 -0.040 -0.866 -0.499 72 77 36
16.7040 67.1150 -14.3964 -0.422 -0.849 -0.318 95 111 68
16.6869 68.4924 -14.5975 -0.347 -0.934 -0.086 104 116 78
15.6777 61.8823 -13.3854 0.484 -0.458 0.746 68 24 23
15.4510 70.4550 -14.8091 0.439 -0.012 0.898 67 45 28
15.4631 69.5769 -14.8811 0.457 -0.018 0.889 61 46 26
19.2124 46.6558 -13.3409 -0.387 0.024 0.922 52 61 32
17.7508 68.3201 -15.9940 -0.460 -0.865 -0.200 64 71 39
10.1299 83.3468 -14.2640 -0.388 -0.024 0.921 99 109 56
15.5082 68.4478 -14.9279 0.303 0.089 0.949 55 48 26
13.7933 62.4893 -13.1569 -0.357 -0.010 0.934 87 95 67
17.7413 68.4205 -16.6194 -0.334 -0.942 0.026 46 53 17
14.9050 55.6060 -13.0133 -0.424 -0.055 0.904 65 72 39
34.0730 81.1037 -28.4164 -0.294 -0.901 -0.319 76 83 31
17.2413 68.6213 -16.7757 -0.510 -0.513 0.690 82 91 46
15.5472 52.5916 -13.2170 0.393 -0.777 0.493 79 88 58
14.9385 53.9740 -13.4532 -0.757 -0.651 -0.049 87 93 64
15.1116 53.6199 -13.4908 -0.749 -0.662 -0.039 84 91 59
17.1298 49.5968 -14.1162 -0.389 -0.011 0.921 102 112 61
20.1854 74.7056 -20.4098 0.371 -0.862 -0.347 81 90 35
20.3294 124.1304 -29.3815 0.481 0.067 0.874 127 133 85
11.2288 68.2947 -14.4490 -0.148 -0.005 0.989 88 97 50
14.9605 58.7642 -14.8730 0.557 -0.724 -0.406 70 81 41
16.8422 68.3243 -17.7300 -0.528 -0.792 0.307 78 85 41
20.1440 74.6368 -20.8180 0.371 -0.879 -0.301 102 110 64
11.5700 65.6871 -14.3660 0.481 -0.224 0.848 89 98 51
17.4012 45.0913 -13.9407 -0.640 -0.040 0.767 79 91 39
16.7184 68.5684 -17.9102 -0.718 -0.628 0.301 79 86 41
17.1706 111.8682 -26.2314 0.456 0.076 0.887 165 174 123
80.8869 31.3095 -48.4700 0.110 -0.972 0.209 134 145 84
16.9125 108.2003 -25.6889 0.303 0.080 0.950 158 168 107
17.7202 114.0001 -27.2528 0.625 -0.070 0.778 91 100 44
17.8335 115.4144 -27.5852 0.067 -0.273 0.960 110 117 63
43.0679 101.4679 -39.7245 0.739 -0.641 -0.207 125 133 74
17.9536 74.8307 -20.2414 -0.195 -0.423 0.885 56 61 32
40.2486 93.7865 -36.9090 0.287 -0.915 -0.284 131 139 79
41.1920 92.7577 -37.2659 -0.974 -0.209 -0.082 125 133 73
41.5010 91.7059 -37.2469 0.592 -0.784 -0.185 122 130 71
13.1518 58.4174 -14.4901 0.206 -0.385 0.900 76 86 49
17.0876 102.8706 -25.3494 0.278 0.051 0.959 119 129 70
40.1784 94.3135 -37.2488 0.159 -0.889 -0.430 121 129 69
41.0041 96.3905 -38.1327 -0.861 -0.473 -0.185 120 128 68
13.1930 57.6375 -14.5475 0.151 -0.043 0.988 76 86 48
16.5411 68.4185 -18.8192 0.367 -0.893 0.261 52 60 21
16.5773 68.5165 -19.0690 0.263 -0.934 0.242 52 59 25
18.1430 38.4273 -14.1613 -0.979 -0.173 0.104 108 120 72
16.4696 68.6104 -19.2340 0.280 -0.926 0.252 52 59 25
16.6405 102.1033 -26.0588 0.580 -0.701 0.415 81 89 41
16.8290 102.1839 -26.1862 0.580 -0.701 0.415 87 95 47
14.1517 52.6836 -14.8442 -0.220 -0.164 0.962 53 63 31
15.9364 95.9308 -24.6717 0.664 -0.718 -0.210 60 66 30
8.8168 65.9004 -14.5739 0.582 -0.755 0.303 44 55 23
14.1512 52.1848 -14.9166 -0.152 -0.330 0.932 40 50 17
15.4586 93.9555 -24.2520 0.518 -0.819 -0.246 61 67 31
15.6740 95.4712 -24.6901 0.486 -0.810 -0.326 68 75 33
15.8832 95.2170 -24.7617 0.465 -0.795 -0.389 72 78 38
16.0520 95.3810 -24.8951 0.465 -0.795 -0.389 80 86 46
17.3467 104.7806 -27.5875 0.245 0.063 0.967 98 106 57
31.9357 82.3224 -31.6102 0.897 -0.426 0.119 134 142 85
32.1442 83.1681 -31.9069 0.850 -0.521 0.079 132 140 83
32.6197 86.3443 -32.8391 -0.033 -0.558 0.829 130 140 80
14.2815 51.6056 -15.0478 -0.196 -0.379 0.905 55 64 37
16.5595 47.2355 -15.4915 -0.551 -0.567 -0.612 100 112 62
15.0438 93.2931 -24.1329 0.499 -0.823 -0.272 65 71 37
15.6877 95.9708 -25.0687 0.509 -0.772 -0.380 90 97 52
15.8560 96.1492 -25.2053 0.509 -0.772 -0.380 104 112 67
17.1248 103.4541 -27.4694 0.232 0.040 0.972 123 131 82
31.1701 77.6152 -30.4340 0.012 -0.382 0.924 130 138 81
31.3747 78.8086 -30.8023 0.193 -0.449 0.873 131 139 82
31.7987 81.3092 -31.5712 0.888 -0.448 0.102 131 139 82
32.7372 87.5151 -33.4122 -0.323 -0.016 0.946 128 138 78
39.5398 91.6733 -38.3010 0.797 -0.471 0.378 77 82 28
39.8100 92.4027 -38.6121 0.855 -0.513 -0.076 80 85 31
8.4186 66.9603 -14.9578 0.486 -0.872 0.066 37 48 16
14.0599 67.7017 -18.4574 0.702 -0.685 -0.196 109 121 72
15.3536 96.2325 -25.1938 0.746 -0.218 0.629 134 142 92
15.8130 97.2570 -25.6806 0.604 -0.234 0.762 107 115 66
16.7782 101.3692 -27.1132 0.634 -0.157 0.757 121 129 80
17.1842 101.1802 -27.3144 0.285 0.017 0.958 93 101 52
30.9085 78.4428 -30.6937 -0.014 -0.453 0.891 129 137 80
31.0811 78.2966 -30.7655 -0.014 -0.453 0.891 124 132 75
31.2871 79.5492 -31.1497 0.154 -0.410 0.899 119 127 70
31.6847 81.0743 -31.7045 0.864 -0.488 0.122 119 127 70
32.1281 83.7746 -32.5324 0.826 -0.504 0.253 117 127 67
32.3419 84.6664 -32.8457 -0.443 -0.282 0.851 117 127 67
36.4754 87.1475 -35.8154 -0.287 -0.878 -0.383 113 120 66
38.1012 90.4620 -37.4728 0.859 -0.381 0.341 90 98 41
38.3127 90.5788 -37.6226 0.818 -0.412 0.403 80 88 31
38.5265 90.7165 -37.7782 0.819 -0.415 0.395 73 81 24
38.7679 91.1866 -38.0196 0.738 -0.464 0.489 68 73 19
38.9763 91.2361 -38.1536 0.675 -0.559 0.482 72 77 23
39.1939 91.3898 -38.3147 0.685 -0.590 0.428 75 80 26
39.4124 91.5461 -38.4770 0.796 -0.471 0.380 81 86 32
39.6754 92.2019 -38.7701 0.855 -0.513 -0.076 97 102 48
39.9470 92.9281 -39.0831 0.842 -0.522 -0.135 101 106 52
15.2805 95.7385 -25.3152 0.745 -0.218 0.630 94 102 51
15.4479 95.9153 -25.4520 0.487 -0.772 -0.409 84 92 41
15.6159 96.0929 -25.5892 0.475 -0.776 -0.415 79 87 36
16.4243 99.5494 -26.7997 0.765 -0.255 0.592 97 105 56
16.5996 99.7399 -26.9440 0.765 -0.255 0.592 89 97 48
16.7478 100.2500 -27.1398 0.757 -0.268 0.596 58 66 17
19.2370 120.8151 -32.9640 -0.805 -0.290 0.518 118 126 76
19.3199 123.3059 -33.5397 -0.630 -0.251 0.735 120 129 74
31.3859 80.6433 -31.6859 0.854 -0.492 0.170 119 127 70
36.2226 88.0329 -36.1190 -0.272 -0.120 0.955 109 116 62
36.4048 87.8054 -36.1791 -0.111 -0.293 0.950 106 113 59
36.5906 87.6404 -36.2545 0.773 -0.631 0.059 102 109 55
37.0220 88.1932 -36.6274 0.863 -0.369 0.347 79 87 30
37.2686 88.8850 -36.9201 0.870 -0.377 0.319 72 80 23
37.5071 89.4303 -37.1769 0.864 -0.370 0.340 69 77 20
38.1660 90.1739 -37.7252 0.816 -0.416 0.401 77 85 28
38.8497 91.1081 -38.3285 0.679 -0.599 0.424 108 113 59
14.8829 93.1126 -24.7868 0.797 -0.213 0.565 84 92 46
15.1970 95.3554 -25.4523 0.752 -0.216 0.624 96 104 53
15.3096 96.0696 -25.6717 0.539 -0.785 -0.306 115 123 72
19.6639 101.4608 -29.4110 0.369 -0.062 0.927 125 133 82
35.5403 88.3888 -36.0580 -0.054 -0.137 0.989 107 114 60
35.7091 87.9118 -36.0565 -0.271 -0.068 0.960 100 107 53
35.9069 87.9387 -36.1798 -0.252 -0.084 0.964 89 96 42
36.0794 87.5504 -36.1995 -0.272 -0.126 0.954 83 90 36
36.2706 87.4745 -36.2969 -0.111 -0.293 0.950 75 82 28
36.4694 87.5168 -36.4242 0.774 -0.631 0.048 70 77 23
37.3620 89.0039 -37.2722 0.864 -0.370 0.340 91 99 42
7.8681 69.6543 -15.8165 -0.008 -0.090 0.996 58 66 29
12.1262 58.0491 -15.8489 -0.127 -0.688 -0.714 90 102 52
14.4272 91.2660 -24.3804 0.620 -0.184 0.763 74 80 43
15.2555 95.3906 -25.7628 0.825 -0.544 -0.152 84 92 42
15.3890 95.9028 -25.9527 0.727 -0.633 -0.267 64 72 21
15.9345 98.0037 -26.7303 0.766 -0.254 0.590 66 74 23
15.0766 94.1568 -25.6561 0.748 -0.212 0.629 55 61 22
15.2584 95.9788 -26.1611 0.755 -0.611 -0.238 49 56 17
15.4265 96.1563 -26.3000 0.760 -0.611 -0.223 57 63 24
16.2963 96.8418 -26.9676 0.632 -0.315 0.708 97 106 50
16.3808 97.9805 -27.2660 0.774 -0.279 0.568 100 109 51
18.0862 95.7324 -27.7929 0.647 -0.284 0.707 112 121 67
14.5065 81.2698 -22.7484 0.475 -0.015 0.880 59 64 32
15.2934 96.2535 -26.5127 0.517 -0.787 -0.335 90 97 57
14.6984 50.5548 -16.2822 0.702 -0.268 0.660 104 115 73
25.7108 62.6561 -25.5501 0.368 -0.111 0.923 126 136 76
30.5863 86.3859 -33.7323 0.591 -0.013 0.806 116 123 69
14.9966 50.3627 -16.5908 0.681 -0.732 0.006 97 108 67
14.3211 79.6794 -22.7585 0.759 -0.582 0.291 71 77 37
13.1271 52.6661 -16.1653 -0.527 -0.122 0.841 98 111 58
14.5701 76.8086 -22.4937 -0.236 -0.828 -0.509 85 92 48
24.3634 78.4916 -28.7428 0.268 0.056 0.962 141 151 91
23.9883 76.7570 -28.3631 0.300 0.070 0.951 128 138 78
27.5022 79.8034 -31.1674 0.581 -0.038 0.813 114 124 63
12.0324 54.5229 -16.2902 0.006 -0.922 -0.386 96 108 58
14.7969 50.8234 -17.0980 0.597 -0.690 -0.409 104 112 70
13.9928 94.0548 -26.5850 -0.341 -0.480 0.808 111 120 64
28.9812 80.0811 -32.3673 0.448 -0.017 0.894 70 78 21
7.4607 71.1944 -17.6015 -0.911 -0.398 0.109 83 92 44
11.5601 56.6225 -16.6756 -0.595 -0.651 -0.473 93 103 53
21.6815 70.8245 -26.0706 0.763 -0.253 0.595 160 169 114
23.4642 69.4841 -26.8310 0.469 -0.085 0.879 100 109 54
13.0161 69.7591 -20.8243 -0.610 -0.044 0.791 105 117 65
22.4063 70.0281 -26.5441 0.409 -0.042 0.911 100 108 57
22.7670 69.1117 -26.5461 0.423 -0.083 0.902 111 120 67
27.7124 78.9048 -31.8260 -0.041 -0.393 0.919 75 83 30
14.4262 51.6017 -17.5847 0.511 -0.641 -0.572 51 59 17
80.2954 32.1130 -52.6962 -0.326 -0.945 -0.014 33 38 14
13.7796 63.3192 -20.1751 -0.695 -0.095 0.712 107 118 75
13.1671 70.3341 -21.4836 0.429 -0.223 0.875 102 114 69
79.9306 32.1507 -52.6728 -0.446 -0.876 -0.185 128 137 90
80.0613 32.0981 -52.7391 -0.446 -0.876 -0.185 75 83 46
80.1920 32.0456 -52.8055 -0.446 -0.876 -0.185 29 34 11
80.4529 32.1623 -52.9910 -0.138 -0.990 -0.001 26 29 18
12.3475 36.5515 -13.0484 0.868 -0.413 0.277 13 18 11
13.1607 65.8897 -20.6238 -0.397 0.013 0.918 68 79 39
21.5211 69.5661 -26.5679 0.773 -0.266 0.577 114 122 71
80.0461 32.1460 -52.9295 -0.446 -0.876 -0.185 53 60 27
80.1769 32.0934 -52.9959 -0.446 -0.876 -0.185 20 25 5
80.3986 32.1590 -53.1458 -0.240 -0.970 -0.033 24 27 17
12.2888 36.0998 -13.0462 0.862 -0.408 0.300 13 19 8
10.0660 56.4273 -16.6522 0.009 -0.233 0.973 81 93 43
13.5263 54.0861 -18.1775 -0.932 -0.284 -0.223 83 94 49
80.0253 32.1868 -53.1152 -0.455 -0.876 -0.162 41 47 19
80.3587 32.1745 -53.3141 -0.240 -0.970 -0.033 24 27 17
80.8024 32.0811 -53.5600 -0.291 -0.956 -0.028 17 24 4
80.9430 32.0404 -53.6353 -0.291 -0.956 -0.028 82 91 58
12.2767 35.4541 -13.0227 0.833 -0.305 0.462 22 28 13
13.1080 64.0953 -20.5668 -0.097 -0.965 -0.243 44 53 24
13.1780 64.5265 -20.7153 -0.640 -0.726 -0.253 40 49 18
22.9801 70.3908 -28.1009 -0.335 -0.006 0.942 108 117 64
80.1448 32.1869 -53.3764 -0.279 -0.959 0.048 22 26 12
80.3128 32.1822 -53.4772 -0.138 -0.990 -0.001 24 27 18
80.7724 32.1091 -53.7379 -0.278 -0.956 0.098 22 30 9
80.9154 32.0711 -53.8153 -0.283 -0.953 0.107 95 105 70
12.4930 32.7014 -12.6128 0.879 -0.307 0.366 14 20 6
12.3232 34.5684 -12.9726 0.822 -0.275 0.499 50 57 37
12.2922 35.0945 -13.0842 0.831 -0.297 0.471 57 65 45
12.2216 35.7995 -13.2162 0.860 -0.410 0.303 65 72 53
11.8470 39.1170 -13.8114 0.503 -0.598 0.624 55 63 41
22.5273 71.0984 -28.2277 -0.204 0.051 0.978 98 107 54
23.9650 63.8908 -27.3134 -0.480 0.059 0.875 111 119 70
80.0972 32.1926 -53.5381 -0.279 -0.959 0.048 27 30 18
80.2660 32.1889 -53.6397 -0.138 -0.990 -0.001 21 24 16
80.5729 32.1407 -53.8141 -0.139 -0.990 0.002 18 25 7
80.7303 32.1213 -53.9048 -0.272 -0.961 0.058 28 37 15
80.8363 32.0356 -53.9479 -0.261 -0.962 0.085 109 120 82
81.6709 32.4390 -54.5547 0.277 -0.960 -0.027 123 136 82
12.7214 30.7442 -12.3977 -0.086 -0.009 0.996 25 32 14
12.6480 31.4093 -12.5195 0.889 -0.349 0.295 34 41 22
12.3199 33.9124 -12.9462 0.837 -0.355 0.416 59 67 44
12.3049 34.3604 -13.0492 0.846 -0.491 0.206 61 69 45
12.9771 68.2588 -21.9382 0.458 -0.229 0.859 37 46 14
18.5357 62.2372 -23.8116 0.405 -0.912 0.067 114 123 66
21.7675 71.5851 -28.1153 0.677 -0.193 0.710 106 114 63
80.2432 32.2270 -53.8248 -0.147 -0.989 -0.031 21 24 16
80.5300 32.1521 -53.9805 -0.136 -0.991 -0.011 17 24 7
80.6865 32.1316 -54.0705 -0.136 -0.991 -0.011 47 56 30
81.6083 32.4251 -54.7044 0.277 -0.960 -0.027 122 135 79
12.5308 31.9958 -12.7294 0.881 -0.364 0.303 57 67 34
12.3377 33.5553 -13.0054 0.869 -0.387 0.308 56 66 41
12.1535 35.5066 -13.3857 0.878 -0.431 0.209 55 65 38
11.8629 39.2762 -14.1600 0.210 -0.815 0.540 44 52 28
21.3123 69.8680 -27.6335 0.887 -0.270 0.375 96 104 55
21.6961 71.1201 -28.1831 0.690 -0.200 0.695 70 78 27
23.3201 67.0750 -28.1511 -0.476 -0.037 0.878 102 111 58
80.2001 32.2386 -53.9914 -0.147 -0.989 -0.031 21 27 17
80.4756 32.1489 -54.1365 0.027 -0.988 -0.150 18 26 8
80.6664 32.1726 -54.2587 0.027 -0.988 -0.150 67 77 46
12.4272 32.5268 -12.9361 0.857 -0.466 0.218 53 62 33
12.3832 34.2252 -13.3416 0.821 -0.513 0.251 48 58 31
12.2835 36.2534 -13.7971 0.705 -0.682 0.196 46 56 31
13.1611 57.3902 -19.7126 0.122 -0.972 -0.200 29 32 23
12.7610 67.4514 -22.0297 0.463 -0.229 0.856 71 78 43
17.2861 59.5111 -22.7673 -0.653 -0.736 -0.179 116 127 71
21.4749 70.5752 -28.1374 0.892 -0.276 0.357 74 82 33
80.1569 32.2503 -54.1583 -0.147 -0.989 -0.031 26 32 22
80.4415 32.1721 -54.3119 0.029 -0.985 -0.173 20 28 7
80.6354 32.1998 -54.4371 0.029 -0.985 -0.173 86 96 60
12.6507 32.0447 -13.0847 0.879 -0.374 0.295 48 58 34
12.3514 34.0763 -13.4236 0.822 -0.518 0.235 42 52 25
10.5585 49.3521 -16.2511 0.635 -0.258 0.728 54 63 33
10.5531 66.6925 -20.6999 0.201 -0.878 -0.435 36 43 25
11.0112 64.8613 -20.5094 0.167 -0.940 0.297 33 39 27
12.7238 67.0580 -22.1189 0.464 -0.226 0.856 100 108 69
22.6140 70.8077 -29.1194 0.011 -0.223 0.975 102 110 59
55.7776 84.7116 -52.9349 0.152 -0.912 0.381 74 79 39
56.3668 86.3318 -53.7106 -0.364 -0.750 0.553 74 79 39
80.4000 32.1858 -54.4806 -0.057 -0.966 -0.251 24 33 10
80.6149 32.2405 -54.6258 -0.003 -0.970 -0.242 103 114 74
12.6660 30.9850 -12.9549 0.849 -0.300 0.436 42 51 25
11.9328 35.9762 -13.7992 0.809 -0.576 -0.120 40 50 25
10.7796 60.4859 -19.4410 0.258 0.136 0.957 98 110 63
11.4982 57.2775 -19.0495 0.340 0.120 0.933 94 104 64
55.6926 84.8205 -53.1975 0.103 -0.931 0.350 71 76 36
80.3877 32.2377 -54.6774 -0.057 -0.966 -0.251 39 48 21
80.5761 32.2578 -54.7978 -0.057 -0.966 -0.251 115 127 82
12.7117 29.4887 -12.7254 -0.273 -0.832 -0.484 47 55 33
12.8328 29.3327 -12.7588 0.058 -0.874 -0.483 45 53 31
12.7755 29.9144 -12.8756 0.850 -0.499 0.168 41 49 27
12.6709 30.6999 -13.0167 0.882 -0.357 0.308 37 45 22
16.4730 61.7198 -23.4449 -0.953 -0.298 0.055 102 113 57
80.3096 32.4297 -54.8709 -0.519 -0.848 0.110 10 17 0
80.4241 32.3531 -54.9210 -0.519 -0.848 0.110 63 73 38
12.7540 29.4018 -12.8586 0.055 -0.878 -0.476 36 43 26
10.5488 49.3029 -16.7480 0.708 -0.365 0.605 59 69 33
12.6477 52.6913 -18.9268 0.492 0.080 0.867 21 30 6
12.9957 55.5465 -19.8920 0.385 0.132 0.913 66 74 34
16.1891 53.3055 -21.2592 0.288 -0.941 -0.179 108 117 62
50.4803 61.7661 -44.5055 -0.823 -0.550 -0.142 67 72 32
49.9067 58.4721 -43.2864 -0.729 -0.682 -0.048 71 76 36
80.2627 32.4369 -55.0360 -0.519 -0.848 0.110 13 20 2
80.3773 32.3603 -55.0861 -0.519 -0.848 0.110 79 89 51
9.9656 53.3009 -17.6242 0.526 -0.134 0.840 87 99 52
15.4957 53.2492 -21.0045 0.188 -0.298 0.936 111 122 66
15.7019 54.3921 -21.4346 -0.742 -0.628 0.233 104 115 59
14.9913 66.3282 -24.1683 0.769 -0.478 0.424 102 111 56
48.9914 89.0904 -51.0807 0.263 -0.917 0.301 82 90 42
52.5487 78.6977 -50.5041 0.353 -0.868 -0.350 33 36 16
49.3826 58.8081 -43.2789 -0.792 -0.540 0.284 56 60 23
80.2076 32.4335 -55.1935 -0.507 -0.852 0.132 18 25 7
80.3225 32.3573 -55.2438 -0.507 -0.852 0.132 96 107 66
15.4792 54.4743 -21.5079 0.007 -0.345 0.939 101 111 58
47.7543 88.8478 -50.5477 0.371 -0.801 0.469 89 96 45
48.8291 88.8027 -51.1962 0.283 -0.930 0.234 79 86 43
49.0514 88.8338 -51.3412 0.283 -0.930 0.234 79 85 44
47.0476 49.3111 -39.5263 -0.282 -0.940 -0.194 45 48 29
79.2659 32.6285 -54.8594 -0.915 -0.211 0.345 94 103 62
80.1589 32.4386 -55.3574 -0.506 -0.852 0.134 30 38 15
80.2740 32.3624 -55.4077 -0.506 -0.852 0.134 109 120 78
17.2980 62.0943 -24.8730 0.804 -0.501 0.321 72 80 29
17.4065 62.3625 -25.0122 0.910 -0.390 0.137 67 75 24
47.3707 88.5021 -50.5096 0.033 -0.936 0.351 86 94 46
47.9956 88.3673 -50.8577 0.306 -0.950 0.061 82 90 44
48.2212 88.4299 -51.0135 0.306 -0.950 0.061 83 91 46
48.4438 88.4709 -51.1615 0.250 -0.962 0.107 84 91 49
48.6669 88.5124 -51.3100 0.250 -0.962 0.107 75 81 55
80.0066 32.5355 -55.4825 -0.519 -0.848 0.110 16 24 3
80.1092 32.4424 -55.5206 -0.506 -0.852 0.134 51 60 28
10.2295 43.9908 -15.7964 0.826 -0.195 0.529 40 49 24
10.1815 46.0409 -16.3248 -0.385 -0.832 0.400 65 76 36
17.1503 61.3776 -24.7941 0.668 -0.170 0.725 61 69 18
17.6414 63.1832 -25.5882 0.315 -0.830 0.460 95 103 52
46.1051 87.9486 -49.8695 0.476 -0.879 -0.028 84 91 39
46.5689 88.2073 -50.2257 0.465 -0.885 -0.026 84 91 41
46.7781 88.1765 -50.3463 0.138 -0.984 -0.113 84 91 50
47.0257 88.4006 -50.5598 0.027 -0.938 0.346 83 89 50
47.2442 88.4258 -50.7013 0.033 -0.936 0.351 81 87 49
47.4389 88.2936 -50.7854 0.235 -0.928 0.288 80 86 48
47.6564 88.3090 -50.9236 0.306 -0.952 0.019 79 85 48
51.8806 63.9386 -46.8926 -0.828 -0.433 0.355 71 71 37
52.0527 63.8933 -46.9862 -0.843 -0.412 0.347 71 71 35
79.6101 32.5389 -55.4323 0.029 -0.989 -0.144 18 24 11
79.9593 32.5428 -55.6485 -0.519 -0.848 0.110 20 28 3
80.0504 32.4344 -55.6752 -0.497 -0.856 0.144 64 74 41
10.0631 46.2185 -16.4664 -0.282 -0.852 0.441 85 96 53
9.9635 48.1069 -16.9232 0.759 -0.222 0.611 91 102 59
16.2892 58.8493 -23.7746 0.252 -0.652 0.715 92 99 55
17.1474 61.7888 -25.1109 0.808 -0.512 0.290 85 93 42
17.5237 63.3927 -25.7833 0.844 -0.468 0.263 97 105 54
17.6483 63.5459 -25.9022 0.705 -0.588 0.397 98 106 55
17.7885 63.5615 -25.9930 -0.206 -0.785 0.585 100 109 56
45.2983 87.5467 -49.5502 -0.191 -0.978 0.090 84 90 44
45.7509 87.7574 -49.8873 0.476 -0.879 -0.028 80 86 40
45.9817 87.8880 -50.0655 0.476 -0.879 -0.028 80 86 40
46.2136 88.0213 -50.2452 0.465 -0.885 -0.026 80 86 42
46.4453 88.1482 -50.4230 0.465 -0.885 -0.026 80 85 44
46.6499 88.0855 -50.5320 0.166 -0.981 -0.096 73 78 49
79.5759 32.5638 -55.6112 0.029 -0.989 -0.144 18 24 12
79.9119 32.5501 -55.8148 -0.519 -0.848 0.110 25 33 8
80.0095 32.4500 -55.8475 -0.506 -0.852 0.134 81 91 58
10.3684 41.0302 -15.3861 0.795 -0.588 0.152 48 57 28
15.9435 58.7728 -23.7396 0.613 -0.117 0.781 89 97 50
16.2201 58.6874 -23.8868 0.226 -0.666 0.711 69 76 32
16.3470 58.7324 -23.9778 0.176 -0.677 0.715 62 69 25
16.4854 58.6904 -24.0516 0.176 -0.677 0.715 58 65 21
44.1255 87.5092 -49.1028 -0.002 -0.996 -0.094 90 98 40
44.3372 87.5215 -49.2370 -0.002 -0.996 -0.094 90 98 40
44.5540 87.5709 -49.3846 0.067 -0.982 -0.177 90 98 42
44.9574 87.4340 -49.5960 -0.193 -0.977 0.093 81 85 46
45.1832 87.5430 -49.7657 -0.195 -0.976 0.094 81 85 46
45.4053 87.6205 -49.9244 0.071 -0.982 -0.173 81 85 48
51.4365 56.9624 -45.1686 0.257 -0.961 -0.106 83 82 38
79.5692 32.6256 -55.8176 -0.169 -0.957 -0.236 19 25 14
79.8698 32.5644 -55.9864 -0.670 -0.743 -0.013 31 39 15
79.9649 32.4609 -56.0165 -0.677 -0.736 -0.008 98 107 74
15.7013 57.9508 -23.5601 0.778 -0.134 0.613 72 80 33
44.1120 88.3129 -49.6057 0.400 -0.349 0.847 82 89 35
78.9830 32.6062 -55.6434 -0.904 -0.248 0.350 27 31 17
79.5668 32.6934 -56.0289 -0.244 -0.943 -0.228 21 27 16
79.8390 32.5939 -56.1696 -0.676 -0.737 -0.023 46 55 30
10.6274 36.6196 -14.6177 0.655 -0.666 -0.357 36 47 13
10.6394 36.9458 -14.7168 0.658 -0.669 -0.347 44 54 17
10.5552 37.6666 -14.8673 0.750 -0.661 0.002 54 64 25
15.3573 54.3422 -22.5304 0.743 -0.316 0.590 83 91 42
15.4828 55.2118 -22.8526 0.925 -0.219 0.311 63 71 24
15.6080 57.0396 -23.4441 0.862 -0.189 0.470 65 73 26
15.6965 57.3376 -23.5827 0.771 -0.136 0.622 69 77 30
79.3659 32.7278 -56.1085 -0.146 -0.964 -0.222 20 25 18
79.7849 32.5926 -56.3300 -0.729 -0.683 0.045 59 68 43
10.9295 33.3648 -14.0290 0.835 -0.502 0.226 43 53 28
10.6039 35.7039 -14.4898 0.825 -0.550 -0.131 48 58 32
10.5727 36.9332 -14.8189 0.658 -0.669 -0.347 64 75 33
15.1336 53.5933 -22.3693 0.495 -0.856 0.148 74 82 33
79.3529 32.7821 -56.3104 -0.168 -0.956 -0.241 24 29 22
79.7505 32.6175 -56.5104 -0.729 -0.683 0.045 74 83 58
10.8681 33.3453 -14.1248 0.841 -0.510 0.183 38 49 19
10.5500 35.6455 -14.5841 0.825 -0.550 -0.131 58 70 40
12.7951 45.7339 -18.8602 -0.125 -0.006 0.992 101 114 62
14.5455 50.6131 -21.3411 0.764 -0.559 0.322 95 105 55
14.7311 53.2442 -22.2079 0.786 -0.248 0.566 72 80 32
43.4271 87.2748 -49.7530 0.457 -0.308 0.835 30 31 11
79.0113 32.8612 -56.3158 -0.196 -0.948 -0.250 25 28 20
79.3466 32.8455 -56.5196 -0.196 -0.948 -0.250 28 33 26
79.7832 32.7317 -56.7583 -0.503 -0.787 -0.356 87 95 70
10.8431 33.1849 -14.2026 0.834 -0.545 0.079 63 80 34
10.4847 35.6323 -14.6842 0.826 -0.549 -0.129 76 93 47
12.4365 44.9568 -18.5824 0.291 -0.092 0.952 101 113 62
12.5655 44.8506 -18.6321 0.291 -0.092 0.952 100 112 62
16.3020 32.0265 -17.2646 -0.156 -0.598 -0.786 91 101 50
78.9990 32.9174 -56.5195 -0.196 -0.948 -0.250 25 28 19
79.3351 32.9021 -56.7242 -0.491 -0.805 -0.333 23 28 22
9.9071 38.3704 -15.2634 0.244 -0.947 -0.208 84 102 54
14.3137 53.2487 -22.3245 -0.535 -0.317 0.783 66 75 30
14.4465 53.1864 -22.3891 0.331 -0.940 -0.082 72 81 36
47.5711 36.4683 -38.1705 -0.501 -0.724 -0.475 78 66 44
47.7662 36.6905 -38.3565 -0.559 -0.719 -0.412 85 73 51
78.6796 32.7922 -56.4799 -0.900 -0.377 0.220 16 20 1
10.4142 34.6694 -14.6482 0.832 -0.525 -0.180 83 101 53
14.0941 53.3184 -22.3956 -0.504 -0.220 0.835 90 99 54
14.2766 52.9487 -22.4014 -0.506 -0.221 0.834 86 95 50
14.3722 53.1163 -22.5100 0.324 -0.942 -0.083 80 89 44
45.0959 44.0714 -39.0274 -0.479 -0.838 0.262 36 36 22
47.8689 36.8109 -38.6342 -0.598 -0.720 -0.352 85 74 49
48.2003 37.0228 -38.9028 -0.178 -0.968 0.180 84 83 39
48.3375 37.0214 -38.9880 -0.572 -0.730 0.374 82 84 37
78.6467 32.8208 -56.6632 -0.925 -0.376 0.054 16 20 0
13.8959 53.2569 -22.4417 -0.553 -0.098 0.828 91 100 55
48.1044 36.9136 -38.9905 -0.658 -0.749 0.078 84 83 39
48.2645 36.9968 -39.1151 -0.420 -0.869 0.263 82 84 37
78.6541 32.9046 -56.8883 -0.924 -0.380 0.050 16 20 2
11.8540 42.2274 -18.0784 0.823 -0.529 0.209 90 102 52
11.9366 42.3242 -18.1588 0.823 -0.529 0.209 90 102 52
45.0730 44.6736 -39.5784 -0.917 -0.212 0.338 35 36 15
48.0515 36.9631 -39.1519 -0.810 -0.584 -0.058 86 85 41
78.4879 33.2261 -57.0761 -0.188 -0.812 -0.552 101 109 65
78.7097 33.2916 -57.2342 -0.172 -0.806 -0.567 16 23 0
44.8622 45.4380 -39.8701 -0.919 -0.132 0.372 32 35 16
44.9145 44.9748 -39.7643 -0.910 -0.054 0.410 31 32 14
45.0054 44.7066 -39.7410 -0.917 -0.212 0.338 35 36 12
45.1642 44.7685 -39.8589 0.438 -0.893 0.106 73 71 31
48.0497 37.2028 -39.4026 0.151 -0.987 -0.055 97 96 50
11.5256 41.1742 -17.8786 -0.013 -0.637 0.771 92 104 54
44.8216 45.6098 -40.0934 -0.952 -0.156 0.262 34 37 18
45.0895 44.7677 -40.0075 0.405 -0.909 0.098 95 93 47
47.8479 37.2131 -39.4601 0.282 -0.921 -0.268 83 81 38
47.9818 37.1983 -39.5396 0.150 -0.988 -0.048 112 111 65
11.1460 40.7391 -17.6676 0.607 -0.605 0.515 91 108 57
12.5057 44.5899 -19.6907 0.802 -0.489 0.342 80 89 46
12.9386 44.0356 -19.7942 -0.320 -0.041 0.946 67 76 32
44.4388 46.2919 -40.2577 -0.948 -0.313 0.052 36 38 20
44.5603 46.1580 -40.2934 -0.938 -0.346 -0.028 36 38 19
44.6670 45.9511 -40.2975 -0.940 -0.242 0.239 45 47 25
47.7580 37.1259 -39.5583 0.221 -0.975 0.007 95 93 47
47.9044 37.1583 -39.6600 0.221 -0.975 0.007 123 122 74
80.6951 35.7450 -59.8194 0.091 -0.748 -0.657 32 37 18
12.4572 44.4450 -19.7843 0.802 -0.489 0.342 52 63 21
12.6717 44.4499 -19.9207 0.804 -0.477 0.354 51 62 19
44.3281 46.8812 -40.5676 -0.926 -0.356 0.123 36 32 15
11.9491 42.4409 -19.0149 0.898 -0.404 0.174 83 91 50
12.0066 42.6612 -19.1190 0.891 -0.430 0.148 79 87 46
12.1857 43.8222 -19.5896 0.779 -0.415 0.470 57 65 24
12.2955 44.3295 -19.8152 0.873 -0.386 0.299 66 77 35
22.2986 74.4554 -35.3988 -0.977 -0.052 0.206 26 29 10
38.5532 80.3439 -47.4471 0.178 -0.603 0.778 77 80 35
38.7218 80.0516 -47.4632 0.285 -0.632 0.721 77 80 35
48.7862 52.8494 -45.4146 -0.251 -0.016 0.968 55 44 23
50.5824 50.8301 -45.9231 0.133 -0.133 0.982 56 48 13
47.2258 37.1786 -39.6019 0.044 -0.617 0.786 97 90 45
11.7328 40.7271 -18.5100 -0.379 -0.873 -0.306 90 103 57
11.8308 42.1559 -19.0154 0.898 -0.402 0.178 76 84 43
11.8980 42.3257 -19.1105 0.898 -0.402 0.177 70 78 37
11.9586 42.5297 -19.2120 0.891 -0.430 0.148 65 73 32
11.9355 43.1327 -19.3847 0.880 -0.454 0.140 58 66 25
11.9915 43.3670 -19.4928 0.885 -0.448 0.125 55 63 22
12.1519 43.6135 -19.6704 0.774 -0.414 0.479 66 74 33
12.3352 44.2813 -19.9933 0.873 -0.386 0.299 80 91 49
13.0140 42.4945 -19.8664 -0.283 -0.040 0.958 80 91 48
22.4844 72.2163 -35.0660 -0.968 -0.044 0.246 72 77 44
47.6682 54.1001 -45.3167 -0.514 -0.814 -0.270 125 120 64
48.2430 37.1063 -40.4021 -0.050 -0.789 -0.612 110 108 51
11.4214 39.9928 -18.2433 -0.298 -0.917 -0.266 89 100 57
11.5006 40.9822 -18.6029 0.735 -0.640 -0.226 88 99 56
11.5954 41.0123 -18.6721 -0.252 -0.941 -0.227 81 94 50
11.6897 41.0457 -18.7421 -0.632 -0.746 -0.208 74 85 42
11.7118 41.8802 -19.0170 0.898 -0.400 0.184 59 67 26
11.8878 42.9969 -19.4775 0.879 -0.457 0.131 69 77 36
43.9220 48.3493 -41.3737 -0.944 -0.207 0.255 36 37 19
48.2230 37.7942 -40.7870 -0.051 -0.743 -0.668 121 119 60
48.1689 37.0793 -40.5292 0.245 -0.951 -0.189 116 114 57
48.3708 37.3110 -40.7291 0.026 -0.927 -0.374 108 106 49
11.1993 40.2057 -18.3281 -0.225 -0.910 -0.348 81 92 49
11.3276 40.0818 -18.3701 -0.428 -0.866 -0.258 79 90 47
11.3208 40.5529 -18.5143 0.788 -0.605 -0.113 78 89 46
11.3620 40.8170 -18.6235 0.803 -0.589 -0.093 76 87 44
11.4372 40.9327 -18.7075 0.803 -0.589 -0.093 57 68 25
11.5298 40.9725 -18.7786 -0.296 -0.923 -0.246 57 70 26
11.5965 41.1302 -18.8704 -0.630 -0.754 -0.185 59 70 27
11.6232 41.4719 -18.9950 0.392 -0.859 -0.328 60 71 29
48.1055 37.0922 -40.6757 0.245 -0.951 -0.189 116 114 55
20.9554 83.6869 -38.4623 -0.976 -0.075 0.203 107 112 71
36.1416 71.6879 -44.2662 -0.622 -0.769 0.145 80 82 33
43.5781 48.9912 -41.7695 -0.909 -0.417 -0.013 35 38 19
43.7067 48.8631 -41.8102 -0.940 -0.216 0.265 30 33 12
39.8627 83.4602 -50.6405 -0.298 -0.882 0.366 22 23 17
10.9054 36.4479 -17.4080 0.809 -0.562 -0.172 88 101 57
11.0774 38.1062 -18.0511 0.792 -0.611 0.004 56 69 26
11.1386 38.2571 -18.1385 0.792 -0.611 -0.003 57 71 28
21.7698 75.3974 -36.8445 -0.962 -0.023 0.272 18 21 2
10.9188 36.4901 -17.5807 0.866 -0.485 0.123 73 84 41
10.9277 37.6268 -17.9549 0.807 -0.591 0.008 48 60 14
10.9903 37.7659 -18.0398 0.793 -0.609 0.002 55 67 22
11.0226 38.0345 -18.1474 0.792 -0.611 0.004 65 76 33
11.1019 38.1081 -18.2217 0.808 -0.536 0.244 71 83 37
21.5793 76.7365 -37.4072 -0.961 -0.018 0.276 25 29 6
10.9419 34.9880 -17.2555 0.887 -0.462 0.017 68 81 38
10.8738 36.3872 -17.6692 0.866 -0.485 0.123 49 60 17
10.9097 37.8032 -18.1545 -0.318 -0.925 -0.206 70 82 36
10.9849 37.8917 -18.2312 -0.333 -0.905 -0.265 72 83 40
10.6876 33.9279 -16.8924 0.804 -0.524 0.283 83 95 55
10.7333 34.1012 -16.9785 0.796 -0.556 0.240 78 90 50
10.7706 34.3096 -17.0708 0.786 -0.611 0.093 72 84 44
10.8344 36.2619 -17.7536 0.864 -0.487 0.126 64 75 32
10.6473 33.8207 -16.9763 0.804 -0.524 0.283 65 77 37
10.6793 34.0462 -17.0714 0.795 -0.555 0.244 61 73 33
42.8688 51.2462 -43.3083 -0.674 -0.681 -0.285 44 42 10
10.5369 33.2974 -16.8763 0.805 -0.556 0.208 61 74 31
10.6034 33.7280 -17.0624 0.797 -0.537 0.276 60 72 32
10.6292 33.9760 -17.1616 0.777 -0.503 0.380 64 76 36
10.6642 34.1909 -17.2557 0.728 -0.666 0.163 68 80 42
35.4371 74.7465 -46.6116 -0.366 -0.788 -0.495 85 87 40
42.2201 51.5771 -43.2174 -0.694 -0.676 -0.249 42 45 26
42.6852 51.5741 -43.5136 -0.646 -0.629 -0.433 49 50 26
42.8228 51.4649 -43.5651 -0.635 -0.648 -0.421 83 83 42
10.2493 32.1438 -16.4488 0.844 -0.251 0.475 83 96 53
10.3520 33.0697 -16.8255 0.523 -0.789 -0.323 60 73 30
10.3801 33.2983 -16.9203 0.502 -0.793 -0.345 61 74 31
10.4873 33.2292 -16.9657 0.589 -0.734 -0.338 62 75 32
35.3471 75.0045 -46.9024 -0.813 -0.392 0.431 85 87 40
42.1629 51.7391 -43.4490 -0.681 -0.687 -0.255 33 36 17
42.3252 51.7830 -43.5676 -0.582 -0.662 -0.472 39 42 21
42.4864 51.8179 -43.6824 -0.579 -0.675 -0.457 56 58 37
42.6353 51.7751 -43.7633 -0.632 -0.651 -0.421 74 75 50
10.2783 31.7925 -16.4899 0.849 -0.188 0.494 66 79 36
10.5924 33.9397 -17.4174 0.644 -0.735 0.210 79 91 51
35.2347 74.9049 -47.0595 -0.717 -0.269 0.643 85 87 40
40.7600 49.5921 -42.2471 -0.876 -0.426 -0.226 36 39 23
34.5858 73.6591 -46.7415 -0.686 -0.276 0.673 97 100 53
34.4630 73.3388 -46.8122 -0.780 -0.404 0.479 97 100 53
34.6248 73.0010 -46.7997 -0.761 -0.403 0.508 96 99 52
41.4239 54.2871 -44.7132 -0.608 -0.654 -0.451 48 49 23
41.5814 54.2767 -44.8109 -0.607 -0.654 -0.451 56 53 26
41.7460 54.3139 -44.9296 -0.613 -0.653 -0.445 59 56 24
41.8912 54.2188 -44.9902 -0.613 -0.653 -0.445 71 67 28
42.0363 54.1238 -45.0507 -0.613 -0.653 -0.445 83 81 33
34.3557 73.2983 -46.9888 -0.786 -0.398 0.473 97 100 53
34.5183 72.9691 -46.9791 -0.779 -0.403 0.481 96 99 52
34.6833 72.6994 -46.9917 -0.768 -0.430 0.474 82 85 38
34.8771 72.9304 -47.1968 -0.498 -0.267 0.825 74 77 30
50.9490 42.9401 -47.5330 0.054 -0.634 -0.772 103 97 47
51.2206 43.3497 -47.8527 0.046 -0.633 -0.772 103 97 49
51.5994 44.1220 -48.3694 -0.247 -0.597 -0.763 102 96 50
51.8013 44.5330 -48.8529 -0.414 -0.562 -0.716 89 85 40
34.1289 73.5631 -47.9791 -0.958 -0.163 0.235 92 95 48
40.4232 52.4121 -44.5054 0.768 -0.117 0.630 59 63 40
40.6049 52.6033 -44.6913 0.768 -0.117 0.630 83 85 60
34.8308 78.2918 -50.3956 -0.867 -0.459 -0.193 72 75 31
39.8850 51.3154 -43.9801 0.727 -0.076 0.682 25 26 11
40.0488 51.3960 -44.1152 0.701 -0.065 0.710 63 66 44
40.2331 51.6257 -44.3173 0.702 -0.066 0.710 84 87 61
34.7373 78.6029 -50.7218 -0.867 -0.459 -0.192 70 73 27
39.3641 50.2729 -43.4798 0.709 -0.081 0.701 31 25 18
39.5403 50.4702 -43.6655 0.706 -0.084 0.703 24 20 1
39.7095 50.6068 -43.8248 0.705 -0.084 0.704 52 48 16
39.8576 50.5786 -43.9108 0.708 -0.084 0.702 100 97 57
40.0264 50.7046 -44.0660 0.708 -0.084 0.702 100 97 55
39.0610 49.7082 -43.2895 0.609 -0.116 0.784 33 26 25
37.1863 83.6425 -54.7145 -0.739 -0.510 0.441 44 47 26
51.8381 44.3181 -49.8452 -0.785 -0.588 0.193 104 98 46
51.8452 44.0595 -49.9645 -0.848 -0.528 0.045 94 88 40
34.4226 81.1581 -52.5696 -0.772 -0.616 -0.156 66 69 23
33.3612 77.2059 -50.6824 -0.868 -0.446 -0.219 92 96 46
39.6509 59.5197 -48.4239 -0.179 -0.014 0.984 32 31 20
20.7546 69.8357 -40.1764 -0.953 -0.012 0.304 96 102 54
53.6249 51.2265 -54.6838 -0.089 -0.452 0.888 109 103 53
17.6063 94.6255 -47.7938 -0.931 -0.357 -0.076 94 100 53
51.9345 42.4434 -50.4599 -0.822 -0.450 0.348 77 73 37
36.8619 37.7821 -39.7090 0.159 -0.564 -0.810 87 92 53
50.8841 41.6904 -50.5116 -0.824 -0.273 0.497 104 99 42
36.4803 37.3025 -39.4515 0.166 -0.565 -0.808 29 30 23
52.8062 49.7583 -55.1789 -0.013 -0.390 0.921 112 106 46
48.3452 37.8463 -49.2888 0.685 -0.711 0.162 110 106 63
48.0843 37.6755 -49.2405 0.648 -0.721 0.244 98 94 59
47.8255 37.5085 -49.1941 0.656 -0.703 0.274 97 93 56
50.9931 47.6043 -55.5838 0.485 -0.710 0.510 51 46 17
51.1652 47.6309 -55.7107 0.485 -0.710 0.510 60 54 28
50.8763 47.4665 -55.6723 0.482 -0.707 0.517 55 51 24
47.2557 36.9610 -48.9723 0.550 -0.833 -0.050 90 83 39
47.0097 36.8293 -48.9462 0.550 -0.834 -0.046 82 75 36
46.5816 36.5339 -48.7257 0.681 -0.675 0.285 97 89 51
46.7524 36.6496 -48.8910 0.608 -0.794 0.004 69 60 26
56.6581 28.6600 -52.1301 0.125 -0.819 0.560 89 95 47
46.1730 36.3034 -48.5446 0.471 -0.640 0.606 99 92 52
46.3421 36.4179 -48.7088 0.552 -0.450 0.702 81 73 37
56.5658 28.5844 -52.2200 0.125 -0.819 0.560 90 96 48
31.6667 87.3345 -61.2160 0.478 -0.571 0.668 61 64 34
45.8154 36.2725 -48.4838 0.471 -0.628 0.620 108 101 48
45.9573 36.2796 -48.5830 0.470 -0.642 0.606 84 75 38
56.2153 28.5684 -52.1608 0.162 -0.756 0.634 84 90 43
56.3383 28.5246 -52.2250 0.140 -0.804 0.578 84 90 43
56.4736 28.5089 -52.3098 0.125 -0.819 0.560 83 89 42
17.8604 70.8211 -44.9034 -0.359 -0.712 0.604 87 93 46
31.5378 87.0920 -61.3311 0.478 -0.571 0.668 59 63 36
40.5510 48.2288 -50.3631 0.141 -0.411 0.901 111 109 53
45.4280 36.1124 -48.3455 0.446 -0.681 0.581 95 88 49
45.5675 36.1116 -48.4397 0.414 -0.607 0.679 75 67 33
31.4204 87.3189 -61.6606 0.349 -0.932 -0.094 59 63 37
31.6292 87.4156 -61.8451 0.349 -0.932 -0.094 48 52 27
36.7013 68.8463 -57.0819 -0.902 -0.355 -0.246 22 23 14
36.8290 68.1657 -56.8679 -0.899 -0.363 -0.244 34 34 21
40.4400 48.0297 -50.4199 0.139 -0.403 0.905 117 113 67
45.0361 35.9231 -48.1900 0.044 -0.465 0.884 87 79 44
45.1852 35.9670 -48.3107 0.383 -0.614 0.690 64 55 23
56.3068 28.7249 -52.6627 -0.536 -0.844 -0.012 65 71 31
18.8304 70.3443 -45.8628 0.210 -0.740 0.639 101 108 55
31.3013 87.4940 -61.9674 -0.323 -0.650 -0.688 59 63 37
31.5100 87.5823 -62.1486 -0.323 -0.650 -0.688 48 52 27
40.3882 41.2893 -47.6083 -0.606 -0.121 0.786 109 109 57
44.5659 35.9890 -48.0934 -0.019 -0.264 0.964 95 82 50
44.6852 35.9041 -48.1367 -0.015 -0.268 0.963 77 64 37
17.5875 70.3350 -45.2683 -0.063 -0.687 0.724 97 103 59
18.7360 70.2055 -45.9926 0.210 -0.740 0.639 105 112 62
18.8926 70.2753 -46.1304 0.034 -0.292 0.956 113 119 69
31.1862 87.8797 -62.3722 -0.166 -0.633 -0.756 59 63 37
31.3994 88.1322 -62.6302 -0.166 -0.633 -0.756 48 52 27
40.2147 47.6005 -50.5147 0.238 -0.484 0.842 40 31 17
41.9906 37.2095 -47.0790 -0.051 -0.535 0.843 115 113 55
42.2045 36.8884 -47.0811 -0.391 -0.222 0.893 115 113 55
42.3205 36.7790 -47.1112 -0.356 -0.324 0.877 115 113 56
42.6870 36.5511 -47.2590 -0.287 -0.381 0.879 116 114 57
43.7850 35.8885 -47.7105 0.584 -0.433 0.687 112 100 63
43.9222 35.8876 -47.8036 0.590 -0.432 0.682 89 77 40
44.0595 35.8861 -47.8964 0.577 -0.446 0.684 78 66 31
44.1821 35.8170 -47.9490 0.582 -0.449 0.678 69 56 22
31.0732 88.4110 -62.8462 -0.185 -0.630 -0.754 64 68 42
31.2868 88.6530 -63.1006 -0.185 -0.630 -0.754 50 54 29
34.7031 81.4096 -62.1741 -0.303 -0.710 0.636 22 14 9
42.1198 36.8158 -47.1851 -0.368 -0.245 0.897 116 111 67
42.2348 36.7008 -47.2118 -0.367 -0.324 0.872 115 111 67
42.3789 36.7388 -47.3271 -0.269 -0.377 0.886 115 111 67
42.6107 36.5215 -47.3875 -0.472 -0.410 0.780 115 110 67
42.7221 36.3923 -47.4054 -0.207 -0.407 0.890 115 110 68
42.8597 36.3952 -47.5005 -0.207 -0.404 0.891 113 108 66
42.9785 36.3044 -47.5407 -0.360 -0.225 0.905 107 102 60
43.0871 36.1644 -47.5519 -0.363 -0.220 0.906 98 94 51
43.1937 36.0159 -47.5578 -0.149 -0.287 0.946 93 87 47
43.3192 35.9612 -47.6188 0.248 -0.304 0.920 81 68 41
43.4301 35.8361 -47.6382 0.238 -0.345 0.908 72 57 33
17.5596 70.0925 -45.6509 -0.253 -0.675 0.693 108 113 73
19.0396 69.8877 -46.5690 -0.362 -0.898 0.250 82 86 47
30.9660 89.2933 -63.4856 -0.005 -0.626 -0.780 65 69 43
31.4066 90.2062 -64.1992 -0.004 -0.626 -0.780 43 47 22
42.0281 36.7046 -47.2665 -0.396 -0.389 0.832 77 69 44
42.1446 36.5980 -47.2978 -0.380 -0.428 0.820 77 69 44
42.2964 36.6776 -47.4375 -0.626 -0.662 0.412 62 54 30
42.4173 36.5944 -47.4825 -0.747 -0.445 0.494 60 53 29
42.5420 36.5311 -47.5390 -0.781 -0.437 0.446 61 54 30
17.3504 69.5328 -45.5091 -0.074 -0.774 0.628 105 110 68
18.4608 69.7174 -46.3523 0.324 -0.712 0.623 61 65 28
17.0413 69.9154 -45.7268 -0.235 -0.557 0.797 79 85 39
17.2185 69.7652 -45.7794 -0.235 -0.557 0.797 90 95 55
41.6346 36.8217 -47.4396 -0.048 -0.529 0.847 23 12 16
69.1196 50.4363 -72.4831 0.455 -0.888 0.061 40 44 28
17.1094 69.7814 -45.9675 -0.312 -0.441 0.842 72 76 41
37.8372 57.9872 -54.7591 0.393 -0.848 -0.356 48 49 30
41.1693 39.3121 -48.4601 -0.161 -0.351 0.923 15 11 15
41.2782 39.1297 -48.4509 -0.119 -0.358 0.926 15 11 15
67.9312 49.7360 -71.6015 0.581 -0.807 0.109 133 142 93
16.9842 69.9445 -46.2126 -0.750 -0.618 0.236 64 68 33
30.9607 93.4136 -66.6560 0.026 -0.649 -0.761 49 51 27
35.5393 64.1900 -56.2934 -0.116 -0.344 0.932 49 52 30
42.9861 40.3367 -50.3822 0.027 -0.282 0.959 15 11 10
66.3446 48.5366 -70.2105 0.282 -0.878 -0.387 97 104 69
66.6391 48.7669 -70.5191 0.282 -0.878 -0.387 132 141 96
66.9357 48.9988 -70.8299 0.282 -0.878 -0.387 138 148 97
67.8025 49.6280 -71.7159 0.581 -0.807 0.109 128 138 85
68.0653 49.7760 -71.9647 0.580 -0.807 0.111 137 145 104
16.8713 69.9921 -46.4136 -0.770 -0.597 0.225 64 68 33
54.1243 29.2189 -53.0796 -0.948 -0.315 0.038 82 87 46
54.2874 28.9194 -53.0526 -0.863 -0.453 0.225 80 84 54
59.2497 37.6765 -60.5341 -0.131 -0.169 0.977 138 149 88
66.0947 48.5768 -70.3058 0.567 -0.823 -0.043 108 116 82
67.7430 49.6697 -71.9471 0.576 -0.802 0.160 142 152 97
67.9849 49.7728 -72.1613 0.576 -0.802 0.158 130 138 100
68.9451 50.1530 -72.9981 0.659 -0.568 0.493 18 19 22
16.9413 69.8425 -46.6488 -0.816 -0.575 -0.052 77 81 45
29.7361 83.8100 -61.9845 0.312 -0.729 0.609 72 72 36
30.7225 94.7292 -67.7656 0.180 -0.848 -0.499 48 50 26
54.1213 29.3657 -53.3345 -0.952 -0.306 0.022 82 87 46
66.1850 48.9541 -70.7932 0.516 -0.853 -0.077 131 139 102
66.5016 49.2341 -71.1421 0.512 -0.856 -0.074 134 143 97
66.6911 49.2289 -71.2701 0.541 -0.829 0.143 135 146 91
66.9129 49.2943 -71.4533 0.605 -0.753 0.259 136 147 88
67.6136 49.5600 -72.0599 0.562 -0.774 0.291 142 152 101
67.8419 49.6342 -72.2517 0.487 -0.566 0.665 95 102 66
68.0316 49.6241 -72.3776 0.491 -0.578 0.652 23 29 8
16.8250 69.9203 -46.8622 -0.763 -0.625 0.164 80 85 45
30.5960 95.0606 -68.1675 0.288 -0.848 -0.446 48 50 26
37.6830 60.2825 -56.7149 0.840 -0.542 -0.024 28 28 16
65.7805 48.6493 -70.6215 0.622 -0.764 -0.173 43 47 27
66.1385 49.0262 -71.0453 0.510 -0.858 -0.067 99 107 72
66.3416 49.0530 -71.1980 0.480 -0.858 0.183 113 121 77
66.5638 49.1211 -71.3832 0.569 -0.781 0.258 128 138 85
66.7905 49.1980 -71.5756 0.556 -0.772 0.307 134 145 90
67.0225 49.2851 -71.7764 0.556 -0.772 0.307 130 140 89
67.2605 49.3840 -71.9870 0.483 -0.615 0.623 129 138 91
67.4799 49.4407 -72.1649 0.491 -0.567 0.662 129 137 99
67.6717 49.4366 -72.2953 0.487 -0.566 0.665 54 60 32
67.8215 49.3413 -72.3538 0.520 -0.572 0.635 20 24 6
67.9888 49.2837 -72.4420 0.493 -0.604 0.626 14 17 5
67.7909 48.4469 -71.9124 0.292 -0.502 0.814 9 11 8
78.8651 39.3368 -75.2676 -0.308 -0.787 -0.535 64 74 39
30.7172 97.0732 -69.5367 0.109 -0.758 -0.643 42 44 20
65.9917 48.8734 -71.1228 0.480 -0.858 0.183 33 39 12
66.2209 48.9591 -71.3214 0.480 -0.858 0.183 72 80 43
66.4358 49.0116 -71.4946 0.509 -0.838 0.197 111 120 74
66.6718 49.1098 -71.7039 0.550 -0.772 0.318 130 139 94
67.3106 49.2435 -72.2081 0.491 -0.567 0.662 88 94 68
67.4779 49.1870 -72.2970 0.480 -0.559 0.676 25 29 12
67.6424 49.1244 -72.3809 0.515 -0.569 0.642 13 17 5
78.9427 39.2590 -75.5227 -0.586 -0.807 -0.072 45 54 21
34.3533 58.7533 -54.1926 0.709 -0.561 -0.428 39 48 27
58.8087 36.8915 -60.7173 0.099 -0.517 0.850 25 29 14
59.5368 36.7055 -61.1324 -0.018 -0.623 0.782 16 20 6
66.0940 48.8513 -71.4338 0.641 -0.731 0.235 19 24 2
66.2864 48.8540 -71.5681 0.511 -0.841 0.179 50 56 30
66.9552 49.0602 -72.1284 0.458 -0.574 0.679 117 122 99
67.1282 49.0169 -72.2274 0.488 -0.572 0.660 48 53 33
67.2410 48.8428 -72.2227 0.444 -0.543 0.712 17 21 6
67.1254 46.5468 -71.0524 0.459 -0.392 0.798 11 14 0
68.3015 47.0210 -72.0907 0.679 -0.730 0.082 131 139 89
65.0232 48.7582 -70.8993 0.775 -0.321 0.545 120 129 80
65.2390 47.9555 -70.6654 0.632 -0.762 0.138 29 34 11
65.6200 48.3899 -71.1366 0.722 -0.476 0.502 24 28 13
65.8675 48.5193 -71.3698 0.722 -0.476 0.502 15 19 5
66.2369 48.4934 -71.6131 0.714 -0.447 0.539 30 33 25
66.8973 48.6836 -72.1611 0.541 -0.526 0.657 20 25 8
66.8673 48.1995 -71.9092 0.267 -0.419 0.868 13 17 3
66.6578 46.5154 -70.9600 -0.436 -0.676 0.594 9 11 9
66.7851 46.3852 -70.9860 -0.032 -0.797 0.603 22 25 13
66.9605 46.3579 -71.0944 -0.029 -0.752 0.659 45 49 23
67.8746 46.6884 -71.8850 0.387 -0.913 0.129 127 136 82
88.6955 48.0250 -86.9374 0.211 -0.906 -0.368 21 29 16
36.2281 61.8179 -57.4569 0.028 -0.694 0.719 31 32 24
44.3571 48.0319 -56.4744 -0.181 -0.665 -0.724 33 15 16
44.4644 47.7577 -56.4172 -0.178 -0.669 -0.722 35 15 17
64.8354 48.5070 -70.8990 0.774 -0.326 0.542 121 130 71
65.0083 47.6084 -70.5875 0.617 -0.573 0.540 114 120 85
65.3151 47.8777 -70.9294 0.420 -0.302 0.856 58 62 39
65.4855 47.8363 -71.0276 0.420 -0.302 0.856 23 25 11
65.8212 48.1651 -71.4183 0.721 -0.475 0.505 8 9 3
66.0272 48.2008 -71.5782 0.714 -0.447 0.539 13 14 8
66.2088 48.1815 -71.6948 0.720 -0.449 0.529 16 20 8
66.4208 48.2289 -71.8645 0.763 -0.521 0.383 21 25 11
66.7027 48.4287 -72.1559 0.535 -0.527 0.661 20 23 10
66.7007 48.0058 -71.9515 0.267 -0.419 0.868 21 23 16
66.7802 47.7636 -71.8903 0.276 -0.405 0.871 19 22 15
66.5688 46.8945 -71.3266 -0.640 -0.353 0.682 13 16 4
66.4935 46.3261 -71.0016 -0.353 -0.930 0.098 20 23 12
66.6841 46.3317 -71.1364 -0.478 -0.663 0.576 50 55 35
66.8506 46.2856 -71.2297 -0.034 -0.796 0.605 103 110 76
67.2379 46.3072 -71.5085 0.438 -0.887 0.149 121 131 78
67.5024 46.4657 -71.7679 0.489 -0.858 0.160 126 137 79
67.7597 46.6071 -72.0142 0.412 -0.901 0.138 130 141 80
35.4561 62.0070 -57.2692 -0.037 -0.670 0.742 44 47 30
35.5776 59.0298 -55.9167 0.341 -0.713 0.613 36 38 23
44.1592 48.2708 -56.6817 -0.321 -0.715 -0.621 33 16 17
44.3454 48.4083 -56.8773 -0.331 -0.709 -0.622 36 16 18
64.7185 47.5529 -70.6075 0.596 -0.526 0.606 127 136 77
64.9014 47.5423 -70.7293 0.222 -0.440 0.870 130 138 88
66.2058 47.9265 -71.8202 0.759 -0.530 0.377 15 19 5
66.4771 47.6869 -71.8929 0.280 -0.421 0.863 16 18 14
66.5439 47.4182 -71.8097 0.289 -0.415 0.863 21 23 18
66.2445 46.3580 -71.0901 -0.342 -0.935 0.095 22 25 14
66.4019 46.2926 -71.1678 -0.342 -0.935 0.095 64 69 47
66.5771 46.2654 -71.2763 -0.353 -0.930 0.098 104 111 78
66.6857 46.0957 -71.2698 -0.299 -0.948 0.110 122 131 87
66.7940 45.9264 -71.2632 -0.325 -0.940 0.106 129 140 85
67.6452 46.5266 -72.1438 0.482 -0.866 0.132 133 145 81
68.4995 47.1109 -73.0188 0.665 -0.508 0.548 66 75 30
68.9658 47.2774 -73.4230 0.678 -0.436 0.592 14 17 10
64.5822 47.4188 -70.6955 0.439 -0.337 0.832 127 137 76
65.3303 46.9918 -71.0084 0.630 -0.510 0.586 7 9 0
65.5039 46.9606 -71.1139 0.611 -0.499 0.615 14 18 4
65.7692 47.1323 -71.3817 0.811 -0.420 0.408 15 18 8
66.1860 46.8060 -71.5131 -0.563 -0.473 0.678 10 12 10
66.0889 46.1860 -71.1448 -0.262 -0.954 0.145 27 31 19
66.4152 46.4858 -71.5171 -0.706 -0.615 -0.350 107 113 84
66.4097 46.6393 -71.8354 -0.715 -0.610 -0.341 65 70 49
66.4923 46.4108 -71.7814 -0.735 -0.596 -0.322 115 121 94
68.0926 46.5851 -72.9804 0.631 -0.514 0.582 20 25 3
64.0352 46.9461 -70.5787 0.150 -0.468 0.871 129 137 89
65.7554 46.1996 -71.4117 0.433 -0.584 0.686 17 19 16
64.5015 46.4869 -70.9248 0.198 -0.457 0.867 15 17 8
65.5656 46.3622 -71.6061 0.564 -0.549 0.617 46 49 40
65.7932 46.4503 -71.8084 0.569 -0.549 0.613 24 28 15
66.8810 47.1701 -72.9225 -0.750 -0.570 -0.335 26 30 12
66.9535 46.5115 -72.6485 -0.496 -0.544 0.676 103 110 76
64.3368 46.2872 -70.9574 0.240 -0.520 0.820 15 15 13
64.4774 46.1851 -71.0051 0.185 -0.479 0.858 15 14 19
64.5993 46.0409 -71.0188 -0.247 -0.397 0.884 16 15 24
65.1883 46.1104 -71.4650 0.533 -0.577 0.618 103 107 87
65.4756 46.3330 -71.7761 0.564 -0.564 0.603 115 121 96
77.0013 38.6705 -76.0354 0.324 -0.639 0.698 71 82 41
77.1747 38.6417 -76.1423 0.324 -0.639 0.698 51 60 31
77.2495 38.4632 -76.1061 0.361 -0.703 0.613 33 40 23
29.2947 85.5905 -66.2538 -0.409 -0.912 -0.024 51 49 24
37.6338 54.9514 -56.8289 0.746 -0.663 -0.060 25 26 19
64.0279 46.1806 -70.9345 0.240 -0.520 0.820 15 16 13
64.2037 46.1591 -71.0468 0.229 -0.500 0.835 16 15 21
64.3595 46.0918 -71.1223 -0.277 -0.498 0.822 15 13 24
64.7563 45.7322 -71.2210 -0.251 -0.518 0.818 75 79 63
64.9393 45.7266 -71.3462 -0.201 -0.541 0.817 109 116 83
76.8842 38.5909 -76.1526 -0.324 -0.450 0.832 64 75 34
76.9980 38.4715 -76.1729 -0.324 -0.450 0.832 47 56 27
77.1001 38.3348 -76.1762 -0.345 -0.451 0.823 33 40 23
77.3890 37.9022 -76.1629 -0.816 -0.511 -0.270 39 47 22
16.6472 67.2103 -48.5011 -0.589 -0.519 0.619 80 85 44
16.8316 66.9830 -48.5165 -0.589 -0.519 0.619 58 62 27
