ply
format ascii 1.0
element vertex 876
property float x
property float y
property float z
property float nx
property float ny
property float nz
property uchar diffuse_red
property uchar diffuse_green
property uchar diffuse_blue
end_header
25.0051 71.7374 -20.7364 0.382 -0.058 0.922 133 140 80
25.1158 71.6741 -20.7581 0.556 -0.089 0.827 137 144 83
25.2047 71.6573 -20.7939 0.354 -0.097 0.930 140 146 87
25.2655 71.7009 -20.8483 0.276 -0.128 0.953 134 140 86
25.3610 71.6697 -20.8796 0.272 -0.127 0.954 135 140 89
25.4493 71.6537 -20.9156 0.290 -0.101 0.952 154 158 108
26.6076 71.0424 -21.1700 0.614 -0.770 0.175 253 253 229
27.2909 71.3104 -21.6603 0.182 -0.916 -0.357 131 137 75
27.3570 71.3435 -21.7117 0.182 -0.916 -0.357 127 133 68
27.4106 71.4070 -21.7731 0.359 -0.901 -0.244 122 129 62
28.0095 71.7112 -22.2405 0.338 -0.837 -0.431 112 120 62
28.0753 71.7482 -22.2938 0.523 -0.735 -0.431 140 146 86
28.1176 71.8447 -22.3673 0.499 -0.765 -0.406 161 167 108
28.1659 71.9268 -22.4362 0.472 -0.772 -0.426 181 186 129
28.4282 72.0847 -22.6542 0.462 -0.741 0.487 143 146 99
29.0649 72.1170 -22.9935 0.638 -0.470 0.610 90 94 45
29.1594 72.0807 -23.0216 0.624 -0.589 0.513 91 95 47
29.2072 72.1706 -23.0944 0.565 -0.478 0.672 87 92 49
29.2696 72.2215 -23.1535 0.632 -0.459 0.625 81 87 44
29.3160 72.3166 -23.2284 0.764 -0.638 0.098 73 78 37
29.6343 72.5640 -23.5232 0.495 -0.739 0.456 49 52 23
29.7049 72.5954 -23.5759 0.497 -0.754 0.429 52 55 24
30.4585 73.2755 -24.3248 0.439 -0.772 0.459 86 89 43
30.5433 73.2694 -24.3644 0.469 -0.868 0.163 85 88 43
30.6182 73.2936 -24.4153 0.437 -0.896 0.072 84 87 42
30.6959 73.3091 -24.4630 0.466 -0.879 0.098 84 87 42
30.7708 73.3335 -24.5141 0.318 -0.913 0.256 88 91 48
30.8744 73.2697 -24.5319 0.552 -0.454 0.699 86 89 46
31.1850 73.3336 -24.7234 0.693 -0.485 0.534 85 89 40
31.9676 74.0435 -25.5032 0.769 -0.535 -0.350 93 101 40
32.0364 74.0945 -25.5656 0.285 -0.737 -0.613 90 98 38
34.5508 71.7717 -25.5788 0.148 -0.780 0.608 105 110 51
35.9557 71.8749 -26.3445 0.665 -0.604 0.440 114 112 61
35.8616 72.6678 -26.7263 0.367 -0.419 0.830 110 108 57
35.9286 72.7312 -26.7945 0.881 -0.269 0.390 110 108 57
9.6857 74.5360 -14.6307 0.591 -0.248 0.768 40 17 16
14.2353 71.9983 -15.5491 -0.569 -0.664 0.485 90 103 49
14.0068 72.9252 -15.9378 -0.552 -0.676 0.489 3 11 1
18.4083 72.6778 -18.0268 0.568 -0.716 0.406 41 45 29
19.6159 71.9112 -18.2200 -0.719 -0.535 0.444 19 26 13
21.8741 72.9415 -19.9212 0.288 0.129 0.949 21 31 23
24.3744 69.6615 -19.4006 0.224 -0.974 0.011 14 18 2
24.4472 69.6714 -19.4428 0.187 -0.982 -0.034 24 29 12
23.3678 71.9723 -20.1488 0.202 -0.016 0.979 42 45 25
23.4618 71.9484 -20.1832 0.309 0.012 0.951 70 73 51
23.5604 71.9149 -20.2149 0.309 0.012 0.951 100 103 80
23.6514 71.8967 -20.2509 0.309 0.012 0.951 124 128 102
23.7424 71.8780 -20.2867 0.339 0.020 0.940 123 128 98
23.8507 71.8241 -20.3121 0.279 -0.011 0.960 117 121 86
23.9507 71.7869 -20.3424 0.259 -0.073 0.963 111 116 77
24.0615 71.7271 -20.3658 0.261 -0.075 0.963 94 99 57
24.1613 71.6894 -20.3958 0.261 -0.075 0.963 87 94 45
24.2717 71.6297 -20.4191 0.254 -0.080 0.964 89 95 45
24.3590 71.6171 -20.4563 0.361 -0.071 0.930 93 100 51
24.4333 71.6314 -20.5016 0.364 -0.063 0.929 94 102 53
24.5171 71.6259 -20.5410 0.416 -0.038 0.909 106 113 64
24.6081 71.6053 -20.5758 0.436 -0.115 0.892 115 121 73
24.7177 71.5455 -20.5986 0.516 -0.107 0.850 117 124 74
24.7925 71.5584 -20.6435 0.292 -0.158 0.943 115 118 69
24.8856 71.5329 -20.6766 0.292 -0.158 0.943 120 124 74
25.1005 71.4200 -20.7237 0.270 -0.818 0.508 157 162 103
25.5826 71.4237 -20.9693 0.335 -0.874 0.352 251 254 210
25.6619 71.4266 -21.0110 0.323 -0.872 0.367 251 254 213
25.7278 71.4588 -21.0618 0.275 -0.879 0.389 253 254 216
25.8059 71.4645 -21.1043 0.275 -0.879 0.389 253 254 219
25.8840 71.4701 -21.1468 0.275 -0.879 0.389 255 255 223
26.4862 71.0195 -21.2060 0.287 -0.955 -0.082 221 223 187
26.5451 71.0666 -21.2614 0.240 -0.969 -0.052 210 213 171
26.6216 71.0743 -21.3042 0.252 -0.966 -0.053 186 189 141
26.6859 71.1096 -21.3559 0.345 -0.916 -0.204 165 169 116
27.0500 71.3789 -21.6863 -0.015 -0.954 -0.301 119 125 64
27.3484 71.4327 -21.8663 0.415 -0.851 -0.323 107 113 53
27.9491 71.7339 -22.3336 0.289 -0.840 -0.459 188 196 137
28.1665 72.0005 -22.5884 0.715 -0.638 -0.286 104 109 54
29.0540 72.0107 -23.0423 0.640 -0.744 0.190 72 75 34
29.1559 71.9546 -23.0633 0.668 -0.732 0.136 69 71 30
30.1351 72.8629 -24.0519 -0.445 -0.882 0.154 77 83 38
30.6283 73.1107 -24.4359 0.232 -0.078 0.970 85 88 41
31.5665 73.8184 -25.2946 0.895 -0.217 0.391 92 100 40
31.9449 73.9517 -25.5583 0.490 -0.720 -0.492 93 101 43
31.9840 74.1033 -25.6605 0.463 -0.731 -0.501 100 108 50
33.1476 74.1465 -26.2718 0.678 -0.223 0.701 75 82 30
34.1163 72.3504 -25.7845 -0.904 -0.427 0.019 105 113 55
12.2055 73.1915 -15.2897 -0.041 -0.873 0.485 25 33 18
13.9535 72.9101 -16.0188 -0.552 -0.676 0.489 0 7 0
18.9650 72.3497 -18.2439 -0.335 -0.924 0.183 63 69 33
24.0473 69.8940 -19.4693 0.118 -0.642 -0.757 68 77 50
24.1484 69.8493 -19.4959 0.004 -0.730 -0.683 86 95 66
24.2179 69.8663 -19.5403 -0.039 -0.752 -0.658 96 103 71
23.3183 71.7988 -20.1416 0.202 -0.017 0.979 97 103 68
23.4298 71.7398 -20.1657 0.202 -0.017 0.979 94 101 59
23.5325 71.6979 -20.1947 0.199 -0.017 0.980 87 94 51
23.6211 71.6836 -20.2316 0.309 0.012 0.951 81 86 43
23.7117 71.6654 -20.2674 0.309 0.012 0.951 83 89 44
24.1783 71.5436 -20.4366 0.197 -0.200 0.960 114 122 64
24.2836 71.4940 -20.4627 0.205 -0.335 0.920 114 122 63
24.3720 71.4788 -20.4990 0.214 -0.348 0.913 117 125 67
24.6513 71.4029 -20.5986 0.271 -0.576 0.771 156 164 105
25.6220 70.5354 -20.6149 0.324 -0.839 -0.437 252 255 200
25.5988 71.4487 -21.1022 0.393 -0.897 -0.204 239 244 192
25.6677 71.4746 -21.1511 0.381 -0.899 -0.216 226 231 179
25.7381 71.4974 -21.1991 0.173 -0.981 0.087 219 222 174
25.8169 71.5016 -21.2412 0.155 -0.984 0.083 211 214 166
26.4423 71.0014 -21.2839 0.337 -0.939 -0.066 138 143 91
26.5044 71.0413 -21.3370 0.316 -0.949 -0.006 130 135 79
26.5734 71.0658 -21.3853 0.627 -0.764 0.153 124 129 69
26.6356 71.1061 -21.4387 0.627 -0.764 0.153 119 125 60
26.6979 71.1466 -21.4922 0.627 -0.764 0.153 115 122 53
26.7635 71.1795 -21.5434 0.614 -0.789 -0.021 113 121 49
26.8199 71.2341 -21.6017 0.610 -0.792 -0.033 110 117 46
26.8793 71.2822 -21.6579 0.610 -0.792 -0.033 104 111 44
26.9565 71.2890 -21.7007 0.398 -0.893 -0.209 97 103 38
27.6638 71.7134 -22.2898 0.568 -0.437 0.698 166 174 117
28.1015 71.8309 -22.5750 0.624 -0.484 0.614 90 94 41
29.1260 72.3356 -23.3682 0.429 -0.773 -0.467 57 62 21
29.4093 72.6798 -23.6993 0.027 -0.936 -0.351 69 73 38
29.9239 72.8515 -24.0530 -0.289 -0.929 0.231 84 91 38
30.0079 72.8468 -24.0928 -0.275 -0.921 0.275 83 90 38
30.1312 72.7278 -24.0901 -0.319 -0.917 0.238 83 90 40
30.3323 72.6197 -24.1326 -0.035 -0.978 -0.207 85 89 39
30.4123 72.6249 -24.1759 -0.053 -0.981 -0.188 80 84 34
30.3995 72.9051 -24.3224 0.680 -0.271 0.681 77 81 31
30.4554 72.9837 -24.3937 0.245 -0.072 0.967 76 80 30
30.5503 72.9464 -24.4212 0.241 -0.077 0.968 84 88 38
30.6313 72.9505 -24.4643 0.254 -0.074 0.964 95 99 49
30.7362 72.8822 -24.4800 0.232 -0.078 0.970 102 105 57
31.5170 73.5452 -25.2366 0.313 -0.899 0.308 90 98 40
31.5505 73.7074 -25.3421 0.275 -0.938 0.211 99 107 49
31.6246 73.7379 -25.3962 0.267 -0.942 0.201 101 109 51
34.3971 71.7022 -25.6844 -0.909 -0.412 0.063 111 117 57
11.3024 73.6185 -15.1853 -0.486 -0.815 0.315 44 40 21
11.4754 73.5034 -15.2095 -0.445 -0.810 0.381 40 36 19
12.1630 73.1599 -15.3682 -0.045 -0.900 0.434 31 39 20
13.9019 72.8924 -16.0995 -0.553 -0.676 0.488 2 10 0
19.6755 71.7520 -18.3890 -0.698 -0.581 0.419 20 27 20
20.2795 73.3313 -19.5606 0.286 0.186 0.940 17 23 22
20.4234 73.2252 -19.5750 0.286 0.181 0.941 17 24 18
21.9313 72.3010 -19.8293 0.268 0.133 0.954 17 25 8
22.5384 72.0902 -20.0201 0.305 0.118 0.945 85 90 60
22.6444 72.0448 -20.0488 0.305 0.118 0.945 91 98 66
22.7808 71.9401 -20.0602 0.326 0.101 0.940 95 102 69
22.8766 71.9137 -20.0940 0.316 0.099 0.944 94 101 68
23.9237 70.0316 -19.5900 0.104 -0.645 -0.757 88 96 59
23.2930 71.5792 -20.1208 0.231 -0.018 0.973 80 87 44
23.4000 71.5288 -20.1472 0.231 -0.018 0.973 86 93 46
23.5067 71.4786 -20.1734 0.231 -0.018 0.973 94 102 46
23.5758 71.5026 -20.2215 0.267 -0.076 0.961 105 113 56
23.6400 71.5365 -20.2726 0.283 -0.066 0.957 117 125 68
23.8259 71.4896 -20.3407 0.409 -0.206 0.889 117 125 67
25.4216 70.5135 -20.6108 0.156 -0.975 -0.156 246 250 191
26.2105 70.6925 -21.1073 0.366 -0.682 -0.634 124 129 73
26.2505 70.7797 -21.1754 0.413 -0.775 -0.478 121 126 72
26.4094 70.9585 -21.3537 0.391 -0.919 -0.054 115 118 72
26.4754 70.9895 -21.4041 0.391 -0.919 -0.054 112 116 66
26.5571 70.9850 -21.4429 0.457 -0.889 -0.013 105 110 55
26.7422 71.1094 -21.6046 0.639 -0.769 -0.031 104 111 47
26.8038 71.1515 -21.6588 0.649 -0.753 -0.104 124 130 65
26.8534 71.2220 -21.7225 0.644 -0.764 -0.043 155 161 99
26.9057 71.2867 -21.7844 0.672 -0.740 -0.004 168 173 113
26.9633 71.3394 -21.8424 0.672 -0.740 -0.004 189 194 135
27.1037 71.3870 -21.9394 0.091 -0.995 -0.045 205 210 154
27.1644 71.4334 -21.9956 0.073 -0.996 -0.049 190 195 141
27.2375 71.4509 -22.0421 0.610 -0.737 0.291 177 181 129
28.5700 71.5350 -22.7611 0.533 -0.701 0.474 62 64 23
29.6922 72.8976 -24.0754 -0.152 -0.377 0.914 81 89 29
31.2004 73.5981 -25.2214 0.912 -0.293 0.287 104 112 56
31.3306 73.4489 -25.2053 -0.032 -0.808 0.588 105 112 58
31.4243 73.4153 -25.2341 0.030 -0.767 0.641 105 112 58
31.5147 73.3916 -25.2667 0.030 -0.767 0.641 105 113 58
31.6009 73.3813 -25.3046 -0.066 -0.763 0.643 104 111 58
31.7924 73.5708 -25.5053 0.867 -0.485 -0.117 121 128 75
32.1526 74.0479 -25.9490 0.463 -0.273 0.843 83 89 43
32.3078 74.0923 -26.0518 0.364 -0.110 0.925 80 87 41
32.7162 74.1351 -26.2814 0.733 -0.091 0.674 76 87 41
11.2489 73.6007 -15.2671 -0.481 -0.795 0.369 35 33 18
11.4116 73.4997 -15.2936 -0.445 -0.807 0.388 33 31 19
12.1125 73.1392 -15.4487 -0.134 -0.949 0.286 48 56 29
13.9445 71.9055 -15.6935 -0.190 -0.931 0.312 103 118 63
13.8397 72.8898 -16.1831 -0.553 -0.681 0.480 11 17 5
16.6179 72.6840 -17.4721 -0.555 -0.675 0.486 47 53 23
19.5117 71.9309 -18.5178 -0.616 -0.630 0.474 19 26 17
19.6658 71.8098 -18.5288 -0.645 -0.611 0.460 21 30 25
21.1033 72.4958 -19.6327 0.264 0.164 0.951 17 23 10
21.9492 72.0059 -19.7896 0.267 0.135 0.954 62 72 42
22.0706 71.9327 -19.8106 0.275 0.132 0.952 76 86 53
22.1704 71.8999 -19.8429 0.291 0.125 0.948 91 101 66
22.2800 71.8481 -19.8697 0.291 0.125 0.948 93 104 66
22.3732 71.8272 -19.9052 0.296 0.126 0.947 94 105 67
22.4591 71.8199 -19.9445 0.285 0.120 0.951 97 105 68
22.5526 71.7981 -19.9797 0.323 0.124 0.938 96 104 67
22.6727 71.7250 -20.0000 0.310 0.118 0.943 87 93 54
23.8682 70.0358 -19.6724 0.157 -0.664 -0.731 106 113 69
26.6396 71.0427 -21.6264 0.391 -0.918 -0.067 209 213 162
26.8035 71.2175 -21.8055 0.752 -0.658 0.029 221 225 175
26.8662 71.2580 -21.8595 0.776 -0.484 0.406 194 198 148
26.9187 71.3226 -21.9216 0.759 -0.456 0.464 168 172 120
27.0539 71.3824 -22.0228 0.361 -0.588 0.724 102 107 53
27.1344 71.3820 -22.0633 0.361 -0.588 0.724 95 100 46
27.2199 71.3700 -22.0998 0.447 -0.535 0.717 92 97 42
27.2904 71.3935 -22.1483 0.450 -0.548 0.705 94 99 44
28.3759 71.4910 -22.7500 -0.264 -0.905 0.333 66 68 30
30.3134 72.6211 -24.3510 0.702 -0.641 0.311 117 122 68
30.6758 73.0111 -24.7489 0.491 -0.819 -0.296 87 92 39
30.9172 73.2855 -25.0220 -0.299 -0.948 -0.112 104 109 52
31.7134 73.6670 -25.6343 0.825 -0.124 0.552 97 104 54
32.6838 73.7763 -26.1844 0.460 -0.451 0.765 81 94 39
33.2109 73.6797 -26.3972 0.397 -0.472 0.787 109 116 62
33.3502 73.7813 -26.5236 -0.871 -0.492 0.022 109 116 64
39.2736 72.3585 -28.7294 0.315 -0.915 -0.251 127 133 69
11.3500 73.4928 -15.3772 -0.469 -0.795 0.384 29 31 21
12.0592 73.1223 -15.5300 -0.204 -0.923 0.326 73 83 47
13.8783 71.9097 -15.7766 -0.206 -0.929 0.307 104 119 64
13.7786 72.8854 -16.2666 -0.542 -0.706 0.457 27 33 21
16.5661 72.6687 -17.5533 -0.563 -0.659 0.498 46 53 23
19.4292 71.9713 -18.6121 -0.646 -0.601 0.470 19 26 15
19.5203 72.0986 -18.7286 -0.154 -0.968 0.199 17 26 21
19.6432 72.0308 -18.7531 -0.273 -0.910 0.313 16 25 20
19.5733 72.2926 -18.8628 0.113 -0.770 0.628 17 26 21
19.8055 72.9091 -19.3213 0.308 0.181 0.934 20 30 20
20.8987 72.3082 -19.5403 0.248 0.160 0.956 22 31 12
21.4117 71.9790 -19.6169 0.273 0.163 0.948 55 64 39
21.5273 71.9183 -19.6417 0.240 0.139 0.961 74 83 56
21.6243 71.8916 -19.6758 0.231 0.136 0.963 85 94 63
21.7506 71.8105 -19.6946 0.231 0.136 0.963 83 90 58
21.8453 71.7874 -19.7296 0.279 0.119 0.953 91 99 64
21.9572 71.7321 -19.7555 0.279 0.119 0.953 91 99 59
22.0688 71.6769 -19.7813 0.279 0.119 0.953 88 96 54
22.1801 71.6219 -19.8070 0.279 0.119 0.953 82 91 47
22.2911 71.5670 -19.8326 0.279 0.119 0.953 74 83 37
22.4091 71.4986 -19.8542 0.294 0.123 0.948 77 86 38
22.5049 71.4716 -19.8877 0.292 0.121 0.949 82 92 44
22.5700 71.5027 -19.9377 0.285 0.120 0.951 88 95 48
22.6320 71.5400 -19.9897 0.316 0.120 0.941 94 102 55
24.6888 70.3377 -20.3620 0.385 -0.922 0.036 214 223 158
24.7457 70.3830 -20.4158 0.320 -0.946 0.043 215 224 159
24.9436 70.3016 -20.4706 0.246 -0.956 0.161 182 191 128
25.0170 70.3132 -20.5140 0.246 -0.956 0.161 166 175 110
25.2213 70.3812 -20.6548 0.437 -0.900 0.011 136 143 76
25.2892 70.4047 -20.7021 0.431 -0.902 0.022 127 134 69
26.3800 70.9700 -21.5656 0.339 -0.921 -0.194 241 243 201
26.4530 70.9855 -21.6110 0.463 -0.887 -0.007 219 222 177
27.0564 71.2549 -22.0647 0.002 -0.761 0.649 106 110 60
27.7893 71.4234 -22.5278 -0.114 -0.993 -0.042 57 61 25
27.8360 71.5062 -22.5973 -0.035 -0.999 0.011 58 62 26
27.8918 71.5674 -22.6593 0.228 -0.945 -0.233 66 67 33
27.8779 72.0039 -22.8940 0.301 -0.811 -0.501 62 63 29
28.3252 71.9006 -23.0625 -0.445 -0.896 0.008 76 78 38
28.9757 72.1112 -23.5074 -0.100 -0.985 -0.138 89 95 48
29.0563 72.1131 -23.5492 -0.070 -0.988 -0.136 80 86 39
29.1207 72.1588 -23.6070 0.253 -0.964 -0.078 77 83 35
29.2686 72.6459 -23.9513 0.798 0.065 0.600 79 86 34
29.4161 72.6931 -24.0519 0.580 -0.067 0.812 95 103 44
29.5112 72.6576 -24.0802 0.306 -0.100 0.947 107 116 54
30.1400 72.5029 -24.3119 0.443 -0.720 0.534 104 109 55
30.2266 72.4891 -24.3480 0.707 -0.629 0.323 97 102 48
30.2762 72.5832 -24.4251 0.623 -0.707 0.336 89 94 40
31.2304 73.4493 -25.3862 -0.021 -0.929 -0.369 109 115 67
31.4555 73.2616 -25.3959 -0.051 -0.783 0.619 93 99 51
31.5434 73.2456 -25.4314 -0.074 -0.785 0.615 86 92 45
32.5792 73.6768 -26.1929 0.465 -0.526 0.712 96 107 48
32.6731 73.6398 -26.2198 0.451 -0.446 0.773 98 109 50
33.1749 73.3293 -26.3011 0.631 -0.046 0.774 111 119 60
33.3479 73.3011 -26.3728 0.348 -0.352 0.869 111 118 64
39.4079 72.2362 -28.8415 -0.683 -0.721 -0.116 124 130 68
11.4488 73.3879 -15.4874 -0.415 -0.865 0.281 31 38 23
11.5975 73.3052 -15.5164 -0.373 -0.912 0.172 46 55 26
11.7223 73.2541 -15.5510 -0.317 -0.931 0.178 67 78 36
11.8634 73.1808 -15.5814 -0.243 -0.903 0.356 78 89 44
11.9871 73.1307 -15.6159 -0.213 -0.919 0.333 80 91 50
12.4219 73.0091 -15.7677 -0.045 -0.984 -0.171 102 113 70
13.8254 71.8951 -15.8562 -0.206 -0.929 0.307 101 118 63
13.9384 71.8546 -15.8907 -0.217 -0.891 0.399 105 120 63
16.7049 72.4893 -17.6395 -0.565 -0.664 0.491 48 53 30
19.3451 72.1548 -18.7856 -0.141 -0.965 0.223 23 33 25
19.5590 72.0743 -18.8488 0.340 -0.933 0.116 19 28 23
19.5793 72.1819 -18.9188 0.039 -0.811 0.583 17 26 21
19.6842 72.1448 -18.9511 0.013 -0.779 0.626 17 26 22
19.7258 72.3604 -19.0920 0.190 -0.080 0.978 19 29 19
21.0600 71.9137 -19.5168 0.260 0.163 0.952 66 78 43
21.1884 71.8311 -19.5356 0.261 0.163 0.952 74 84 49
21.3002 71.7779 -19.5624 0.262 0.163 0.951 77 87 52
21.4445 71.6651 -19.5725 0.273 0.163 0.948 77 87 52
21.5632 71.5983 -19.5952 0.273 0.163 0.948 75 85 49
21.6684 71.5557 -19.6246 0.240 0.139 0.961 73 83 47
21.7790 71.5030 -19.6511 0.228 0.134 0.964 71 82 43
21.8901 71.4489 -19.6770 0.231 0.136 0.963 74 82 42
21.9639 71.4634 -19.7223 0.289 0.103 0.952 77 86 44
22.0722 71.4140 -19.7494 0.293 0.102 0.951 80 87 43
23.5333 71.2618 -20.4020 0.029 -0.982 -0.187 173 180 126
24.8777 70.3286 -20.5613 -0.323 -0.946 -0.013 122 130 70
24.9786 70.2837 -20.5872 0.016 -0.976 -0.217 114 123 60
25.1935 70.3296 -20.7212 0.385 -0.922 -0.053 116 122 60
25.2407 70.3962 -20.7820 0.365 -0.894 0.261 115 120 62
25.3218 70.3920 -20.8207 0.369 -0.893 0.258 112 117 64
26.7350 71.5074 -22.1540 0.183 -0.634 0.751 106 109 65
27.1062 71.2050 -22.1731 -0.220 -0.975 0.039 79 82 36
27.5507 72.0798 -22.8839 0.605 -0.686 -0.405 63 67 29
27.6261 72.0951 -22.9305 0.419 -0.841 -0.342 69 71 33
27.8515 71.7395 -22.8464 0.016 -0.954 0.299 74 76 37
27.9808 72.2298 -23.1843 0.155 -0.960 -0.231 84 87 42
28.2028 71.8749 -23.0990 0.268 -0.945 -0.187 89 93 45
28.3252 71.9771 -23.2175 0.288 -0.957 0.026 81 85 33
28.3995 71.9950 -23.2650 0.112 -0.991 -0.076 83 88 34
28.4781 72.0019 -23.3085 0.115 -0.990 -0.085 87 92 38
28.5676 71.9809 -23.3420 0.096 -0.984 -0.151 87 92 38
28.6219 72.0511 -23.4084 0.230 -0.577 0.784 83 88 34
28.6987 72.0630 -23.4538 0.111 -0.608 0.786 84 89 35
28.7696 72.0906 -23.5049 0.115 -0.550 0.828 80 85 31
29.0332 72.0391 -23.6093 0.708 -0.334 0.622 76 83 34
29.0925 72.0981 -23.6720 0.702 -0.343 0.624 90 97 46
29.6762 72.5134 -24.1975 0.325 -0.909 0.259 105 114 47
29.7567 72.5177 -24.2405 0.331 -0.923 0.194 96 105 41
29.8357 72.5261 -24.2850 0.352 -0.919 0.178 92 100 39
29.9217 72.5149 -24.3221 0.192 -0.980 0.049 87 94 40
29.9991 72.5278 -24.3684 0.214 -0.976 0.044 85 92 40
30.0703 72.5587 -24.4215 0.063 -0.996 0.069 98 102 49
30.1552 72.5505 -24.4598 0.108 -0.994 -0.020 101 106 52
30.2339 72.5600 -24.5048 0.108 -0.994 -0.020 104 109 53
30.2955 72.6195 -24.5689 0.404 -0.880 -0.249 107 112 56
30.8283 73.2493 -25.1880 0.413 -0.871 0.268 105 109 60
30.8966 73.2949 -25.2479 0.421 -0.869 0.261 100 104 53
30.9670 73.3345 -25.3054 0.405 -0.871 0.278 93 98 44
31.0553 73.3184 -25.3410 0.687 -0.727 0.001 88 92 40
31.1193 73.3787 -25.4068 0.687 -0.727 0.001 86 92 45
31.2154 73.3380 -25.4327 0.836 -0.548 -0.043 78 84 38
32.3220 73.5306 -26.0981 0.777 -0.558 0.293 97 105 46
32.4053 73.5304 -26.1400 0.750 -0.580 0.317 109 116 56
32.4733 73.5834 -26.2038 0.750 -0.580 0.317 110 117 57
32.8803 73.3208 -26.2631 0.182 -0.034 0.983 111 118 58
33.2479 73.1875 -26.3744 0.636 -0.055 0.770 112 120 61
33.4922 73.1994 -26.5043 0.140 -0.205 0.969 113 121 63
39.3445 72.3824 -29.0026 0.390 -0.901 0.190 129 135 73
39.5367 72.1497 -28.9702 -0.667 -0.728 -0.160 122 128 68
11.3774 73.3942 -15.5735 -0.415 -0.865 0.281 59 69 46
11.5305 73.3059 -15.6013 -0.374 -0.910 0.179 77 89 52
11.6839 73.2166 -15.6288 -0.390 -0.900 0.195 82 95 47
11.8268 73.1410 -15.6587 -0.234 -0.906 0.352 82 94 43
11.9566 73.0827 -15.6916 -0.104 -0.963 0.250 81 92 48
12.1915 72.9986 -15.7631 -0.073 -0.990 -0.123 81 91 52
12.2960 72.9738 -15.8020 -0.059 -0.992 -0.114 89 100 54
12.3890 72.9646 -15.8437 -0.036 -0.996 -0.081 103 115 66
13.9073 71.8097 -15.9644 -0.227 -0.903 0.366 105 120 64
16.6541 72.4728 -17.7203 -0.565 -0.664 0.491 51 56 32
19.5137 72.0516 -18.9274 -0.061 -0.977 0.203 21 29 23
19.5562 72.1209 -18.9876 0.060 -0.800 0.597 18 26 19
19.5762 72.2292 -19.0582 0.238 -0.129 0.963 19 27 20
20.3766 71.9960 -19.3316 0.226 0.170 0.959 54 66 34
20.5055 71.9152 -19.3515 0.210 0.162 0.964 64 77 43
20.6171 71.8641 -19.3793 0.204 0.159 0.966 73 86 49
20.8658 71.7159 -19.4219 0.283 0.180 0.942 75 89 50
20.9855 71.6493 -19.4451 0.283 0.180 0.942 75 87 47
21.0997 71.5920 -19.4707 0.278 0.180 0.944 73 85 42
21.2172 71.5284 -19.4944 0.273 0.161 0.948 72 84 38
21.3539 71.4297 -19.5082 0.268 0.158 0.950 70 80 35
21.4730 71.3622 -19.5306 0.268 0.158 0.950 70 81 37
21.5918 71.2949 -19.5528 0.268 0.158 0.950 71 82 39
22.7888 71.1848 -20.0951 0.128 -0.903 -0.409 153 156 110
23.0933 71.2227 -20.2699 0.085 -0.994 0.067 165 170 115
23.1830 71.2059 -20.3058 0.039 -0.908 0.418 168 173 118
23.2715 71.1912 -20.3422 0.110 -0.878 0.465 168 175 122
23.9296 71.1697 -20.6621 0.151 -0.955 0.256 120 131 64
24.0096 71.1713 -20.7034 0.151 -0.955 0.256 116 127 59
24.6991 70.4235 -20.6334 -0.321 -0.941 0.111 110 120 59
24.7907 70.3985 -20.6656 -0.291 -0.955 0.051 110 120 60
24.8890 70.3594 -20.6934 0.123 -0.989 -0.086 106 114 54
25.2263 70.3165 -20.8395 0.383 -0.923 -0.049 100 103 54
25.2908 70.3469 -20.8891 0.420 -0.904 0.073 121 124 79
25.8705 70.8062 -21.4380 0.276 -0.838 0.470 129 131 91
25.9344 70.8410 -21.4897 0.587 -0.798 0.137 115 118 74
26.5688 71.3977 -22.1207 0.177 -0.666 0.725 81 85 36
26.6567 71.3810 -22.1558 0.179 -0.657 0.733 76 79 33
26.7312 71.3952 -22.2013 0.165 -0.635 0.754 69 72 27
26.7941 71.4364 -22.2560 -0.079 -0.692 0.718 68 71 27
26.9957 71.1548 -22.2004 -0.308 -0.944 0.120 63 66 23
27.0619 71.1877 -22.2521 -0.235 -0.972 0.005 67 70 27
28.3175 72.0733 -23.3803 0.701 -0.263 0.663 83 87 36
28.3792 72.1244 -23.4399 0.858 -0.249 0.449 76 80 29
28.7209 72.0845 -23.5900 0.251 -0.739 0.626 110 114 63
28.8188 72.0411 -23.6151 0.750 -0.334 0.571 122 126 75
28.9441 71.9251 -23.6135 0.737 -0.305 0.603 134 140 90
28.9749 72.0589 -23.7038 0.379 -0.838 -0.393 145 152 101
29.0293 72.1310 -23.7715 0.351 -0.808 -0.473 145 152 101
29.0771 72.2217 -23.8463 0.299 -0.818 -0.491 137 144 91
29.1131 72.3447 -23.9332 0.278 -0.835 -0.475 132 140 83
29.1744 72.4005 -23.9953 0.278 -0.835 -0.475 119 127 69
29.2531 72.4094 -24.0399 0.624 -0.771 -0.127 105 113 53
29.3145 72.4656 -24.1023 0.524 -0.828 -0.200 93 101 41
29.3768 72.5199 -24.1641 0.524 -0.828 -0.200 88 96 36
29.4437 72.5621 -24.2214 0.520 -0.839 -0.163 86 95 32
29.5222 72.5723 -24.2667 0.353 -0.924 -0.144 85 94 30
29.5919 72.6074 -24.3214 0.353 -0.924 -0.144 92 101 37
29.6788 72.5941 -24.3579 0.136 -0.961 0.240 103 112 50
29.7606 72.5952 -24.3997 0.136 -0.961 0.240 103 111 52
29.8689 72.5213 -24.4130 0.175 -0.944 0.278 103 110 58
29.9481 72.5292 -24.4574 0.311 -0.934 0.176 103 110 59
30.0316 72.5252 -24.4973 0.037 -0.985 0.168 106 111 58
30.1163 72.5173 -24.5356 0.023 -0.986 0.164 110 115 61
30.1946 72.5281 -24.5811 -0.039 -0.999 0.007 114 119 64
30.2591 72.5791 -24.6421 0.086 -0.990 -0.109 115 120 65
30.5320 72.7433 -24.8716 0.487 -0.790 -0.372 103 107 56
30.5674 72.8836 -24.9678 0.587 -0.765 -0.264 99 102 59
30.6417 72.9084 -25.0191 0.592 -0.790 -0.162 94 97 54
30.7360 73.1238 -25.1870 0.604 -0.546 0.581 89 92 47
30.7899 73.2127 -25.2639 0.583 -0.568 0.581 81 84 37
30.8549 73.2682 -25.3277 0.598 -0.573 0.560 79 83 34
30.9306 73.2914 -25.3788 0.580 -0.785 0.217 78 81 32
31.0772 73.3529 -25.4871 0.679 -0.729 -0.084 75 81 34
31.2821 73.2317 -25.5227 -0.032 -0.851 0.524 73 79 33
31.3466 73.2906 -25.5882 0.016 -0.762 0.647 69 75 29
32.3630 73.5062 -26.2213 0.825 -0.381 0.418 114 119 61
32.4646 73.4430 -26.2372 0.559 -0.304 0.771 114 118 61
32.5499 73.4353 -26.2760 0.556 -0.322 0.766 114 117 61
39.3105 72.3213 -29.0637 0.427 -0.889 0.165 132 138 77
39.3851 72.3583 -29.1220 0.360 -0.913 0.192 132 138 77
39.4622 72.3791 -29.1725 0.095 -0.960 0.264 126 132 72
11.3155 73.3877 -15.6574 -0.406 -0.873 0.270 76 88 52
11.4620 73.3085 -15.6868 -0.392 -0.910 0.137 76 92 47
11.7771 73.1189 -15.7393 -0.211 -0.914 0.346 83 98 48
11.9019 73.0674 -15.7733 -0.104 -0.963 0.250 80 93 49
12.0246 73.0185 -15.8078 -0.060 -0.980 0.189 78 89 50
12.1290 72.9942 -15.8468 -0.194 -0.941 0.278 85 95 60
13.9638 71.7597 -16.0793 -0.209 -0.916 0.343 106 119 66
19.4585 72.0453 -19.0104 -0.089 -0.981 0.173 27 33 12
19.5101 72.0993 -19.0667 0.067 -0.800 0.596 31 37 16
20.0893 71.8181 -19.2010 0.313 0.182 0.932 71 79 49
20.2007 71.7685 -19.2293 0.312 0.181 0.933 70 78 45
20.3132 71.7165 -19.2569 0.312 0.181 0.933 72 81 44
20.4294 71.6577 -19.2825 0.224 0.162 0.961 75 84 44
20.5471 71.5959 -19.3071 0.227 0.162 0.960 72 82 38
20.6884 71.4922 -19.3202 0.210 0.162 0.964 65 75 31
20.8063 71.4290 -19.3442 0.205 0.159 0.966 64 74 28
20.9370 71.3428 -19.3617 0.207 0.159 0.965 69 79 32
21.0225 71.3360 -19.4011 0.242 0.165 0.956 70 81 33
22.8997 71.1771 -20.2585 0.168 -0.947 0.275 158 166 110
22.9797 71.1792 -20.3000 0.168 -0.947 0.275 157 165 107
23.0723 71.1569 -20.3342 0.096 -0.888 0.449 158 166 107
23.3109 71.1654 -20.4593 0.059 -0.913 0.403 146 154 94
23.3985 71.1524 -20.4962 0.152 -0.922 0.357 136 144 86
23.4775 71.1562 -20.5382 0.217 -0.936 0.277 124 132 74
23.5633 71.1466 -20.5760 0.293 -0.950 0.109 116 124 65
23.6436 71.1478 -20.6172 0.092 -0.889 0.449 111 119 60
23.7181 71.1605 -20.6619 0.096 -0.897 0.432 112 120 61
23.7968 71.1648 -20.7040 0.116 -0.909 0.401 113 121 61
23.8818 71.1566 -20.7422 0.138 -0.949 0.283 111 119 58
23.9595 71.1628 -20.7849 0.155 -0.908 0.388 106 115 54
24.0437 71.1560 -20.8236 0.210 -0.883 0.420 104 111 57
24.6889 70.3363 -20.6889 -0.062 -0.995 0.073 90 97 45
24.7656 70.3415 -20.7305 -0.124 -0.981 -0.150 101 108 56
24.8610 70.3083 -20.7600 0.003 -0.975 -0.221 119 126 75
25.2424 70.3382 -20.9691 0.415 -0.910 0.014 198 204 160
25.9204 70.7569 -21.5460 0.252 -0.843 0.476 101 107 59
26.6485 71.8411 -22.5215 0.317 -0.948 -0.032 73 80 31
26.7057 71.8978 -22.5822 0.655 -0.755 -0.036 72 78 30
28.2425 71.9257 -23.3728 0.679 -0.263 0.685 104 111 60
28.2991 71.9890 -23.4369 0.754 -0.172 0.634 123 130 79
29.0360 71.9775 -23.8020 0.712 -0.600 0.363 95 102 48
29.0876 72.0568 -23.8726 0.709 -0.697 0.113 92 99 45
29.1345 72.1499 -23.9484 0.708 -0.699 0.102 90 97 43
29.2183 72.1437 -23.9872 0.722 -0.619 -0.309 94 101 46
29.2610 72.2494 -24.0680 0.718 -0.623 -0.311 97 105 49
29.4522 72.3981 -24.2479 0.417 -0.834 0.362 99 108 46
29.5622 72.3204 -24.2598 -0.005 -0.987 0.163 99 107 46
29.7738 72.4154 -24.4198 0.169 -0.854 -0.492 108 115 61
29.8930 72.5423 -24.5511 0.096 -0.901 -0.424 109 116 65
30.0462 72.5738 -24.6461 0.097 -0.995 -0.014 101 107 57
30.2052 72.5894 -24.7350 0.440 -0.896 0.050 91 97 47
30.3616 72.6125 -24.8268 0.774 -0.300 0.559 90 96 46
30.4159 72.6946 -24.9002 0.726 -0.229 0.648 86 93 43
30.6196 73.0724 -25.2150 0.735 -0.408 0.541 73 75 35
30.8961 73.2422 -25.4497 0.543 -0.820 0.180 73 75 34
31.0414 73.3078 -25.5598 0.606 -0.788 -0.105 74 82 28
31.1095 73.3552 -25.6207 0.603 -0.794 -0.084 74 81 26
31.2695 73.1137 -25.5659 -0.235 -0.840 0.489 80 88 33
31.3588 73.0933 -25.5995 -0.082 -0.268 0.960 89 96 41
31.4576 73.0422 -25.6206 -0.091 -0.271 0.958 100 107 52
39.4122 72.4307 -29.2887 0.194 -0.960 0.200 128 136 76
39.4971 72.3960 -29.3121 -0.320 -0.895 0.309 126 135 73
39.6978 72.0964 -29.2452 -0.585 -0.766 -0.266 119 128 62
11.7185 73.1086 -15.8221 -0.188 -0.903 0.387 73 88 45
11.8387 73.0635 -15.8573 -0.133 -0.926 0.353 71 84 42
11.9594 73.0175 -15.8922 -0.148 -0.925 0.349 82 94 54
12.0926 72.9543 -15.9238 -0.203 -0.883 0.423 99 110 71
13.8053 71.7754 -16.1227 -0.228 -0.897 0.380 106 119 66
13.9100 71.7466 -16.1592 -0.210 -0.912 0.352 103 116 63
19.1992 72.1022 -19.0262 -0.043 -0.967 0.251 53 60 31
19.3001 72.0727 -19.0604 -0.036 -0.966 0.258 57 63 37
19.3915 72.0591 -19.0989 -0.036 -0.966 0.258 67 73 45
19.6381 71.7821 -19.0671 0.349 0.028 0.937 73 80 50
19.7991 71.6489 -19.0732 0.301 0.170 0.938 73 80 48
20.0159 71.5603 -19.1325 0.296 0.169 0.940 74 81 48
20.1314 71.5034 -19.1587 0.296 0.169 0.940 67 74 39
20.2359 71.4650 -19.1897 0.284 0.166 0.944 62 70 31
20.3538 71.4033 -19.2143 0.284 0.166 0.944 61 69 27
20.4770 71.3317 -19.2361 0.265 0.166 0.950 63 72 27
22.1591 71.2432 -20.0342 -0.032 -0.992 -0.122 135 144 91
22.4397 71.1748 -20.1371 -0.023 -0.927 0.373 143 152 99
22.5359 71.1465 -20.1697 -0.030 -0.952 0.304 147 156 103
23.2709 71.1364 -20.5346 0.075 -0.913 0.402 108 116 56
23.3517 71.1367 -20.5755 0.172 -0.756 0.631 109 117 59
23.7800 71.0900 -20.7650 0.181 -0.951 0.249 99 107 49
23.8587 71.0940 -20.8070 0.181 -0.951 0.249 98 106 47
23.9380 71.0971 -20.8487 0.147 -0.960 0.237 103 111 53
24.0172 71.1003 -20.8904 0.161 -0.955 0.248 114 121 66
24.6954 70.3763 -20.8243 -0.085 -0.958 -0.272 188 195 142
24.7837 70.3581 -20.8585 -0.018 -0.986 -0.163 185 192 139
25.8105 70.7084 -21.5736 0.252 -0.843 0.476 86 93 41
25.8899 70.7093 -21.6141 0.252 -0.843 0.476 87 94 41
26.2914 70.7025 -21.8128 -0.114 -0.847 -0.520 75 80 38
26.3685 70.7082 -21.8548 -0.140 -0.851 -0.507 77 83 40
26.9678 71.3530 -22.5204 -0.016 -0.994 -0.111 93 100 46
27.0616 71.3221 -22.5503 0.015 -0.997 -0.072 97 104 49
27.9731 71.4570 -23.0858 0.793 -0.560 0.239 128 134 72
28.7549 71.9408 -23.7527 0.221 -0.708 0.671 85 92 40
28.8625 71.8718 -23.7680 0.400 -0.809 0.432 93 100 46
28.9342 71.8970 -23.8184 0.697 -0.699 0.157 104 111 57
28.9979 71.9435 -23.8767 0.713 -0.692 0.115 110 117 63
29.1289 72.0283 -23.9905 0.672 -0.728 0.131 103 110 56
29.2006 72.0543 -24.0414 0.761 -0.637 0.122 102 109 55
29.2435 72.1589 -24.1219 0.707 -0.626 -0.330 104 111 57
30.7472 73.0356 -25.3742 0.613 -0.579 0.538 80 83 39
30.8166 73.0770 -25.4324 0.617 -0.548 0.566 84 87 43
30.8896 73.1073 -25.4864 0.630 -0.534 0.564 90 93 49
31.1086 73.2009 -25.6495 0.830 -0.419 0.367 106 114 57
31.1767 73.2481 -25.7104 0.807 -0.389 0.445 111 119 62
39.4553 72.3896 -29.4002 -0.331 -0.889 0.316 126 135 72
11.6756 73.0772 -15.9010 -0.187 -0.895 0.404 64 78 42
11.7926 73.0365 -15.9370 -0.187 -0.895 0.404 62 77 40
11.9019 73.0060 -15.9748 -0.322 -0.760 0.565 80 92 52
13.8331 71.7653 -16.2457 -0.303 -0.780 0.548 103 115 65
17.4864 72.4699 -18.4859 0.243 -0.625 0.742 39 44 24
18.3431 72.1745 -18.7504 -0.558 -0.764 0.323 45 51 24
18.9764 72.0961 -19.0253 -0.155 -0.988 0.017 56 62 26
19.5551 71.5442 -19.0045 0.326 0.026 0.945 72 77 43
19.6552 71.5145 -19.0381 0.326 0.026 0.945 70 76 40
19.7004 71.5773 -19.0965 0.351 0.029 0.936 66 72 34
19.7886 71.5678 -19.1355 0.212 0.034 0.977 66 72 31
19.3062 73.8599 -20.1900 -0.689 -0.722 0.057 91 100 45
21.2638 71.1401 -19.6369 0.337 -0.940 -0.054 105 115 58
21.6088 71.2526 -19.8745 0.294 -0.910 0.291 118 127 71
21.9336 71.2552 -20.0397 -0.009 -0.884 0.467 140 149 94
22.0228 71.2410 -20.0766 -0.083 -0.921 0.381 141 150 95
23.5156 71.0255 -20.7070 0.360 -0.884 0.297 111 118 64
23.5957 71.0269 -20.7481 0.163 -0.957 0.241 121 128 74
23.6691 71.0416 -20.7934 0.152 -0.955 0.253 130 137 84
23.7400 71.0612 -20.8403 0.162 -0.954 0.252 144 151 97
23.8112 71.0801 -20.8869 0.241 -0.948 0.210 155 163 108
23.8963 71.0716 -20.9250 0.167 -0.957 0.236 165 172 118
23.9748 71.0764 -20.9672 0.252 -0.926 0.282 166 174 117
24.6278 70.4056 -20.9166 -0.097 -0.958 -0.269 125 133 76
24.7227 70.3743 -20.9467 -0.074 -0.989 -0.127 109 117 60
24.8026 70.3734 -20.9864 -0.074 -0.989 -0.127 87 95 38
24.8804 70.3767 -21.0275 -0.085 -0.987 -0.134 80 88 32
26.0710 71.6166 -22.3295 -0.034 -0.984 -0.177 76 83 34
27.7703 71.4325 -23.0818 0.303 -0.046 0.952 212 218 154
27.8552 71.4221 -23.1187 0.338 -0.061 0.939 209 215 151
27.9438 71.4026 -23.1523 0.788 -0.561 0.254 189 195 131
28.2877 71.7564 -23.5259 0.769 -0.621 0.155 98 105 49
28.3335 71.8466 -23.6001 0.773 -0.618 0.141 95 102 47
28.4000 71.8846 -23.6551 0.378 -0.893 0.246 101 108 54
28.4688 71.9168 -23.7080 0.341 -0.915 0.214 115 122 68
28.5552 71.9040 -23.7443 0.240 -0.835 0.496 109 116 62
28.6315 71.9172 -23.7903 0.215 -0.781 0.586 107 114 60
28.7183 71.9030 -23.8260 0.148 -0.856 0.496 109 116 62
28.8129 71.8682 -23.8539 0.118 -0.841 0.528 102 109 57
28.9907 71.8279 -23.9207 0.759 -0.370 0.536 104 111 59
29.0367 71.9214 -23.9968 0.680 -0.713 0.171 115 122 70
29.1024 71.9631 -24.0536 0.686 -0.714 0.143 127 134 82
29.1540 72.0432 -24.1249 0.738 -0.627 -0.248 125 132 80
29.2032 72.1304 -24.1990 0.738 -0.627 -0.248 119 126 74
29.2710 72.1677 -24.2544 0.383 -0.923 -0.019 112 119 66
29.5476 72.3065 -24.4724 0.436 -0.900 -0.002 90 97 45
29.6164 72.3430 -24.5277 0.441 -0.898 0.009 87 94 43
30.2629 72.3678 -24.8676 0.640 -0.316 0.700 67 73 31
30.3900 72.4752 -24.9925 0.902 -0.418 0.108 69 74 33
39.5154 72.2262 -29.4508 0.322 -0.936 0.142 127 136 72
39.5952 72.2268 -29.4913 0.322 -0.936 0.143 126 135 71
39.8703 71.9576 -29.4776 -0.400 -0.885 -0.236 117 123 63
11.2580 73.3133 -15.9433 -0.313 -0.844 0.436 63 78 39
11.5591 73.1441 -15.9988 -0.338 -0.778 0.530 58 72 38
13.6495 72.6438 -16.7676 -0.634 -0.610 0.475 23 30 14
16.0893 72.8295 -18.1026 -0.751 -0.547 0.371 65 74 30
17.3901 72.3917 -18.5091 0.360 -0.519 0.775 41 46 23
17.4569 72.4199 -18.5587 0.430 -0.538 0.725 40 45 23
17.5810 72.3567 -18.5853 0.303 -0.566 0.767 39 44 22
19.2024 71.7595 -19.0628 0.465 -0.130 0.876 51 57 19
19.2755 71.7761 -19.1090 0.402 -0.175 0.899 59 65 27
20.7548 71.0754 -19.4560 -0.043 -0.990 0.134 99 109 49
20.9090 71.0907 -19.5424 -0.072 -0.997 0.035 105 115 55
23.4073 70.9724 -20.7339 0.360 -0.884 0.297 152 159 107
23.4806 70.9871 -20.7792 0.360 -0.884 0.297 153 160 108
23.5539 71.0017 -20.8245 0.360 -0.884 0.297 150 157 106
23.6205 71.0296 -20.8739 0.418 -0.847 0.327 144 150 100
23.6986 71.0350 -20.9163 0.399 -0.806 0.437 125 131 81
25.4495 71.4358 -22.0264 -0.082 -0.940 -0.331 74 83 18
25.5160 71.4677 -22.0781 -0.080 -0.947 -0.312 79 88 23
25.5761 71.5138 -22.1346 -0.096 -0.935 -0.342 82 90 29
27.7871 71.2657 -23.1076 0.761 -0.529 0.375 150 157 90
27.8492 71.3106 -23.1644 0.771 -0.585 0.253 125 132 65
28.2617 71.6922 -23.5892 0.767 -0.621 0.160 113 121 64
28.3163 71.7595 -23.6550 0.769 -0.621 0.155 109 117 60
28.4346 71.6651 -23.6609 0.138 -0.774 0.618 103 111 54
28.5211 71.6509 -23.6965 0.034 -0.817 0.575 107 115 58
28.6124 71.6245 -23.7274 0.080 -0.809 0.583 110 118 61
28.6775 71.6654 -23.7835 0.232 -0.906 0.355 118 126 69
28.8687 71.5889 -23.8364 0.405 -0.897 0.176 136 143 91
28.9336 71.6308 -23.8929 0.557 -0.819 0.141 137 144 93
29.9978 72.2797 -24.7981 0.074 -0.837 0.543 60 66 20
39.5573 72.1935 -29.5658 0.303 -0.931 0.204 129 137 76
39.9052 71.9752 -29.6170 -0.376 -0.899 -0.226 114 119 61
11.1036 73.3133 -15.9847 0.736 -0.577 0.353 60 73 33
11.2195 73.2754 -16.0215 -0.291 -0.927 0.237 56 70 33
12.0505 72.7449 -16.1371 -0.506 -0.668 0.546 98 110 71
13.5921 72.6338 -16.8503 -0.557 -0.674 0.486 38 46 27
15.9540 72.9405 -18.2152 -0.754 -0.551 0.357 72 81 36
17.4551 72.3260 -18.6204 0.432 -0.544 0.719 43 48 25
17.5517 72.3065 -18.6579 0.462 -0.571 0.679 40 45 23
18.5981 71.9723 -18.9942 -0.187 -0.982 0.011 57 63 26
19.1439 71.6209 -19.0684 -0.625 -0.642 0.444 69 75 36
20.5638 71.0248 -19.4432 0.257 -0.952 -0.165 90 100 39
20.6226 71.0642 -19.4954 0.044 -0.998 0.049 94 104 43
23.4315 70.9758 -20.8599 0.346 -0.842 0.413 88 94 47
23.5074 70.9855 -20.9036 0.346 -0.842 0.413 78 84 37
23.5769 71.0079 -20.9514 0.451 -0.825 0.340 73 79 32
23.6327 71.0573 -21.0077 0.229 -0.969 0.095 72 78 32
23.7132 71.0581 -21.0488 0.230 -0.967 0.110 77 83 37
23.7900 71.0664 -21.0921 0.117 -0.984 0.136 76 82 37
23.8833 71.0418 -21.1251 0.108 -0.987 0.120 77 83 38
23.9379 71.0944 -21.1826 0.056 -0.996 0.076 81 87 43
24.0181 71.0958 -21.2239 0.056 -0.996 0.076 84 90 44
25.6237 71.6494 -22.3488 0.082 -0.882 0.464 119 126 71
25.7053 71.6493 -22.3899 0.135 -0.863 0.487 123 130 75
25.7813 71.6618 -22.4353 0.053 -0.795 0.604 119 126 71
25.8300 71.7349 -22.5016 0.380 -0.414 0.827 117 124 70
25.9273 71.7000 -22.5307 0.389 -0.401 0.829 113 120 66
26.0108 71.6959 -22.5704 0.428 -0.364 0.827 104 112 57
27.8363 71.4139 -23.3289 -0.065 -0.961 -0.268 102 108 44
28.1157 71.5229 -23.5319 0.537 -0.831 -0.143 113 119 59
28.1883 71.5437 -23.5804 0.527 -0.836 -0.151 114 121 66
28.2580 71.5720 -23.6316 0.490 -0.870 -0.061 120 127 74
28.3257 71.6057 -23.6850 0.334 -0.933 -0.131 130 137 84
28.7104 71.6579 -23.9086 -0.188 -0.784 -0.591 104 111 58
28.9771 71.5957 -24.0074 0.736 -0.675 0.052 85 92 41
29.1697 71.9465 -24.3048 0.941 -0.166 0.296 67 74 23
29.4645 72.2553 -24.6297 0.506 -0.785 0.356 65 71 23
29.5377 72.2796 -24.6804 0.506 -0.785 0.356 66 73 24
39.5160 72.1837 -29.6521 0.319 -0.934 0.160 125 133 74
39.5849 72.2641 -29.7327 -0.092 -0.994 0.060 128 133 75
10.4874 73.2309 -15.7466 0.558 -0.766 -0.319 69 85 45
10.5270 73.2931 -15.8022 0.587 -0.754 -0.296 67 83 45
10.5980 73.3146 -15.8503 0.627 -0.775 0.071 64 80 43
10.7171 73.3879 -15.9523 0.464 -0.858 0.221 57 73 34
10.7973 73.3977 -15.9983 0.461 -0.870 0.172 54 70 30
10.8669 73.4213 -16.0470 0.556 -0.817 0.149 53 67 32
11.1591 73.2666 -16.1053 -0.281 -0.946 0.162 51 66 32
13.5438 72.6111 -16.9303 -0.561 -0.684 0.466 62 70 45
17.4526 72.2334 -18.6821 0.529 -0.658 0.537 46 52 26
17.5410 72.2268 -18.7229 0.486 -0.670 0.561 42 48 22
18.4469 71.9851 -19.0404 -0.198 -0.980 0.006 57 64 31
19.9332 70.8908 -19.1612 -0.279 -0.891 0.358 83 91 40
23.5378 70.0463 -20.4921 -0.139 -0.782 0.608 80 86 38
23.3686 70.9916 -20.9491 0.277 -0.958 0.068 90 96 52
23.5134 71.0251 -21.0413 0.199 -0.978 0.053 86 92 49
23.5968 71.0203 -21.0805 0.077 -0.994 0.079 82 87 45
24.0444 71.0963 -21.3496 0.163 -0.924 0.345 53 58 18
24.1214 71.1044 -21.3930 0.035 -0.982 0.185 51 56 15
24.6840 70.4521 -21.3021 -0.006 -0.977 -0.211 64 68 31
25.3761 70.8442 -21.8756 0.108 -0.909 0.402 109 117 60
25.4699 70.8154 -21.9063 0.160 -0.899 0.409 113 121 63
25.5529 70.8093 -21.9446 0.175 -0.895 0.411 116 124 65
25.3979 71.6684 -22.3594 0.372 -0.410 0.833 116 123 70
26.8873 71.0562 -22.7582 0.440 -0.892 0.102 192 199 144
26.9806 71.0264 -22.7881 0.455 -0.879 0.144 167 174 119
27.0519 71.0472 -22.8360 0.409 -0.908 0.095 132 137 79
27.1173 71.0822 -22.8890 0.427 -0.893 0.140 118 123 65
27.1816 71.1199 -22.9430 0.434 -0.891 0.135 107 112 54
27.2483 71.1525 -22.9953 0.459 -0.880 0.117 102 107 49
27.5354 71.2358 -23.1876 0.363 -0.924 -0.118 117 122 64
27.6100 71.2502 -23.2335 0.316 -0.941 -0.120 118 123 64
27.6832 71.2682 -23.2806 0.172 -0.903 -0.393 116 121 62
27.7588 71.2803 -23.3257 0.209 -0.934 -0.289 118 123 64
27.8266 71.3116 -23.3778 0.209 -0.934 -0.289 121 126 67
27.8834 71.3703 -23.4400 0.326 -0.891 -0.317 127 133 74
27.9518 71.4006 -23.4919 0.451 -0.823 -0.345 138 143 84
28.0981 71.4386 -23.5874 0.320 -0.947 0.014 145 150 93
28.1681 71.4657 -23.6381 0.276 -0.960 0.045 139 146 94
28.2394 71.4898 -23.6879 0.469 -0.876 -0.111 129 136 86
28.2975 71.5472 -23.7501 0.477 -0.853 -0.209 115 122 71
28.3559 71.6046 -23.8124 0.802 -0.512 0.308 102 108 59
28.4205 71.6464 -23.8689 0.691 -0.602 0.400 99 106 56
30.2644 72.1645 -25.0947 0.102 -0.091 0.991 103 111 52
31.0172 70.9079 -24.7530 0.938 -0.026 0.345 111 117 55
39.6292 72.2135 -29.8390 0.179 -0.899 0.400 131 136 80
39.7164 72.1598 -29.8521 0.001 -0.993 0.121 130 135 79
13.4794 72.6108 -17.0152 -0.579 -0.674 0.458 70 79 53
15.8332 72.9333 -18.3861 -0.768 -0.557 0.316 85 93 52
17.4254 72.1802 -18.7538 0.530 -0.666 0.525 50 56 28
17.5238 72.1577 -18.7904 0.486 -0.670 0.561 45 51 25
18.6494 71.9666 -19.2470 -0.437 -0.611 0.660 64 71 29
18.8075 71.8439 -19.2559 -0.437 -0.611 0.660 71 78 36
19.5836 70.9693 -19.1428 -0.302 -0.477 0.826 71 79 32
19.6493 70.9960 -19.1912 -0.099 -0.930 0.354 71 79 30
19.7725 70.9267 -19.2133 -0.230 -0.955 0.188 82 90 39
19.8747 70.8920 -19.2448 -0.318 -0.887 0.336 92 101 49
23.6868 69.8089 -20.5400 -0.483 -0.676 0.556 84 90 48
23.8680 69.7634 -20.6051 -0.346 -0.823 0.451 72 77 37
26.4749 70.9613 -22.6077 0.650 -0.707 0.278 202 210 151
26.5478 70.9781 -22.6541 0.419 -0.882 0.215 179 187 128
26.6176 71.0021 -22.7031 0.279 -0.931 0.237 146 154 95
26.6930 71.0134 -22.7476 0.279 -0.931 0.237 124 132 73
26.7685 71.0247 -22.7921 0.279 -0.931 0.237 105 113 54
26.9340 71.0139 -22.8692 0.415 -0.908 -0.055 104 112 53
27.0204 70.9999 -22.9046 0.408 -0.912 -0.026 105 110 52
27.0871 71.0315 -22.9564 0.416 -0.909 -0.020 113 118 60
27.1540 71.0632 -23.0083 0.416 -0.909 -0.020 113 118 60
27.2422 71.0448 -23.0421 0.346 -0.938 -0.004 106 111 53
27.3153 71.0619 -23.0888 0.286 -0.958 0.001 104 109 51
27.6645 71.1886 -23.3376 0.170 -0.974 -0.148 147 152 97
27.7306 71.2236 -23.3911 0.131 -0.980 -0.151 156 161 106
27.7816 71.2957 -23.4583 0.156 -0.972 -0.178 158 163 108
28.0646 71.3943 -23.6576 0.386 -0.917 -0.097 101 105 53
28.1361 71.4174 -23.7069 0.583 -0.774 0.245 85 91 44
28.1957 71.4706 -23.7676 0.789 -0.546 0.282 79 85 39
28.2429 71.5556 -23.8403 0.804 -0.520 0.287 76 82 36
28.3163 71.5749 -23.8884 0.804 -0.517 0.293 75 81 36
28.3896 71.5948 -23.9367 0.647 -0.542 0.537 69 75 30
28.5526 71.5926 -24.0175 -0.094 -0.718 0.690 64 70 25
28.6332 71.5938 -24.0588 0.001 -0.800 0.600 63 69 24
28.7642 71.4644 -24.0502 0.557 -0.800 0.224 69 75 29
28.8356 71.4887 -24.1002 0.587 -0.778 0.222 67 73 27
29.6897 71.8056 -24.7127 0.654 -0.528 0.541 98 106 48
39.5938 72.1613 -29.9041 0.160 -0.897 0.412 132 137 81
39.6724 72.1710 -29.9493 0.002 -0.927 0.374 133 138 82
13.4326 72.5859 -17.0949 -0.560 -0.678 0.476 81 89 62
15.6858 73.0613 -18.5041 -0.765 -0.547 0.340 87 95 55
18.3757 72.0423 -19.2684 -0.175 -0.646 0.743 63 69 34
18.8248 71.5813 -19.2277 -0.582 -0.781 0.228 59 66 24
19.4296 71.1284 -19.2700 -0.293 -0.734 0.612 94 102 54
19.5961 70.9878 -19.2725 0.028 -0.714 0.700 98 106 56
23.2352 69.9638 -20.5116 0.656 -0.741 0.146 82 88 41
23.3526 70.0419 -20.6160 0.401 -0.915 -0.036 67 72 30
23.4223 70.0604 -20.6617 0.243 -0.963 -0.116 65 70 29
23.5675 69.9343 -20.6619 -0.408 -0.835 -0.370 58 63 23
24.2733 70.5808 -21.3912 0.577 -0.762 -0.294 67 73 27
25.0016 71.4121 -22.2388 0.301 -0.671 0.678 103 110 57
25.3130 71.4431 -22.4135 0.309 -0.905 0.294 217 221 182
25.3892 71.4546 -22.4585 0.309 -0.905 0.294 231 234 200
25.4654 71.4660 -22.5035 0.309 -0.905 0.294 241 244 216
26.4962 70.9764 -22.7390 0.018 -0.996 -0.084 113 122 59
26.6449 71.0041 -22.8299 0.023 -0.995 -0.101 118 127 64
26.7428 70.9641 -22.8560 -0.044 -0.998 0.046 118 127 64
27.6027 71.2133 -23.4330 0.493 -0.840 -0.224 134 138 88
27.6712 71.2427 -23.4845 0.474 -0.873 0.119 105 109 59
28.1095 71.3558 -23.7706 0.571 -0.776 0.270 68 74 30
28.1857 71.3672 -23.8155 0.618 -0.751 0.232 67 73 30
28.2411 71.4309 -23.8803 0.753 -0.657 -0.012 67 72 29
28.3177 71.4419 -23.9252 0.732 -0.681 -0.013 65 71 28
28.3626 71.5331 -24.0006 0.369 -0.915 -0.163 63 69 26
28.4961 71.3994 -23.9904 0.033 -0.838 0.545 66 71 29
28.5737 71.4077 -24.0342 -0.003 -0.826 0.563 69 74 32
28.7395 71.3966 -24.1113 0.548 -0.525 0.651 76 82 35
28.8297 71.3722 -24.1426 0.584 -0.501 0.638 78 84 37
28.9241 71.3363 -24.1693 0.597 -0.490 0.636 81 87 40
29.2106 71.6469 -24.4933 0.910 -0.238 0.341 97 104 56
29.2603 71.7312 -24.5670 0.910 -0.238 0.341 101 108 57
29.3756 71.8590 -24.6991 0.222 -0.608 0.762 100 108 53
29.4498 71.8786 -24.7478 0.223 -0.716 0.662 101 108 52
29.5256 71.8941 -24.7949 -0.001 -0.768 0.641 101 109 51
29.6286 71.8349 -24.8124 -0.251 -0.805 0.538 102 110 51
29.6920 71.8845 -24.8731 -0.144 -0.808 0.571 103 112 50
29.7748 71.8806 -24.9125 -0.142 -0.819 0.556 105 113 52
29.7370 72.9117 -25.4901 -0.148 -0.986 -0.071 109 116 62
39.6210 72.2355 -30.0738 -0.003 -0.909 0.417 131 136 82
40.0629 71.9119 -30.1090 -0.128 -0.949 0.287 116 121 66
40.1395 71.9350 -30.1609 0.071 -0.944 0.322 112 117 59
40.2136 71.9779 -30.2230 0.036 -0.887 0.460 111 116 58
12.0303 72.4194 -16.4103 -0.581 -0.747 0.323 103 116 69
13.3719 72.5802 -17.1789 -0.547 -0.662 0.513 93 103 75
15.5951 73.1029 -18.6013 -0.716 -0.574 0.397 88 99 57
18.1403 71.9189 -19.1940 0.739 -0.645 0.195 44 47 26
18.5829 71.7434 -19.3147 -0.557 -0.757 0.343 53 59 23
18.7419 71.6197 -19.3229 -0.577 -0.782 0.238 54 60 23
18.8958 71.5036 -19.3329 -0.593 -0.565 0.574 78 84 47
22.2938 70.8708 -20.6750 0.085 -0.994 -0.069 73 80 37
22.3694 70.8810 -20.7189 0.026 -0.962 -0.271 67 74 32
23.1987 69.9302 -20.5836 0.630 -0.727 0.274 55 61 23
23.2600 69.9641 -20.6342 0.630 -0.727 0.274 50 56 19
23.3072 70.0251 -20.6934 0.401 -0.915 -0.036 48 54 15
23.3800 70.0378 -20.7374 0.353 -0.934 -0.052 50 56 17
23.4984 69.9632 -20.7537 -0.307 -0.908 -0.285 57 64 23
23.5435 70.0287 -20.8144 -0.382 -0.843 -0.380 57 64 21
24.7741 70.5942 -21.7623 0.246 -0.247 0.937 90 96 37
25.2010 71.3934 -22.4416 0.270 -0.914 0.302 230 234 184
25.2785 71.4018 -22.4855 0.270 -0.914 0.302 220 223 174
25.3524 71.4181 -22.5321 0.309 -0.905 0.294 202 206 155
25.4286 71.4295 -22.5771 0.309 -0.905 0.294 172 178 130
25.5030 71.4449 -22.6235 0.316 -0.899 0.302 151 157 107
25.9361 70.6781 -22.3958 0.431 -0.815 -0.386 134 142 88
26.1231 70.7955 -22.5581 0.070 -0.997 -0.022 114 123 60
26.1857 70.8345 -22.6123 0.378 -0.926 0.005 111 120 55
26.3804 70.9380 -22.7704 0.566 -0.820 -0.087 126 133 76
26.4608 70.9383 -22.8110 0.284 -0.956 -0.080 111 118 61
26.5341 70.9542 -22.8572 0.291 -0.956 -0.044 116 124 67
26.6060 70.9736 -22.9046 0.261 -0.965 -0.008 135 143 86
27.0851 70.9817 -23.1504 0.568 -0.819 -0.083 171 178 129
27.1504 71.0169 -23.2037 0.568 -0.818 -0.094 164 170 121
27.2044 71.0791 -23.2670 0.635 -0.771 0.043 138 145 96
27.7848 71.0376 -23.5350 0.300 -0.036 0.953 63 69 22
28.0837 71.2924 -23.8334 0.570 -0.802 0.180 65 71 27
28.1443 71.3426 -23.8931 0.644 -0.696 0.316 68 74 29
28.1914 71.4271 -23.9659 0.735 -0.677 0.026 71 77 30
28.2611 71.4553 -24.0174 0.698 -0.690 0.194 75 81 32
28.4515 71.3830 -24.0712 0.025 -0.853 0.521 89 96 44
28.5407 71.3617 -24.1037 0.020 -0.858 0.514 91 98 46
28.5617 71.5148 -24.2032 -0.322 -0.837 0.443 93 100 48
28.7300 71.2900 -24.1573 0.341 -0.887 0.312 95 102 50
28.8305 71.2386 -24.1780 0.211 -0.910 0.358 96 103 51
28.9254 71.2013 -24.2040 0.223 -0.896 0.384 96 103 51
29.0050 71.2034 -24.2453 0.223 -0.896 0.384 96 103 52
29.1133 71.1300 -24.2572 0.506 -0.714 0.483 100 107 56
29.1304 71.2966 -24.3626 0.664 -0.725 -0.180 100 107 56
29.1861 71.3624 -24.4289 0.669 -0.720 -0.185 100 107 54
29.3471 71.7990 -24.7636 0.228 -0.718 0.658 107 115 56
29.4314 71.7911 -24.8014 0.228 -0.718 0.658 107 115 55
29.4666 71.9169 -24.8923 -0.125 -0.725 0.677 108 116 56
29.5597 72.1100 -25.0514 0.658 -0.685 0.314 109 117 57
29.5902 72.2526 -25.1496 0.655 -0.703 0.278 109 117 57
39.6922 71.9880 -30.0792 0.383 -0.455 0.804 130 138 80
39.9351 71.9595 -30.1848 0.140 -0.857 0.496 126 134 75
40.0266 71.8669 -30.1771 -0.101 -0.925 0.367 123 131 73
40.1067 71.8624 -30.2147 -0.069 -0.932 0.356 116 124 65
40.1883 71.8446 -30.2455 -0.069 -0.932 0.356 110 118 59
11.9459 72.4442 -16.5000 -0.574 -0.751 0.327 110 123 76
15.5363 73.0960 -18.6867 -0.697 -0.583 0.417 90 101 58
18.6711 71.6383 -19.4129 -0.570 -0.749 0.337 53 59 23
20.9618 70.8275 -20.0920 -0.094 -0.987 -0.132 89 96 55
22.2653 70.8204 -20.7436 -0.062 -0.973 -0.221 52 58 22
22.3337 70.8439 -20.7917 -0.065 -0.973 -0.220 46 52 16
23.2362 70.2077 -20.8744 0.480 -0.524 -0.703 60 66 28
23.8979 70.4749 -21.3633 0.652 -0.538 0.534 99 106 55
24.1945 70.5227 -21.5404 0.445 -0.652 0.614 77 84 30
25.3129 70.5284 -22.1064 0.263 -0.905 0.335 196 199 152
25.3937 70.5267 -22.1460 0.323 -0.909 0.264 167 170 121
25.4680 70.5386 -22.1904 0.335 -0.910 0.245 150 154 103
25.5459 70.5431 -22.2321 0.082 -0.969 0.235 126 130 79
25.6204 70.5548 -22.2765 0.191 -0.955 0.227 118 123 69
25.7093 70.5357 -22.3100 0.543 -0.838 -0.044 116 121 67
25.8265 70.6279 -22.4228 0.434 -0.886 -0.165 130 138 82
25.8997 70.6429 -22.4683 0.360 -0.892 -0.275 124 132 75
26.0979 70.7351 -22.6219 0.123 -0.973 -0.196 117 125 66
26.1548 70.7867 -22.6807 0.430 -0.891 -0.147 119 127 68
26.2174 70.8260 -22.7350 0.430 -0.891 -0.147 138 146 89
26.3621 70.8615 -22.8286 0.272 -0.961 0.037 177 184 132
26.4448 70.8564 -22.8672 0.522 -0.853 -0.020 203 210 158
26.5157 70.8776 -22.9153 0.241 -0.971 0.011 222 229 177
26.5730 70.9298 -22.9746 0.194 -0.978 -0.075 217 224 173
27.8629 71.1140 -23.7310 0.303 -0.897 0.321 74 80 34
27.9334 71.1386 -23.7808 0.319 -0.893 0.318 77 83 37
27.9838 71.2129 -23.8495 0.292 -0.925 0.244 79 85 39
28.0290 71.9085 -24.2783 0.402 -0.742 0.537 93 100 48
28.1021 71.9307 -24.3280 0.402 -0.732 0.550 94 101 49
28.8996 70.9295 -24.1449 0.588 -0.629 0.508 100 107 55
28.9661 70.9645 -24.1987 0.466 -0.684 0.561 100 107 55
29.0421 70.9750 -24.2431 0.615 -0.546 0.568 100 107 55
29.1046 71.0211 -24.3014 0.478 -0.777 0.409 103 110 58
29.1698 71.0602 -24.3570 0.475 -0.803 0.361 103 110 56
29.2475 71.0667 -24.3999 0.468 -0.809 0.355 103 110 56
29.1435 72.2107 -25.0153 0.474 -0.206 0.856 109 117 57
29.0770 72.6136 -25.2170 0.755 -0.358 0.549 109 117 57
29.1165 72.7317 -25.3058 -0.199 -0.570 0.797 111 119 59
40.0682 71.8346 -30.2917 -0.300 -0.931 0.208 121 129 70
40.1505 71.8124 -30.3201 0.146 -0.974 0.175 116 124 65
40.2301 71.8108 -30.3593 0.143 -0.973 0.183 112 120 61
40.3090 71.8145 -30.4011 0.143 -0.973 0.183 108 116 57
11.9694 72.3253 -16.5601 -0.636 -0.650 0.416 111 124 77
15.4618 73.1126 -18.7781 -0.692 -0.586 0.422 88 99 56
17.5094 71.9292 -19.1142 -0.218 -0.639 0.738 55 59 30
