ply
format ascii 1.0
element vertex 869
property float x
property float y
property float z
property float nx
property float ny
property float nz
property uchar diffuse_red
property uchar diffuse_green
property uchar diffuse_blue
end_header
-26.9263 98.3626 10.7992 0.515 -0.288 0.808 107 104 49
-22.6716 100.3224 11.0616 0.443 -0.661 0.606 92 90 39
-22.3190 100.5324 11.0833 0.168 -0.769 0.617 27 24 8
-21.6975 100.6678 11.1217 0.074 -0.824 0.561 83 86 45
-21.5462 100.6877 11.1310 0.074 -0.824 0.561 104 109 56
-21.4576 100.5068 11.1365 0.182 -0.795 0.579 106 111 54
-89.8765 122.4386 6.7308 -0.082 -0.642 0.762 107 114 72
-89.6540 122.3385 6.7447 -0.191 -0.626 0.757 101 108 68
-87.7610 122.1558 6.8619 0.102 -0.757 0.645 82 90 50
-87.5916 122.1888 6.8723 0.145 -0.786 0.601 87 95 52
-87.4365 122.2595 6.8818 0.207 -0.789 0.578 98 105 60
-76.3187 119.6577 7.5732 0.658 -0.752 -0.041 106 154 164
-76.1541 119.7046 7.5833 0.667 -0.744 -0.038 109 157 164
-36.2194 96.4028 10.0929 0.425 -0.740 0.521 104 105 61
-35.9316 96.4885 10.1105 -0.695 -0.523 0.493 98 98 62
-35.7101 96.1260 10.1249 -0.676 -0.555 0.486 37 37 15
-35.5991 95.9529 10.1320 -0.696 -0.547 0.465 18 18 4
-35.4881 95.7836 10.1392 -0.669 -0.555 0.494 18 19 10
-34.5121 95.9028 10.1993 -0.676 -0.607 0.418 89 87 48
-34.3960 95.7786 10.2067 -0.676 -0.607 0.418 113 109 59
-22.8158 100.2550 10.9135 0.138 -0.684 0.717 102 98 40
-22.6598 100.2933 10.9230 0.103 -0.681 0.725 97 96 45
-22.3465 100.3733 10.9422 0.178 -0.705 0.686 30 28 12
-22.1879 100.4191 10.9519 0.184 -0.783 0.595 23 20 14
-21.7063 100.5715 10.9814 0.074 -0.824 0.561 78 82 45
-21.5551 100.5914 10.9907 0.074 -0.824 0.561 105 112 60
-89.8516 122.3524 6.5563 -0.479 -0.567 0.670 107 114 72
-89.5534 122.0638 6.5757 -0.504 -0.569 0.650 102 108 69
-89.2601 121.7848 6.5948 -0.477 -0.571 0.669 94 100 65
-88.9709 121.5136 6.6137 -0.018 -0.433 0.901 88 94 58
-87.6837 121.9315 6.6917 0.225 -0.844 0.487 82 90 49
-87.5208 121.9806 6.7016 0.225 -0.844 0.487 87 96 52
-87.3612 122.0390 6.7112 0.205 -0.836 0.510 97 105 59
-36.2331 96.2125 9.9599 0.413 -0.768 0.489 110 109 62
-35.9355 96.3683 9.9777 -0.695 -0.523 0.493 100 98 59
-35.7140 96.0084 9.9926 -0.688 -0.530 0.496 45 45 20
-35.6018 95.8441 10.0001 -0.696 -0.547 0.465 24 25 7
-35.4931 95.6605 10.0075 -0.681 -0.540 0.494 15 17 6
-35.4246 95.2221 10.0133 0.099 -0.648 0.755 14 17 10
-34.5101 95.8284 10.0676 -0.672 -0.606 0.426 84 82 47
-34.3967 95.6888 10.0751 -0.676 -0.607 0.418 109 105 59
-22.8407 100.1028 10.7731 0.138 -0.684 0.717 102 99 42
-22.6839 100.1444 10.7826 0.138 -0.684 0.717 99 98 47
-22.3646 100.2453 10.8020 0.202 -0.741 0.641 33 32 15
-22.2057 100.2924 10.8116 0.205 -0.787 0.582 22 22 15
-21.7151 100.4753 10.8413 0.074 -0.824 0.561 74 79 45
-21.5640 100.4952 10.8505 0.074 -0.824 0.561 102 109 59
-89.8120 122.2298 6.3831 -0.550 -0.538 0.639 107 114 72
-89.5007 121.9083 6.4040 -0.535 -0.536 0.653 101 108 68
-88.8351 121.1486 6.4490 -0.030 -0.407 0.913 88 94 58
-87.6522 121.8266 6.5185 0.077 -0.804 0.590 82 90 49
-87.4667 121.8164 6.5300 0.085 -0.765 0.638 86 95 51
-87.2957 121.8441 6.5405 0.085 -0.765 0.638 97 104 59
-80.7347 116.8760 6.9715 -0.078 -0.654 0.753 90 132 142
-36.2343 96.1093 9.8277 0.444 -0.746 0.496 113 112 63
-35.9397 96.2457 9.8451 -0.666 -0.515 0.540 101 98 57
-35.7179 95.8901 9.8607 -0.688 -0.530 0.496 53 53 25
-35.6054 95.7294 9.8685 -0.686 -0.527 0.502 28 30 10
-35.5708 95.0637 9.8741 -0.615 -0.603 0.509 15 18 4
-35.4087 95.2352 9.8832 0.246 -0.601 0.760 13 17 8
-34.8783 96.0032 9.9119 -0.438 -0.692 0.574 17 22 18
-34.7583 95.8974 9.9199 -0.439 -0.693 0.572 13 16 6
-34.6332 95.8248 9.9280 -0.439 -0.693 0.572 35 36 17
-34.5088 95.7498 9.9361 -0.435 -0.698 0.569 81 80 47
-34.3925 95.6278 9.9439 -0.609 -0.598 0.521 105 103 59
-22.8655 99.9509 10.6331 0.171 -0.695 0.699 101 100 40
-22.7015 100.0172 10.6429 0.091 -0.678 0.730 100 100 48
-22.3774 100.1351 10.6623 0.270 -0.723 0.636 37 38 20
-22.0567 100.2388 10.6815 0.304 -0.741 0.598 15 14 10
-21.7287 100.3638 10.7011 0.040 -0.811 0.584 67 73 42
-21.5816 100.3711 10.7102 0.039 -0.815 0.577 100 107 58
-89.7644 122.0875 6.2107 -0.768 -0.559 0.311 103 110 68
-89.4020 121.6384 6.2362 -0.551 -0.563 0.616 100 107 67
-88.7126 120.8168 6.2844 -0.018 -0.433 0.901 94 100 64
-87.6042 121.6788 6.3469 0.058 -0.742 0.668 83 91 51
-87.4315 121.7017 6.3574 0.058 -0.742 0.668 86 95 52
-87.0930 121.7662 6.3779 0.081 -0.723 0.686 101 109 62
-80.6706 116.6659 6.8096 -0.123 -0.680 0.723 91 132 142
-35.7174 95.8024 9.7291 -0.708 -0.512 0.486 57 57 27
-35.6067 95.6300 9.7371 -0.688 -0.530 0.496 27 30 7
-35.5735 94.9565 9.7438 -0.615 -0.603 0.509 14 19 5
-35.4143 95.1102 9.7526 0.181 -0.629 0.756 11 16 8
-34.5139 95.6327 9.8046 -0.610 -0.602 0.515 80 80 46
-34.3966 95.5176 9.8126 -0.609 -0.598 0.521 106 103 60
-22.8753 99.8497 10.4941 0.279 -0.726 0.629 102 101 40
-22.3853 100.0407 10.5230 0.294 -0.708 0.642 41 44 19
-22.0800 100.0951 10.5415 0.321 -0.687 0.652 14 13 7
-21.7348 100.2767 10.5615 -0.418 -0.621 0.663 63 67 41
-21.6129 100.2033 10.5696 -0.418 -0.621 0.663 100 106 60
-89.3453 121.4729 6.0656 -0.754 -0.570 0.325 100 107 67
-88.9742 120.9976 6.0926 -0.754 -0.570 0.325 97 103 68
-87.3602 121.4923 6.1880 -0.098 -0.642 0.761 86 95 53
-86.9931 121.4798 6.2108 0.085 -0.595 0.799 101 109 62
-80.6156 116.4834 6.6474 -0.123 -0.680 0.723 96 139 146
-35.8345 95.8430 9.5893 -0.714 -0.513 0.476 84 80 45
-35.7247 95.6623 9.5976 -0.695 -0.548 0.466 62 61 31
-35.6092 95.5231 9.6059 -0.695 -0.548 0.466 27 29 7
-35.5824 94.8096 9.6137 -0.621 -0.603 0.500 14 18 3
-35.4316 94.9098 9.6221 0.120 -0.661 0.740 11 17 7
-34.5130 95.5519 9.6734 -0.615 -0.594 0.518 81 81 48
-28.9355 96.6378 10.0084 -0.568 -0.764 -0.306 111 105 55
-21.9203 100.0769 10.4120 0.204 -0.708 0.676 18 18 10
-21.7531 100.1501 10.4217 -0.408 -0.607 0.681 55 59 35
-21.6310 100.0781 10.4298 -0.414 -0.621 0.666 99 105 61
-89.8443 122.2373 5.8516 -0.681 -0.631 0.371 103 110 68
-89.3534 121.4693 5.8898 -0.755 -0.564 0.333 100 107 67
-87.2422 121.1612 6.0233 -0.067 -0.599 0.798 86 95 53
-87.0060 121.0153 6.0394 0.051 -0.554 0.831 98 105 61
-86.8888 121.1822 6.0449 0.076 -0.590 0.804 101 109 62
-80.5673 116.3209 6.4851 -0.024 -0.699 0.715 94 138 145
-81.6662 121.7947 6.3610 -0.678 -0.514 0.525 123 173 180
-36.2917 95.4263 9.4329 0.371 -0.734 0.570 110 110 60
-36.1125 95.7214 9.4409 0.340 -0.677 0.653 103 100 56
-35.6658 95.0600 9.4753 0.347 -0.796 0.496 29 32 9
-35.5177 95.1408 9.4836 0.526 -0.687 0.502 16 20 5
-34.5113 95.4761 9.5423 -0.655 -0.592 0.470 72 72 41
-22.2543 99.8616 10.2540 0.248 -0.779 0.576 25 26 11
-22.1174 99.8380 10.2627 0.154 -0.757 0.636 14 14 6
-21.9443 99.9319 10.2724 0.173 -0.744 0.645 19 18 11
-21.7919 99.9578 10.2815 0.168 -0.729 0.664 49 52 32
-21.6541 99.9370 10.2902 -0.359 -0.673 0.647 95 100 61
-21.5189 99.9080 10.2989 -0.116 -0.702 0.702 105 109 56
-88.4013 119.9641 5.7910 0.026 -0.779 0.626 93 101 64
-87.1832 120.9842 5.8540 -0.078 -0.581 0.810 86 95 53
-86.9222 120.7728 5.8727 0.051 -0.554 0.831 98 105 61
-86.8015 120.9294 5.8783 0.034 -0.545 0.838 100 108 61
-80.5173 116.1535 6.3233 -0.024 -0.699 0.715 94 137 144
-81.5708 121.4847 6.1945 -0.693 -0.587 0.417 127 178 185
-36.0459 96.0868 9.3083 0.256 -0.752 0.608 109 105 62
-35.8695 95.4240 9.3271 0.322 -0.760 0.564 92 88 55
-35.6644 94.9796 9.3451 0.347 -0.796 0.496 33 36 13
-35.5145 95.0720 9.3532 0.543 -0.696 0.470 18 22 7
-34.5103 95.3961 9.4114 -0.668 -0.597 0.445 65 64 33
-34.3915 95.2915 9.4199 -0.664 -0.601 0.445 101 97 57
-22.2662 99.7552 10.1151 0.248 -0.779 0.576 29 31 12
-21.9611 99.8101 10.1333 0.208 -0.718 0.665 20 19 13
-21.8107 99.8301 10.1423 0.208 -0.684 0.699 43 45 27
-21.6472 99.8920 10.1517 -0.337 -0.686 0.645 87 91 55
-21.5326 99.7975 10.1599 -0.124 -0.697 0.706 104 108 58
-88.3787 119.8838 5.6204 0.405 -0.860 0.312 92 100 63
-80.4863 116.0428 6.1599 0.257 -0.726 0.638 95 134 137
-81.5040 121.2623 6.0259 -0.742 -0.569 0.354 106 153 155
-36.0479 95.9796 9.1766 0.256 -0.752 0.608 109 105 62
-35.5136 94.9887 9.2231 0.532 -0.683 0.501 17 21 7
-35.3950 94.8794 9.2319 -0.202 -0.789 0.580 11 16 8
-34.7391 95.5782 9.2628 -0.668 -0.594 0.448 15 18 6
-34.2273 94.5772 9.3081 -0.731 -0.515 0.447 110 105 49
-22.4459 99.5699 9.9672 0.246 -0.780 0.576 57 60 23
-22.2759 99.6559 9.9765 0.268 -0.766 0.584 31 33 12
-21.6785 99.7247 10.0125 -0.247 -0.732 0.635 81 84 51
-21.5538 99.6633 10.0210 -0.251 -0.732 0.633 104 107 61
-21.3139 99.5123 10.0379 -0.097 -0.642 0.760 106 106 55
-89.0435 121.0757 5.3879 -0.459 -0.754 0.470 94 101 67
-80.7303 115.7286 5.9829 0.268 -0.710 0.651 109 134 127
-80.6006 115.8530 5.9890 0.266 -0.725 0.635 107 137 133
-80.4489 115.9133 5.9975 0.257 -0.726 0.638 104 140 132
-48.1580 99.8493 8.2367 -0.318 -0.549 0.773 120 137 131
-47.8710 100.1429 8.2500 0.115 -0.370 0.922 118 130 112
-36.2040 95.7554 9.0373 0.281 -0.757 0.589 112 110 62
-36.0455 95.9023 9.0449 0.250 -0.759 0.601 109 105 60
-35.7268 95.2837 9.0740 -0.008 -0.813 0.582 68 67 35
-35.5118 94.9112 9.0930 0.530 -0.685 0.500 18 21 8
-35.3960 94.7843 9.1021 -0.202 -0.789 0.580 12 16 10
-34.2245 94.5100 9.1786 -0.625 -0.639 0.449 111 106 50
-33.0149 95.2102 9.2425 -0.808 -0.589 0.024 116 109 55
-32.8087 94.8610 9.2606 -0.789 -0.604 0.114 115 108 54
-32.7000 94.7206 9.2695 -0.789 -0.604 0.114 115 108 54
-32.5835 94.6229 9.2781 -0.783 -0.614 0.101 115 108 54
-32.4394 94.6690 9.2863 -0.779 -0.453 0.433 117 110 56
-22.2958 99.5231 9.8380 0.221 -0.746 0.628 35 37 12
-21.6936 99.6097 9.8739 -0.247 -0.732 0.635 77 81 50
-21.5688 99.5487 9.8825 -0.251 -0.732 0.633 105 107 64
-89.4945 121.2734 5.1813 0.862 -0.358 0.360 101 109 68
-86.5748 120.2647 5.3787 0.604 -0.380 0.701 101 109 62
-81.6309 121.6146 5.6608 0.758 -0.640 0.124 113 142 133
-81.5209 121.8357 5.6638 0.760 -0.631 0.156 113 142 133
-48.0073 100.1173 8.1018 -0.106 -0.519 0.848 118 136 126
-36.1968 95.7111 8.9057 0.275 -0.742 0.611 112 111 60
-36.0455 95.8085 8.9134 0.260 -0.758 0.599 109 105 57
-35.7272 95.1904 8.9436 -0.008 -0.813 0.582 71 71 32
-35.5128 94.8158 8.9632 0.530 -0.685 0.500 19 23 7
-35.3418 94.1828 8.9845 0.478 -0.641 0.600 13 18 16
-33.0005 95.2069 9.1116 -0.798 -0.602 0.042 115 108 54
-32.8996 95.0189 9.1210 -0.792 -0.603 0.100 114 107 53
-32.7919 94.8700 9.1302 -0.658 -0.744 0.116 109 102 48
-32.6757 94.7686 9.1391 -0.658 -0.744 0.116 109 102 48
-32.5597 94.6675 9.1480 -0.658 -0.744 0.116 113 106 54
-32.4504 94.5341 9.1570 -0.667 -0.738 0.100 116 109 57
-32.3365 94.4267 9.1658 -0.641 -0.748 0.173 117 110 58
-28.8669 96.5648 9.3436 -0.675 -0.710 -0.200 114 109 54
-28.8196 96.1789 9.3531 -0.589 -0.717 -0.372 112 107 51
-22.3062 99.4219 9.6999 0.043 -0.727 0.685 42 42 16
-21.7086 99.4949 9.7355 -0.247 -0.732 0.635 77 77 47
-21.5839 99.4343 9.7442 -0.251 -0.732 0.633 105 106 63
-88.4135 119.9010 5.0978 0.561 -0.679 0.474 92 100 63
-86.7009 120.1023 5.1997 0.496 -0.516 0.699 99 106 62
-86.5306 120.1260 5.2098 0.603 -0.383 0.700 101 109 62
-49.9472 102.4507 7.7982 0.182 -0.926 -0.331 118 157 164
-49.8004 102.5223 7.8059 -0.157 -0.950 -0.271 118 156 163
-48.1430 100.0213 7.9550 0.316 -0.828 0.463 119 141 135
-47.9981 99.9657 7.9650 0.334 -0.875 0.349 117 137 127
-47.8539 100.0311 7.9726 0.188 -0.910 0.369 117 134 116
-36.1994 95.5997 8.7748 0.275 -0.746 0.607 113 112 58
-36.0437 95.7280 8.7820 0.227 -0.736 0.638 110 107 55
-35.7249 95.1147 8.8132 0.093 -0.789 0.608 77 78 35
-35.5116 94.7341 8.8334 0.524 -0.686 0.505 24 27 9
-35.3917 94.6349 8.8427 -0.195 -0.786 0.587 14 18 11
-35.3402 94.1055 8.8558 0.478 -0.636 0.605 12 16 18
-33.1187 95.2237 8.9720 -0.655 -0.545 0.523 115 109 52
-32.8936 94.9709 8.9906 -0.790 -0.603 0.106 107 100 46
-32.7845 94.8297 9.0000 -0.790 -0.603 0.106 99 92 38
-32.6766 94.6848 9.0093 -0.788 -0.606 0.109 99 92 40
-32.5626 94.5741 9.0184 -0.786 -0.609 0.106 105 98 46
-32.4601 94.4066 9.0279 -0.788 -0.606 0.109 115 108 56
-32.3957 94.0481 9.0386 -0.782 -0.605 0.154 116 109 57
-28.7915 96.2248 9.2203 -0.589 -0.717 -0.372 113 108 52
-21.7326 99.3515 9.5974 -0.261 -0.743 0.616 75 75 45
-21.6012 99.3127 9.6062 -0.261 -0.743 0.616 101 102 59
-21.4731 99.2640 9.6151 -0.261 -0.736 0.625 109 108 60
-60.1473 114.5877 6.7768 -0.923 -0.296 0.246 122 152 156
-49.9416 102.5183 7.6528 0.159 -0.961 -0.225 110 152 159
-48.1332 99.8018 7.8198 0.340 -0.872 0.352 118 142 137
-47.8458 100.0761 7.8320 -0.061 -0.961 0.270 117 135 118
-36.0493 95.5967 8.6513 0.183 -0.708 0.682 109 107 52
-35.7264 95.0144 8.6831 0.093 -0.789 0.608 77 77 31
-35.5885 95.0269 8.6914 0.109 -0.791 0.602 43 46 11
-35.3897 94.5597 8.7132 -0.199 -0.801 0.565 14 18 13
-35.2685 94.4709 8.7225 -0.192 -0.810 0.555 12 17 17
-34.2649 94.0254 8.7935 -0.762 -0.579 0.291 115 110 52
-33.1353 95.0526 8.8423 -0.637 -0.611 0.471 115 109 50
-33.0119 94.9845 8.8513 -0.729 -0.386 0.566 115 108 51
-32.3882 94.0089 8.9097 -0.726 -0.395 0.563 116 109 57
-32.1172 93.3570 8.9397 -0.722 -0.475 0.504 116 111 55
-28.6665 96.0978 9.0967 -0.562 -0.797 0.224 112 107 49
-22.2006 99.1642 9.4331 0.088 -0.787 0.611 30 28 13
-22.0521 99.1808 9.4420 0.199 -0.759 0.620 15 12 6
-21.7461 99.2420 9.4596 -0.261 -0.743 0.616 72 73 44
-21.6148 99.2033 9.4685 -0.261 -0.743 0.616 99 99 58
-21.4836 99.1647 9.4774 -0.261 -0.743 0.616 109 109 59
-59.2939 111.8632 6.7246 -0.905 -0.278 0.322 133 167 178
-54.0019 116.9135 6.9396 -0.480 -0.876 -0.043 121 166 179
-53.7447 118.3910 6.9228 0.159 -0.395 0.905 121 167 180
-53.5809 118.6070 6.9281 -0.158 -0.985 0.075 121 167 180
-47.8373 100.0366 7.6929 -0.061 -0.961 0.270 117 135 119
-36.1651 94.7119 8.5308 0.435 -0.703 0.562 110 107 52
-35.5899 94.9278 8.5616 0.109 -0.791 0.602 43 46 11
-35.4537 94.9296 8.5699 0.140 -0.789 0.598 25 27 10
-34.4788 94.2647 8.6448 -0.738 -0.575 0.354 92 87 53
-34.3724 94.0992 8.6550 -0.712 -0.588 0.385 106 100 52
-33.1409 94.9411 8.7124 -0.648 -0.554 0.524 115 109 49
-32.9095 94.7259 8.7314 -0.755 -0.465 0.463 107 100 46
-32.5929 94.2604 8.7612 -0.710 -0.409 0.572 106 99 47
-32.4974 94.0595 8.7716 -0.721 -0.404 0.563 116 109 55
-32.0672 94.1937 8.7951 -0.420 -0.790 0.448 116 109 55
-32.0900 93.4159 8.8109 -0.503 -0.828 0.247 117 110 55
-28.6562 96.0686 8.9642 -0.593 -0.770 0.235 115 110 54
-28.5302 96.0189 8.9731 -0.530 -0.757 0.383 111 106 48
-27.9183 95.7085 9.0177 -0.536 -0.738 0.409 89 89 39
-22.2133 99.0560 9.2957 0.088 -0.787 0.611 29 27 13
-22.0675 99.0644 9.3045 0.199 -0.759 0.620 20 17 9
-21.7536 99.1514 9.3220 -0.207 -0.758 0.618 64 64 35
-21.6168 99.1304 9.3309 -0.201 -0.778 0.596 97 98 56
-21.4972 99.0556 9.3399 -0.261 -0.743 0.616 107 107 56
-21.3730 98.9961 9.3489 0.273 -0.720 0.638 107 107 53
-67.1203 124.8918 5.7712 -0.812 -0.579 -0.069 118 147 153
-58.9668 110.5782 6.6149 -0.922 -0.266 0.282 126 168 182
-53.9969 116.9448 6.7700 -0.404 -0.881 -0.246 123 169 182
-53.8072 116.7014 6.7875 -0.486 -0.867 -0.111 122 168 181
-53.7025 117.8248 6.7672 0.131 -0.391 0.911 122 168 181
-47.8287 99.9550 7.5549 -0.153 -0.936 0.318 116 134 120
-36.0148 94.7205 8.4084 0.421 -0.705 0.570 111 106 51
-35.8705 94.7786 8.4159 0.257 -0.760 0.597 99 97 45
-35.7293 94.8147 8.4237 0.106 -0.790 0.603 79 80 33
-35.5913 94.8289 8.4319 0.109 -0.791 0.602 44 47 12
-35.4543 94.8368 8.4402 0.124 -0.785 0.607 23 26 10
-34.8367 95.2951 8.4674 -0.726 -0.534 0.433 13 17 20
-32.9166 94.6086 8.6022 -0.755 -0.465 0.463 111 104 50
-32.6011 94.1401 8.6328 -0.673 -0.497 0.548 101 94 42
-32.4929 94.0046 8.6427 -0.673 -0.497 0.548 107 100 46
-32.3915 93.8376 8.6529 -0.677 -0.497 0.543 108 101 49
-32.0685 94.1108 8.6664 -0.409 -0.797 0.444 112 105 51
-31.7686 93.6066 8.6969 0.410 -0.912 -0.011 115 110 52
-31.5349 93.4458 8.7151 0.507 -0.861 -0.045 116 111 53
-22.2260 98.9480 9.1585 0.088 -0.787 0.611 27 25 13
-22.0854 98.9398 9.1674 0.227 -0.737 0.637 28 25 17
-21.7669 99.0426 9.1846 -0.196 -0.755 0.626 54 54 24
-21.6280 99.0285 9.1935 -0.207 -0.757 0.620 96 98 54
-21.5108 98.9466 9.2027 -0.261 -0.743 0.616 107 107 56
-70.5779 125.2288 5.3665 0.582 -0.588 0.562 116 143 136
-67.4219 125.5164 5.5538 -0.899 -0.421 0.118 120 154 164
-67.2453 125.5860 5.5630 -0.844 -0.344 0.412 120 153 165
-66.9639 125.0760 5.5933 -0.857 -0.327 0.399 120 155 167
-64.4174 118.8376 5.9095 -0.846 -0.278 0.455 123 160 176
-53.9944 117.0159 6.5990 -0.444 -0.866 -0.229 127 174 186
-47.8202 99.9082 7.4161 -0.162 -0.837 0.523 119 136 120
-36.0109 94.6559 8.2786 0.269 -0.734 0.624 108 103 48
-35.8730 94.6711 8.2867 0.271 -0.729 0.629 101 99 47
-35.7362 94.6792 8.2949 0.263 -0.742 0.616 87 88 41
-35.5964 94.7064 8.3028 0.166 -0.749 0.641 49 51 16
-32.3892 93.7723 8.5245 -0.714 -0.553 0.430 94 87 35
-31.9498 93.9562 8.5470 -0.345 -0.825 0.448 105 98 43
-31.8648 93.7144 8.5584 0.405 -0.914 0.009 107 102 46
-31.7425 93.6578 8.5674 0.408 -0.913 -0.012 111 106 48
-31.7407 93.0230 8.5836 0.559 -0.820 -0.119 113 109 48
-31.4844 93.6124 8.5844 -0.716 -0.697 -0.045 113 109 48
-31.3948 93.4031 8.5953 -0.730 -0.683 0.018 113 109 48
-22.1099 98.7945 9.0307 0.228 -0.723 0.652 26 21 13
-21.6472 98.9015 9.0565 -0.195 -0.721 0.665 94 96 52
-21.5200 98.8517 9.0656 -0.201 -0.722 0.662 106 106 55
-21.3618 98.8991 9.0742 0.325 -0.700 0.636 106 106 52
-71.0232 124.6741 5.1705 0.453 -0.499 0.739 117 140 145
-70.8843 124.8995 5.1730 0.442 -0.516 0.734 116 141 146
-70.4123 124.4526 5.2143 -0.143 -0.829 0.540 119 144 149
-70.0077 124.3116 5.2430 -0.361 -0.629 0.689 117 143 148
-67.7961 125.4995 5.3472 -0.954 -0.283 -0.101 129 162 179
-67.1928 125.3060 5.3897 -0.846 -0.337 0.413 130 163 180
-66.5828 124.0075 5.4626 -0.755 -0.265 0.600 126 162 181
-57.3266 120.9348 6.1172 -0.891 -0.206 0.405 139 194 214
-53.9830 116.9489 6.4319 -0.490 -0.870 -0.050 124 172 183
-36.1790 94.3421 8.1450 0.391 -0.711 0.585 109 106 51
-36.0127 94.5526 8.1496 0.254 -0.673 0.695 107 104 49
-35.8807 94.5291 8.1583 0.315 -0.654 0.688 100 99 46
-32.6109 94.6318 8.3573 0.021 -0.935 0.354 101 93 44
-32.6011 93.9837 8.3755 0.053 -0.779 0.625 96 89 37
-32.4681 93.9763 8.3839 0.171 -0.772 0.612 89 82 28
-31.9728 93.7666 8.4202 0.378 -0.917 0.129 96 89 34
-31.4601 93.6532 8.4549 -0.789 -0.606 0.104 112 108 48
-31.3752 93.4216 8.4664 -0.741 -0.672 0.014 113 109 48
-26.8674 96.9066 8.6497 0.525 -0.438 0.729 95 94 39
-22.3206 98.5089 8.8867 0.293 -0.682 0.670 31 30 15
-86.7495 119.1614 4.1769 0.186 -0.720 0.669 87 95 57
-86.5901 119.2103 4.1854 0.186 -0.720 0.669 90 98 57
-70.9937 124.5376 4.9935 0.448 -0.514 0.732 120 145 161
-70.8475 124.7287 4.9970 0.467 -0.516 0.718 120 145 160
-70.5164 124.9391 5.0114 0.605 -0.575 0.551 131 156 171
-70.3514 125.0497 5.0184 0.553 -0.551 0.624 132 155 171
-65.8269 121.8347 5.3904 -0.752 -0.276 0.599 122 160 187
-53.7515 116.1590 6.2993 -0.027 -0.764 0.645 117 163 176
-47.5138 98.8961 7.1829 -0.081 -0.477 0.875 114 128 98
-36.1813 94.2353 8.0167 0.391 -0.711 0.585 108 107 53
-36.0100 94.4798 8.0202 0.213 -0.655 0.725 106 104 50
-35.8858 94.4052 8.0300 0.320 -0.651 0.688 101 100 47
-32.6305 93.7549 8.2496 0.033 -0.830 0.556 99 92 40
-32.5064 93.7036 8.2587 0.011 -0.793 0.609 94 87 33
-32.3707 93.7116 8.2669 0.011 -0.793 0.609 91 84 32
-32.2143 93.8238 8.2733 -0.164 -0.684 0.711 88 81 28
-32.0989 93.7296 8.2831 -0.039 -0.711 0.702 85 78 23
-31.8518 93.6268 8.3013 0.450 -0.889 -0.084 93 88 32
-31.5900 93.5977 8.3183 -0.439 -0.753 -0.490 98 93 37
-21.3863 98.6908 8.8006 0.367 -0.705 0.607 107 107 54
-86.8471 118.9305 4.0045 0.341 -0.829 0.443 81 91 56
-86.6949 118.9971 4.0118 0.341 -0.829 0.443 87 95 58
-86.5531 119.0916 4.0177 0.384 -0.825 0.416 90 98 58
-72.6222 120.4244 4.8362 -0.257 -0.923 -0.287 114 147 144
-71.6144 121.5335 4.8645 -0.632 -0.284 0.721 116 152 154
-71.5651 123.7395 4.8000 -0.077 -0.132 0.988 124 161 159
-70.8942 123.2334 4.8569 -0.121 -0.154 0.981 124 158 179
-70.6808 123.1059 4.8739 -0.101 -0.161 0.982 125 159 181
-70.8416 124.7000 4.8152 0.574 -0.595 0.562 125 160 181
-70.7005 124.9182 4.8173 0.599 -0.596 0.535 126 160 182
-70.5083 124.9006 4.8296 0.607 -0.569 0.555 127 160 182
-63.8075 116.2531 5.5076 -0.855 -0.274 0.440 151 200 225
-62.4279 121.1323 5.4434 -0.764 -0.534 0.362 133 194 214
-62.2041 120.8371 5.4662 -0.764 -0.537 0.358 131 192 212
-56.6140 117.2278 5.9215 -0.826 -0.519 0.219 137 195 215
-56.3872 116.6498 5.9532 -0.814 -0.528 0.244 136 194 214
-56.3859 118.6226 5.8929 -0.691 -0.697 0.194 135 193 215
-56.1923 118.4356 5.9105 -0.691 -0.697 0.194 133 191 211
-55.8802 116.8317 5.9789 0.180 -0.776 0.604 134 192 212
-55.6895 116.6341 5.9967 0.133 -0.724 0.677 133 192 210
-55.1516 116.4321 6.0360 -0.679 -0.463 0.570 131 189 199
-54.9922 116.6227 6.0400 -0.271 -0.547 0.792 127 185 195
-54.8098 116.5098 6.0547 -0.373 -0.531 0.761 127 185 196
-54.6023 116.0417 6.0819 -0.459 -0.450 0.766 127 186 196
-54.4269 116.0081 6.0937 -0.436 -0.663 0.609 124 182 192
-54.2467 115.9029 6.1081 -0.436 -0.663 0.609 120 177 187
-53.7264 115.8737 6.1410 0.004 -0.781 0.624 114 162 176
-36.1816 94.1418 7.8883 0.385 -0.714 0.585 108 106 55
-36.0713 93.9771 7.9001 0.028 -0.730 0.683 106 105 51
-32.8162 94.1084 8.0969 -0.717 -0.697 -0.022 114 107 55
-31.6319 93.9671 8.1743 0.444 -0.896 -0.028 89 86 33
-31.5299 93.8112 8.1853 -0.463 -0.792 -0.398 90 87 34
-31.4279 93.6574 8.1963 -0.866 -0.470 0.172 98 95 43
-31.3418 93.4314 8.2086 -0.873 -0.429 0.232 102 99 46
-28.0882 96.3398 8.3202 -0.764 -0.633 0.126 112 107 52
-86.8242 118.8488 3.8353 0.385 -0.824 0.414 81 91 56
-86.6746 118.9221 3.8421 0.385 -0.824 0.414 86 94 57
-86.3288 118.9484 3.8626 0.459 -0.733 0.502 104 111 70
-73.7677 120.6599 4.5821 -0.468 -0.857 0.218 115 148 149
-73.0026 120.4948 4.6346 -0.064 -0.994 0.090 106 144 146
-70.5693 125.1855 4.6332 -0.123 -0.660 -0.741 118 162 185
-70.2844 124.7330 4.6654 -0.043 -0.958 -0.284 118 161 185
-62.2581 125.2451 5.1439 -0.605 -0.120 0.787 133 194 215
-58.5892 119.3376 5.5610 -0.447 -0.894 -0.042 118 179 200
-56.7811 119.1281 5.6793 -0.723 -0.612 0.320 137 195 215
-56.5803 118.8783 5.6998 -0.718 -0.603 0.349 127 185 206
-56.3634 118.4355 5.7274 -0.082 -0.994 -0.079 114 173 194
-55.9900 118.2116 5.7577 -0.691 -0.690 0.215 98 156 175
-55.8163 118.2510 5.7671 -0.750 -0.631 0.200 125 184 202
-55.5130 116.6827 5.8365 -0.068 -0.669 0.740 128 186 201
-55.3358 116.6457 5.8486 -0.617 -0.467 0.634 132 190 198
-55.1459 116.4419 5.8669 -0.632 -0.468 0.618 141 198 204
-54.9664 116.3673 5.8804 -0.382 -0.500 0.777 131 188 194
-54.2128 115.5067 5.9547 -0.118 -0.837 0.535 116 170 178
-54.0349 115.4202 5.9685 0.088 -0.849 0.520 113 166 175
-53.8643 115.4439 5.9782 0.088 -0.849 0.520 110 158 173
-53.6937 115.4676 5.9880 0.088 -0.849 0.520 112 159 175
-47.7824 98.6126 6.8971 -0.081 -0.633 0.770 120 140 127
-36.1838 94.0359 7.7604 0.385 -0.714 0.585 110 110 58
-36.0691 93.9016 7.7718 0.055 -0.715 0.697 108 107 55
-31.6478 94.4693 8.0261 -0.618 -0.729 -0.293 85 82 32
-31.5661 94.2096 8.0396 -0.601 -0.721 -0.347 85 81 33
-31.4206 93.6176 8.0677 -0.872 -0.452 0.189 90 86 38
-31.3485 93.3256 8.0815 -0.882 -0.426 0.202 92 88 40
-30.1593 94.4583 8.1183 -0.287 -0.826 -0.485 102 99 48
-29.9176 94.3298 8.1374 -0.357 -0.781 -0.512 113 110 58
-21.3586 98.2029 8.5402 0.305 -0.722 0.621 110 108 57
-86.6522 118.8413 3.6729 0.443 -0.752 0.488 87 95 58
-86.3437 118.9652 3.6877 0.466 -0.696 0.546 103 110 69
-73.5464 120.4922 4.4250 -0.482 -0.855 0.190 117 152 156
-73.0463 120.6645 4.4500 -0.086 -0.980 -0.179 120 159 164
-72.7149 120.7916 4.4661 -0.440 -0.897 -0.037 124 163 168
-72.3402 125.4849 4.3296 -0.547 -0.546 0.635 121 164 171
-72.0571 125.0742 4.3610 -0.558 -0.557 0.615 123 166 173
-70.2417 124.5313 4.4914 -0.344 -0.884 -0.317 127 175 197
-70.0257 124.3978 4.5093 -0.350 -0.879 -0.323 126 173 195
-62.1181 120.2803 5.1370 -0.791 -0.611 0.037 128 190 205
-61.8977 119.9961 5.1603 -0.791 -0.611 0.037 127 190 207
-59.0937 122.3362 5.2537 -0.817 -0.542 0.198 121 181 199
-58.8694 121.9670 5.2800 -0.806 -0.572 0.153 120 180 198
-58.2213 121.0244 5.3521 -0.703 -0.711 -0.032 135 195 215
-57.2127 119.9772 5.4499 -0.645 -0.484 0.591 136 193 213
-56.7654 119.0210 5.5100 -0.723 -0.612 0.320 132 187 206
-56.5387 118.4800 5.5424 -0.089 -0.992 -0.092 119 175 193
-56.3571 118.4325 5.5552 -0.091 -0.993 -0.079 105 162 179
-56.1682 118.2989 5.5714 -0.687 -0.699 0.198 97 154 170
-55.9769 118.1302 5.5889 -0.691 -0.661 0.293 101 158 174
-55.6592 116.4175 5.6668 -0.102 -0.699 0.707 118 175 190
-55.4907 116.4842 5.6749 -0.113 -0.718 0.686 124 179 193
-54.3772 115.4912 5.7774 -0.053 -0.842 0.538 110 163 168
-54.0281 115.4228 5.8012 0.106 -0.801 0.590 101 153 160
-53.8513 115.3511 5.8146 0.065 -0.778 0.624 108 156 171
-48.1994 98.2704 6.7441 0.184 -0.904 0.387 123 152 149
-47.7736 98.4499 6.7643 -0.081 -0.633 0.770 120 141 129
-36.0742 93.7773 7.6448 0.055 -0.715 0.697 105 107 57
-30.1300 94.5156 7.9862 -0.284 -0.831 -0.479 87 84 33
-29.8985 94.3411 8.0065 -0.602 -0.759 -0.247 109 106 55
-86.3678 119.0060 3.5111 0.495 -0.599 0.629 105 112 71
-73.2536 120.7616 4.2571 -0.086 -0.974 -0.209 123 164 171
-73.2887 121.6386 4.2236 -0.659 -0.748 -0.081 123 165 171
-72.9558 124.8742 4.1286 0.092 -0.543 0.834 120 165 171
-72.2492 125.0836 4.1647 0.020 -0.772 0.635 119 164 175
-72.0414 125.0014 4.1804 -0.020 -0.800 0.600 120 165 175
-67.4277 124.5706 4.4803 -0.957 -0.277 -0.087 125 185 209
-66.9636 123.0696 4.5626 -0.959 -0.276 -0.070 130 190 214
-62.6660 122.8631 4.8350 -0.565 -0.678 0.470 126 187 202
-62.4299 122.5035 4.8624 -0.399 -0.903 0.160 120 182 197
-61.8916 119.9777 4.9858 -0.791 -0.611 0.037 120 182 197
-58.8572 121.9028 5.1042 -0.806 -0.572 0.153 122 179 196
-58.6246 121.4433 5.1349 -0.799 -0.551 0.241 123 180 198
-58.4104 121.1431 5.1589 -0.799 -0.551 0.241 130 186 205
-58.1983 120.8539 5.1823 -0.773 -0.597 0.214 137 194 213
-57.9814 120.5073 5.2080 -0.783 -0.584 0.213 140 197 215
-57.1821 119.7154 5.2856 -0.648 -0.478 0.593 140 194 213
-56.5312 118.4632 5.3705 -0.091 -0.993 -0.079 116 169 185
-56.3522 118.4458 5.3822 -0.091 -0.993 -0.079 108 160 176
-56.1539 118.2031 5.4031 -0.685 -0.683 0.252 123 175 191
-55.9588 117.9895 5.4227 -0.704 -0.592 0.392 130 183 197
-55.6435 116.3023 5.5024 -0.114 -0.704 0.701 132 185 199
-55.4684 116.2860 5.5138 -0.138 -0.700 0.700 129 180 194
-54.7388 115.8132 5.5757 -0.366 -0.378 0.850 102 151 160
-54.5377 115.4202 5.6021 -0.462 -0.424 0.779 99 148 157
-53.9946 115.0219 5.6499 -0.366 -0.308 0.878 112 161 170
-53.8152 114.8999 5.6653 -0.370 -0.309 0.876 110 156 170
-48.3408 98.9730 6.5718 0.236 -0.829 0.508 116 147 149
-47.9073 98.3277 6.6216 0.306 -0.808 0.503 119 145 135
-47.7652 98.3897 6.6282 -0.041 -0.839 0.542 120 142 129
-47.6224 98.1545 6.6454 0.006 -0.689 0.725 119 137 123
-36.0850 93.6146 7.5191 0.244 -0.749 0.616 105 107 57
-35.9225 93.8023 7.5224 -0.264 -0.776 0.572 101 103 53
-30.8247 94.3663 7.8166 0.279 -0.946 -0.164 84 80 32
-30.7663 94.0126 7.8328 -0.779 -0.625 0.038 88 84 36
-29.9812 94.5007 7.8638 -0.374 -0.921 -0.108 95 92 41
-29.8612 94.4316 7.8737 -0.367 -0.923 -0.115 107 104 53
-72.9100 124.6747 3.9549 0.144 -0.582 0.800 110 158 170
-72.5409 124.7079 3.9764 -0.237 -0.733 0.637 119 170 184
-72.3755 124.8077 3.9828 -0.142 -0.746 0.651 126 175 190
-72.0119 124.8677 4.0030 -0.020 -0.800 0.600 140 188 202
-62.8392 122.8034 4.6459 -0.551 -0.718 0.425 137 199 214
-62.6425 122.7229 4.6611 -0.565 -0.678 0.470 122 185 200
-58.2207 119.3862 5.0587 -0.726 -0.681 0.096 132 185 201
-56.5587 116.8764 5.2551 -0.763 -0.616 -0.195 145 194 208
-56.3615 116.6252 5.2767 -0.763 -0.616 -0.195 125 175 188
-56.3470 118.4564 5.2090 -0.089 -0.991 -0.099 110 160 173
-56.1413 118.1282 5.2340 -0.685 -0.683 0.252 129 179 192
-55.8065 116.2463 5.3251 -0.434 -0.900 0.034 141 191 204
-55.6256 116.1597 5.3395 -0.434 -0.900 0.034 128 177 190
-55.4499 116.1331 5.3513 -0.421 -0.906 0.045 131 179 193
-55.2703 116.0568 5.3652 -0.617 -0.785 0.057 117 165 175
-54.7158 115.5896 5.4169 -0.387 -0.394 0.834 112 158 168
-54.5110 115.1401 5.4464 -0.469 -0.420 0.777 107 153 163
-54.3419 115.1796 5.4553 -0.145 -0.628 0.765 111 157 167
-47.7565 98.2546 6.4949 -0.217 -0.877 0.429 120 142 129
-47.6138 97.9149 6.5164 0.189 -0.877 0.443 119 137 124
-35.9245 93.6997 7.3951 -0.185 -0.827 0.531 101 103 53
-30.7574 93.9796 7.7032 -0.788 -0.611 0.076 84 80 32
-27.9195 95.6197 7.8168 -0.569 -0.461 0.681 116 111 56
-22.4909 99.4199 8.0094 -0.870 -0.359 0.338 106 99 47
-22.5992 98.1295 8.0510 -0.876 -0.388 0.286 93 89 38
-21.3732 97.9618 8.1329 0.393 -0.634 0.666 107 105 54
-73.0000 125.0499 3.7508 -0.258 -0.450 0.855 103 155 169
-72.4814 124.4474 3.8063 -0.227 -0.742 0.631 118 172 189
-72.3352 124.6288 3.8083 -0.146 -0.740 0.657 130 182 200
-71.9837 124.7398 3.8256 -0.025 -0.792 0.609 135 188 204
-62.7075 120.6693 4.5569 -0.602 -0.781 0.166 137 198 216
-62.2825 120.2377 4.6000 -0.637 -0.722 0.269 125 186 204
-62.0696 120.0110 4.6220 -0.638 -0.730 0.244 120 183 198
-61.8699 119.8732 4.6397 -0.637 -0.739 0.217 121 183 198
-58.3580 119.0412 4.8888 -0.382 -0.463 0.800 129 179 192
-58.3831 120.9853 4.8112 -0.893 -0.416 0.169 137 186 200
-58.1177 120.1778 4.8592 -0.908 -0.356 0.222 145 194 208
-57.9137 119.9485 4.8807 -0.893 -0.414 0.178 147 197 211
-56.9322 117.1891 5.0493 -0.644 -0.712 -0.278 147 195 209
-56.6986 118.4817 5.0131 0.190 -0.981 -0.027 141 188 198
-56.5221 118.4954 5.0234 -0.088 -0.993 -0.080 135 182 192
-55.9252 117.7374 5.0899 -0.707 -0.589 0.392 137 184 195
-55.6186 116.1500 5.1709 -0.434 -0.900 0.034 136 183 194
-55.4380 116.0635 5.1855 -0.434 -0.900 0.034 136 182 193
-55.2564 115.9612 5.2007 -0.639 -0.769 0.009 133 177 184
-47.7481 98.1861 6.3594 -0.217 -0.877 0.429 120 142 130
-47.6056 97.8933 6.3797 0.183 -0.867 0.464 121 139 126
-36.0896 93.4049 7.2655 0.318 -0.743 0.589 106 108 58
-35.9198 93.6417 7.2667 -0.204 -0.811 0.547 102 104 54
-29.4894 93.5658 7.6662 -0.334 -0.818 -0.468 110 103 48
-22.5170 99.2663 7.8730 -0.854 -0.301 0.424 108 101 47
-72.9494 124.8301 3.5782 -0.196 -0.379 0.904 102 155 171
-72.6712 124.4492 3.6109 -0.052 -0.489 0.871 106 162 181
-72.4397 124.2637 3.6328 -0.263 -0.732 0.629 116 172 192
-72.3253 124.5812 3.6269 0.364 -0.444 0.819 128 183 203
-62.6444 120.2620 4.4002 -0.697 -0.629 0.344 139 198 216
-62.4636 120.2623 4.4114 -0.702 -0.620 0.350 137 196 214
-62.2497 120.0329 4.4339 -0.702 -0.620 0.350 127 186 204
-62.0361 119.7993 4.4567 -0.565 -0.686 0.459 122 183 200
-61.8314 119.6238 4.4765 -0.573 -0.687 0.446 122 182 197
-56.8472 118.2291 4.8408 0.650 -0.750 0.121 146 191 198
-56.6932 118.4876 4.8397 0.190 -0.981 -0.027 135 179 186
-56.5183 118.5211 4.8491 0.190 -0.981 -0.027 121 165 173
-55.5996 115.9944 5.0090 -0.585 -0.685 0.434 121 165 173
-55.4189 115.9046 5.0238 -0.584 -0.679 0.445 125 169 177
-55.0286 115.3344 5.0712 -0.744 -0.462 0.483 128 168 176
-54.8347 115.0469 5.0949 -0.744 -0.462 0.483 121 160 169
-47.7397 98.1272 6.2236 0.139 -0.895 0.425 120 142 130
-47.5974 98.0087 6.2372 -0.117 -0.993 -0.006 122 140 126
-32.7465 93.9995 7.3167 -0.517 -0.769 0.376 114 108 56
-21.2821 97.6760 7.8734 0.314 -0.714 0.625 110 110 60
-80.0022 121.3947 3.1052 0.125 -0.990 -0.071 111 140 135
-72.1353 123.7547 3.4897 0.018 -0.389 0.921 127 184 204
-63.4803 121.0098 4.1402 -0.072 -0.992 0.101 137 201 222
-61.8101 119.4963 4.3076 -0.573 -0.687 0.446 121 183 196
-56.8324 118.1328 4.6726 0.687 -0.713 0.139 120 160 167
-56.6792 118.3989 4.6707 0.197 -0.980 -0.036 122 163 169
-56.5013 118.3969 4.6817 -0.219 -0.976 0.003 126 166 173
-47.4479 96.8982 6.1552 0.062 -0.994 0.087 122 136 120
-47.3076 97.0236 6.1585 0.021 -0.998 0.060 119 132 113
-35.8809 93.7190 7.0037 0.168 -0.762 0.626 104 104 53
-29.8234 94.3070 7.3521 -0.398 -0.917 -0.000 94 91 40
-22.1354 97.5983 7.6860 0.596 -0.631 0.497 16 16 5
-21.2865 97.5974 7.7383 0.360 -0.797 0.485 108 108 56
-77.4388 114.2550 3.4007 -0.736 -0.340 0.586 114 153 157
-72.7497 123.9743 3.2593 0.113 -0.751 0.650 101 156 172
-72.5487 123.9168 3.2743 0.309 -0.565 0.765 104 161 180
-72.3808 124.0008 3.2809 0.388 -0.577 0.718 112 171 187
-72.2043 124.0485 3.2897 0.302 -0.612 0.731 121 180 198
-64.6659 118.3401 4.0072 0.279 -0.862 0.422 143 200 218
-63.7279 121.4471 3.9274 -0.063 -0.954 -0.292 143 200 218
-63.4745 120.9904 3.9633 -0.075 -0.993 0.097 143 200 217
-62.8509 120.4757 4.0245 -0.770 -0.435 0.467 142 201 211
-62.6430 120.2957 4.0453 -0.760 -0.440 0.478 140 199 209
-56.6645 118.3023 4.5022 0.670 -0.724 0.164 132 167 174
-47.8665 98.3425 5.9286 0.419 -0.904 -0.079 120 146 134
-35.8798 93.6373 6.8760 0.210 -0.795 0.570 104 104 53
-21.2900 97.5221 7.6034 0.398 -0.808 0.434 105 106 50
-86.3430 118.3429 2.4971 -0.269 -0.716 0.645 95 104 61
-79.5367 114.9199 3.0742 -0.232 -0.906 -0.355 105 145 139
-79.3400 114.8429 3.0898 -0.198 -0.928 -0.315 105 145 143
-72.6977 123.7486 3.0896 0.449 -0.551 0.703 103 158 173
-72.5017 123.7112 3.1034 0.309 -0.565 0.765 106 162 180
-72.3372 123.8088 3.1090 0.309 -0.565 0.765 112 170 187
-71.8088 123.1388 3.1724 0.308 -0.480 0.821 125 184 203
-64.6655 118.3496 3.8331 0.281 -0.865 0.416 152 201 212
-63.7533 121.6281 3.7385 -0.059 -0.956 -0.287 133 181 192
-63.4689 120.9727 3.7862 -0.075 -0.993 0.097 132 181 191
-36.0531 93.2893 6.7499 0.305 -0.816 0.490 108 108 59
-35.8801 93.5460 6.7488 0.210 -0.795 0.570 105 105 54
-86.5985 118.0633 2.3209 -0.450 -0.642 0.621 81 89 50
-86.4384 118.1075 2.3287 -0.316 -0.725 0.611 88 96 57
-86.2541 118.0893 2.3409 -0.483 -0.631 0.607 95 103 61
-79.5617 111.9334 3.0472 0.744 -0.477 0.467 109 136 122
-79.6239 115.1688 2.8890 0.439 -0.894 -0.093 107 149 149
-80.2803 121.0663 2.5670 -0.498 -0.642 0.583 115 157 163
-80.0035 120.7659 2.5984 -0.726 -0.527 0.442 114 156 162
-78.4432 118.0539 2.8241 -0.648 -0.695 -0.311 115 161 174
-72.4253 123.3807 2.9408 0.298 -0.575 0.762 111 165 181
-71.9348 124.5055 2.9173 0.425 -0.598 0.680 131 188 204
-64.6548 118.2987 3.6623 0.268 -0.867 0.421 129 174 182
-62.8512 114.7460 3.9431 -0.193 -0.722 0.665 124 168 176
-63.4581 120.9213 3.6109 -0.047 -0.993 0.106 126 170 177
-47.7035 96.8104 5.7328 0.810 -0.525 0.260 121 142 128
-36.0387 93.2961 6.6196 0.275 -0.869 0.412 109 107 60
-35.8772 93.4757 6.6210 0.222 -0.797 0.561 106 104 55
-87.3015 116.6969 2.1717 -0.077 -0.437 0.896 92 99 65
-86.5579 117.9359 2.1562 -0.239 -0.567 0.788 82 90 51
-86.1746 117.8602 2.1836 -0.500 -0.591 0.633 95 104 62
-85.9012 117.6077 2.2130 -0.459 -0.622 0.634 102 111 66
-79.3450 111.2757 2.9302 0.278 -0.640 0.717 109 136 127
-79.6089 115.1058 2.7245 0.799 -0.562 0.214 106 150 155
-79.4801 115.2388 2.7259 -0.275 -0.801 -0.532 106 151 158
-79.9355 120.5329 2.4360 -0.723 -0.524 0.449 115 159 167
-79.5474 119.8715 2.4926 -0.723 -0.532 0.441 115 159 169
-76.6677 111.7113 3.0737 -0.753 -0.603 -0.263 117 164 174
-78.4850 118.1744 2.6420 -0.648 -0.695 -0.311 117 165 177
-72.3767 123.1683 2.7716 0.250 -0.694 0.676 116 169 182
-71.8363 122.4432 2.8407 0.250 -0.712 0.657 130 183 197
-71.6367 122.3803 2.8562 0.241 -0.693 0.680 133 186 200
-71.1662 123.5922 2.8252 0.401 -0.510 0.761 134 186 200
-63.0056 114.6539 3.7702 -0.330 -0.599 0.730 132 172 178
-63.4522 120.9021 3.4337 -0.047 -0.993 0.106 126 167 173
-36.0325 93.2476 6.4913 0.285 -0.857 0.429 109 107 60
-34.5609 93.2323 6.5828 -0.732 -0.542 0.412 18 14 10
-32.3605 92.8445 6.7376 -0.331 -0.814 0.478 100 95 40
-87.8539 117.6129 1.9195 0.248 -0.526 0.813 95 103 66
-86.2761 117.6423 2.0152 -0.243 -0.592 0.768 89 97 58
-86.0602 117.5401 2.0337 -0.508 -0.621 0.597 95 104 62
-85.8255 117.3879 2.0560 -0.444 -0.633 0.634 102 111 66
-79.9155 113.9483 2.5963 0.801 -0.268 0.535 107 142 146
-79.1732 113.2456 2.6780 0.767 -0.239 0.596 108 150 161
-79.4528 115.1378 2.5639 0.633 -0.764 -0.122 109 158 173
-79.1149 119.0439 2.3848 -0.735 -0.617 0.282 125 173 185
-76.6885 111.7641 2.9069 -0.751 -0.607 -0.259 125 173 185
-78.4792 118.1402 2.4703 -0.544 -0.739 -0.397 125 173 185
-71.5439 124.4390 2.5754 0.525 -0.511 0.680 135 184 196
-70.8475 124.7085 2.6045 0.883 -0.338 0.326 129 177 188
-70.2123 124.3894 2.6600 0.889 -0.268 0.372 134 183 193
-63.4530 120.9257 3.2538 -0.137 -0.976 0.168 132 170 173
-58.2967 117.1496 3.7649 -0.918 -0.293 0.268 129 161 160
-34.7458 92.8467 6.4600 -0.434 -0.780 0.451 20 16 18
-32.3479 92.8310 6.6086 -0.388 -0.715 0.582 100 95 40
-24.7323 97.0819 6.8605 -0.042 -0.692 0.721 106 100 42
-87.9469 117.3825 1.7529 0.221 -0.514 0.829 98 106 67
-87.8109 117.4827 1.7560 0.428 -0.525 0.736 96 104 67
-86.0146 117.3994 1.8711 -0.513 -0.633 0.580 95 104 62
-85.7547 117.1807 1.8987 -0.444 -0.633 0.634 103 111 66
-79.6053 111.5196 2.5771 0.760 -0.427 0.490 110 133 131
-79.4674 111.6026 2.5812 0.787 -0.419 0.453 106 135 138
-79.0994 113.0050 2.5297 0.764 -0.242 0.598 118 163 181
-79.6835 115.2989 2.3724 0.627 -0.776 -0.068 117 168 188
-79.5330 115.3668 2.3781 0.611 -0.786 -0.096 120 171 193
-79.5084 115.8233 2.3554 -0.302 -0.906 -0.298 122 173 195
-78.6438 114.7461 2.4657 -0.687 -0.681 -0.255 114 166 178
-70.8240 124.5984 2.4264 0.883 -0.338 0.326 129 175 183
-66.3265 121.6811 2.8579 -0.944 -0.328 -0.033 130 168 173
-32.4938 94.0550 6.4044 -0.280 -0.653 0.704 110 105 50
-32.3493 92.7481 6.4824 -0.408 -0.727 0.552 101 96 41
-29.9185 94.0495 6.5634 0.557 -0.824 0.108 97 94 41
-86.3197 117.2546 1.6874 -0.239 -0.645 0.726 83 89 51
-86.1219 117.1985 1.7026 -0.239 -0.645 0.726 90 96 58
-85.6841 116.9742 1.7418 -0.444 -0.633 0.634 104 111 67
-79.5594 110.8828 2.4520 0.207 -0.924 0.321 109 129 122
-79.0114 112.7212 2.3854 0.793 -0.313 0.523 122 169 192
-79.6847 115.2854 2.2038 0.605 -0.789 -0.103 122 173 196
-79.6780 115.7938 2.1764 0.120 -0.742 0.660 123 177 201
-79.6787 116.3309 2.1471 -0.539 -0.729 -0.423 126 179 204
-79.0884 115.5797 2.2245 -0.758 -0.610 -0.233 121 174 192
-70.8016 124.4937 2.2482 0.883 -0.337 0.328 123 167 172
-35.1838 92.4461 6.1937 -0.141 -0.712 0.687 19 17 7
-32.6280 93.2905 6.3051 -0.628 -0.665 0.404 110 105 50
-30.1875 93.9866 6.4175 0.020 -0.915 0.404 94 91 38
-30.0522 93.9854 6.4259 0.445 -0.863 0.239 98 95 42
-29.9135 93.9990 6.4337 0.429 -0.877 0.216 101 98 45
-29.8330 93.7605 6.4517 -0.293 -0.828 0.477 105 102 49
-25.1088 96.6095 6.5872 0.472 -0.457 0.754 109 102 47
-24.9441 96.6957 6.5926 0.452 -0.502 0.737 107 100 45
-24.7640 96.3455 6.6228 -0.017 -0.447 0.894 100 93 37
-86.2639 117.0884 1.5274 -0.080 -0.784 0.615 83 89 51
-86.0649 117.0287 1.5430 -0.084 -0.790 0.608 90 96 58
-85.8912 117.0340 1.5534 -0.441 -0.716 0.542 96 103 62
-80.2312 113.8218 2.0832 0.804 -0.279 0.526 102 131 139
-79.6696 115.7511 2.0091 0.112 -0.994 0.005 121 176 196
-72.4683 122.7448 2.0587 -0.184 -0.945 0.272 120 166 174
-72.2548 122.6275 2.0785 -0.191 -0.923 0.335 124 169 176
-70.9191 124.1650 2.0741 0.883 -0.333 0.331 125 165 167
-65.5370 116.3457 2.8464 -0.908 -0.312 -0.279 133 167 168
-63.7038 113.7542 3.1054 -0.952 -0.305 -0.003 133 162 159
-63.0117 111.6136 3.2687 -0.951 -0.308 0.015 132 161 157
-32.6297 93.2045 6.1783 -0.694 -0.684 0.224 110 105 50
-28.8292 93.3742 6.4029 -0.536 -0.609 0.585 105 100 45
-28.5688 92.8026 6.4512 -0.425 -0.616 0.664 114 109 51
-25.3602 96.1451 6.4605 0.411 -0.460 0.787 113 106 52
-25.1619 96.3535 6.4610 0.463 -0.464 0.755 110 103 49
-24.9792 96.5040 6.4638 0.477 -0.465 0.746 107 100 46
-24.8443 96.4860 6.4731 0.086 -0.465 0.881 97 90 36
-86.1678 116.8183 1.3764 -0.070 -0.781 0.621 83 89 51
-85.9704 116.7619 1.3918 -0.028 -0.853 0.521 91 97 59
-85.8074 116.7942 1.4000 -0.022 -0.848 0.530 97 104 62
-80.1854 113.6687 1.9279 0.827 -0.285 0.485 105 133 141
-65.9839 117.8346 2.5610 -0.853 -0.331 -0.403 135 166 166
-65.6503 116.9766 2.6314 -0.860 -0.342 -0.380 135 166 163
-63.5278 112.7172 3.0096 -0.909 -0.375 -0.181 131 160 155
-30.4053 93.4734 6.1682 -0.111 -0.508 0.854 88 86 36
-29.6893 93.6539 6.2018 -0.228 -0.234 0.945 111 109 58
-28.8242 93.3251 6.2742 -0.496 -0.606 0.621 103 97 46
-25.6042 96.2027 6.3055 -0.217 -0.760 0.613 112 107 52
-25.6172 95.6558 6.3364 -0.134 -0.922 0.364 110 105 50
-25.3248 96.2034 6.3227 0.192 -0.654 0.732 107 101 49
-25.1868 96.1974 6.3315 0.333 -0.522 0.785 104 98 46
-25.0309 96.2544 6.3378 0.470 -0.474 0.745 101 95 43
-86.1161 116.6628 1.2165 -0.328 -0.645 0.691 83 89 51
-85.8641 116.4645 1.2439 -0.320 -0.653 0.687 90 96 58
-80.1455 113.5333 1.7716 0.810 -0.289 0.511 104 133 139
-68.9448 124.6707 1.7954 -0.655 -0.734 -0.180 126 157 153
-68.7129 124.4570 1.8225 -0.655 -0.734 -0.180 125 158 152
-30.4016 93.4173 6.0396 -0.153 -0.526 0.837 85 83 35
-28.6522 93.4070 6.1480 -0.360 -0.810 0.462 101 95 43
-25.6891 96.3328 6.1556 -0.563 -0.779 0.278 110 105 50
-25.5857 96.2013 6.1698 -0.413 -0.809 0.419 108 102 49
-25.5976 95.6583 6.2016 -0.353 -0.848 0.396 106 100 48
-25.3545 96.0295 6.1943 0.113 -0.668 0.736 103 97 45
-25.2058 96.0626 6.2015 0.113 -0.668 0.736 99 93 41
-25.0287 96.1945 6.2045 0.057 -0.650 0.758 97 91 41
-86.2752 116.5988 1.0384 -0.326 -0.612 0.720 79 85 47
-86.0334 116.4277 1.0638 -0.368 -0.636 0.679 83 89 51
-85.7066 116.0349 1.1081 -0.385 -0.590 0.709 91 97 59
-86.8733 119.5193 0.8218 0.054 -0.573 0.818 96 103 63
-86.6133 119.3118 0.8506 0.045 -0.618 0.785 103 110 68
-80.1010 113.3839 1.6167 0.810 -0.289 0.511 104 135 139
-68.6587 118.7477 1.9914 0.207 -0.811 -0.547 131 160 155
-34.6683 92.8045 5.6823 -0.638 -0.590 0.495 17 18 11
-31.2900 92.9698 5.8803 -0.186 -0.908 0.375 96 90 40
-30.4164 93.2791 5.9150 -0.154 -0.528 0.835 84 83 35
-29.5623 92.9081 5.9905 -0.369 -0.685 0.629 99 94 51
-29.4323 92.8914 5.9995 -0.456 -0.632 0.627 98 94 48
-28.3917 94.3893 5.9714 -0.367 -0.520 0.771 98 92 44
-28.1829 94.1334 6.0001 -0.234 -0.646 0.726 101 99 41
-25.8243 96.2812 6.0132 -0.562 -0.784 0.263 110 105 49
-25.7012 96.2203 6.0245 -0.566 -0.778 0.271 105 102 49
-25.5993 96.0839 6.0392 -0.560 -0.782 0.274 102 99 48
-25.6063 95.5596 6.0710 -0.303 -0.876 0.376 102 96 46
-25.4915 95.4750 6.0833 -0.127 -0.751 0.647 100 92 43
-25.3598 95.4507 6.0929 -0.051 -0.731 0.680 96 88 39
-25.2006 95.5237 6.0982 0.333 -0.859 0.390 93 87 37
-25.2028 95.0324 6.1283 -0.325 -0.918 0.226 92 86 36
-86.1891 116.3557 0.8868 -0.324 -0.544 0.774 82 88 50
-85.9564 116.2072 0.9105 -0.385 -0.540 0.749 82 88 50
-85.6214 115.7927 0.9574 -0.388 -0.580 0.716 88 94 56
-86.7975 119.2999 0.6630 0.054 -0.573 0.818 97 103 64
-86.5515 119.1279 0.6890 0.039 -0.622 0.782 105 112 69
-80.0565 113.2348 1.4621 0.810 -0.289 0.511 104 133 137
-34.6714 92.7029 5.5573 -0.638 -0.590 0.495 18 19 11
-32.6115 92.9875 5.6662 -0.341 -0.728 0.594 109 102 48
-32.4932 92.9079 5.6785 -0.317 -0.748 0.583 106 99 45
-31.2792 92.9466 5.7509 -0.196 -0.926 0.323 91 87 39
-31.1483 92.9316 5.7599 -0.189 -0.924 0.333 88 84 36
-31.0215 92.8987 5.7698 -0.196 -0.926 0.323 84 80 33
-29.4439 92.7730 5.8749 -0.302 -0.820 0.486 91 87 42
-29.2978 92.8242 5.8807 -0.196 -0.728 0.657 93 89 42
-28.0579 94.0204 5.8814 -0.581 -0.649 0.491 101 99 39
-27.9330 93.9770 5.8918 -0.485 -0.743 0.461 103 101 43
-26.0416 96.4430 5.8522 0.378 -0.892 0.246 110 107 52
-25.8850 96.5030 5.8581 0.402 -0.894 0.198 108 105 50
-25.7552 96.4642 5.8685 0.258 -0.959 0.117 107 102 47
-25.6036 95.5018 5.9388 -0.303 -0.876 0.376 98 92 42
-25.5084 95.3474 5.9544 -0.081 -0.747 0.660 96 90 40
-25.3897 95.2781 5.9661 -0.071 -0.733 0.676 93 85 36
-23.5453 95.8877 6.0412 0.046 -0.990 0.132 96 93 40
-85.8673 115.9556 0.7606 -0.390 -0.536 0.749 81 87 49
-85.5523 115.5919 0.8036 -0.361 -0.587 0.725 84 90 52
-86.7538 119.1636 0.4974 0.084 -0.592 0.801 97 103 64
-86.4842 118.9298 0.5292 0.033 -0.626 0.779 106 113 70
-31.2838 93.4807 5.5842 0.013 -0.998 -0.058 94 92 43
-31.1427 92.8842 5.6317 -0.189 -0.924 0.333 86 82 34
-31.0177 92.8428 5.6421 -0.179 -0.940 0.290 82 78 31
-29.5774 92.7039 5.7399 -0.419 -0.881 0.220 82 78 31
-29.4567 92.6493 5.7508 -0.419 -0.881 0.220 86 82 35
-29.3181 92.6702 5.7580 -0.272 -0.872 0.408 91 87 40
-29.2015 92.5998 5.7698 -0.269 -0.868 0.417 91 87 40
-28.2060 93.9026 5.7464 -0.241 -0.649 0.722 94 92 37
-28.0992 93.7883 5.7604 -0.271 -0.700 0.661 96 94 38
-28.0305 93.5260 5.7817 -0.180 -0.550 0.816 98 96 40
-26.0351 96.3978 5.7179 0.156 -0.968 -0.196 107 104 49
-25.7490 96.4179 5.7342 0.516 -0.849 0.113 100 97 44
-25.5880 95.4898 5.8044 -0.317 -0.885 0.342 94 88 36
-23.7059 95.7518 5.9033 0.031 -0.993 0.113 92 87 36
-23.5518 95.8006 5.9096 0.021 -0.992 0.121 94 92 39
-22.1506 96.2622 5.9659 0.606 -0.667 0.433 22 22 12
-85.8213 115.8148 0.6013 -0.350 -0.574 0.740 81 87 49
-85.5082 115.4560 0.6445 -0.463 -0.703 0.540 84 90 52
-86.7317 119.0834 0.3270 0.068 -0.584 0.809 97 104 64
-81.7566 123.7624 0.3210 0.000 -0.006 1.000 135 177 183
-31.2841 92.7758 5.4986 -0.089 -0.763 0.640 85 82 31
-30.9717 92.9804 5.5042 0.652 -0.659 0.375 77 73 25
-29.8077 92.7917 5.5885 -0.074 -0.955 0.288 74 72 24
-29.6831 92.7522 5.5988 0.345 -0.935 0.088 77 75 27
-29.5249 92.8543 5.6017 0.377 -0.922 -0.087 82 78 31
-29.4334 92.6771 5.6192 -0.111 -0.950 0.293 85 81 34
-29.3299 92.5516 5.6339 -0.284 -0.859 0.426 87 83 36
-27.9278 93.3315 5.6682 -0.112 -0.337 0.935 95 92 42
-27.6271 93.4500 5.6788 0.315 -0.923 0.221 101 95 46
-27.4862 93.4720 5.6860 0.313 -0.940 -0.133 98 95 45
-25.8670 96.4303 5.5883 0.402 -0.911 0.095 94 93 37
-25.7495 96.3472 5.6011 0.540 -0.840 0.048 94 93 39
-25.5976 96.3892 5.6076 0.534 -0.844 0.047 95 92 37
-22.1597 96.1693 5.8340 0.595 -0.647 0.477 22 22 12
-86.0364 115.8975 0.4109 -0.498 -0.725 0.475 84 90 54
-85.7814 115.6900 0.4408 -0.460 -0.761 0.457 82 88 52
-85.4590 115.3067 0.4870 -0.457 -0.708 0.539 83 89 53
-85.2153 115.1242 0.5145 -0.446 -0.710 0.546 97 103 64
-86.4137 118.7009 0.1956 0.122 -0.880 0.460 105 112 70
-80.7061 119.9126 0.4642 -0.185 -0.830 -0.527 132 179 182
-47.4651 95.8478 4.1600 -0.147 -0.786 0.600 120 135 123
-47.3258 95.8375 4.1693 -0.144 -0.808 0.572 120 131 117
-47.1857 96.0524 4.1632 -0.103 -0.707 0.699 118 127 109
-35.9156 92.1682 5.1234 0.018 -0.874 0.485 109 107 56
-31.4833 93.0257 5.3376 0.354 -0.712 0.607 93 89 41
-31.4430 92.5842 5.3704 0.459 -0.682 0.569 91 87 39
-31.3041 92.6092 5.3772 0.084 -0.748 0.659 81 78 28
-31.1836 92.5482 5.3888 -0.046 -0.658 0.752 82 76 26
-30.9714 92.9085 5.3772 0.652 -0.659 0.375 79 74 24
-30.0591 92.7913 5.4414 -0.361 -0.567 0.741 80 79 31
-29.5454 92.6982 5.4794 -0.037 -0.957 0.287 82 78 33
-29.4171 92.6748 5.4889 -0.026 -0.953 0.302 85 81 34
-27.8970 93.3826 5.5341 0.236 -0.966 0.107 94 90 43
-27.7526 93.4186 5.5405 0.236 -0.966 0.107 96 92 46
-23.7618 95.4366 5.6480 0.218 -0.719 0.659 96 92 44
-23.5870 95.5546 5.6507 0.224 -0.727 0.649 99 96 45
-86.3943 113.7330 0.3692 -0.151 -0.575 0.804 92 102 65
-85.9529 115.6613 0.2609 -0.123 -0.990 0.065 82 88 54
-85.7661 115.6286 0.2747 -0.114 -0.987 0.116 83 89 53
-85.4213 115.1874 0.3269 -0.412 -0.791 0.452 86 92 56
-85.1717 114.9893 0.3562 -0.396 -0.799 0.453 97 103 65
-80.7620 120.0679 0.2710 -0.200 -0.832 -0.518 119 162 162
-80.5569 119.9958 0.2887 0.479 -0.166 0.862 118 158 158
-80.4531 120.2398 0.2780 0.479 -0.166 0.862 115 154 153
-80.1354 119.8140 0.3274 0.297 -0.329 0.896 113 150 151
-47.7357 95.9079 4.0021 0.175 -0.638 0.750 122 144 135
-47.1790 95.6577 4.0540 -0.163 -0.811 0.561 118 127 109
-35.9205 92.0494 5.0008 0.108 -0.813 0.573 109 107 55
-34.6752 92.3487 5.0565 -0.172 -0.780 0.602 17 18 10
-31.3624 92.8884 5.2226 0.298 -0.726 0.620 90 87 40
-31.3068 92.5228 5.2517 0.076 -0.766 0.639 77 73 25
-27.6446 93.7671 5.3898 0.115 -0.975 0.189 91 88 43
-27.5637 93.5569 5.4096 0.439 -0.865 -0.243 91 88 44
-27.4445 93.4952 5.4212 0.438 -0.896 0.067 91 89 41
-23.7875 95.2866 5.5206 0.355 -0.599 0.718 100 96 44
-23.6063 95.4261 5.5220 0.359 -0.581 0.731 105 99 48
-85.9575 115.6506 0.0899 -0.123 -0.990 0.065 81 86 53
-85.7467 115.5564 0.1096 -0.091 -0.990 0.105 84 90 56
-85.4135 115.1451 0.1598 -0.431 -0.776 0.460 90 96 62
-85.1742 114.9737 0.1868 -0.410 -0.785 0.465 97 103 66
-80.9603 119.5437 0.1173 -0.820 -0.460 -0.340 113 153 151
-80.3152 119.2272 0.1798 0.365 -0.271 0.891 125 159 156
-79.9012 119.0607 0.2173 0.500 -0.495 0.711 123 158 155
-78.8924 116.4417 0.4680 -0.567 -0.700 -0.434 123 158 155
-78.6774 116.3164 0.4903 -0.351 -0.835 -0.423 124 158 156
-56.0616 118.6601 1.7142 -0.795 -0.524 0.306 122 153 147
-55.8519 118.2968 1.7533 -0.688 -0.691 0.222 122 152 147
-49.7385 103.5532 3.1912 -0.959 -0.174 0.224 130 159 165
-47.3100 95.5730 3.9152 -0.057 -0.848 0.526 118 132 117
-35.9169 91.9857 4.8751 0.071 -0.820 0.567 108 106 53
-34.0837 91.1241 5.0500 -0.728 -0.542 0.420 112 105 50
