ply
format ascii 1.0
element vertex 888
property float x
property float y
property float z
property float nx
property float ny
property float nz
property uchar diffuse_red
property uchar diffuse_green
property uchar diffuse_blue
end_header
15.4475 84.3768 -77.6085 0.154 -0.787 0.598 36 29 13
15.6209 84.3967 -77.7819 -0.724 -0.244 0.645 30 24 9
15.8241 84.1489 -77.7795 -0.741 -0.226 0.632 28 22 8
15.9514 84.5969 -78.2353 0.165 -0.584 0.795 27 24 9
16.1122 84.7462 -78.4954 -0.021 -0.998 -0.063 30 29 11
16.3154 84.4997 -78.4939 -0.055 -0.995 -0.085 35 34 16
46.5987 54.8082 -83.6221 0.395 -0.769 0.502 16 12 9
44.8207 33.8971 -66.1430 0.636 -0.233 0.736 19 22 9
45.0299 33.7016 -66.1856 0.140 -0.506 0.851 58 63 41
45.1226 33.5645 -66.1664 0.169 -0.510 0.843 68 74 46
45.3298 33.8152 -66.5455 -0.860 -0.495 -0.126 63 70 40
45.4531 33.7805 -66.6318 -0.829 -0.546 -0.120 43 48 24
45.5748 33.7397 -66.7120 -0.885 -0.448 -0.126 19 23 10
45.6838 33.6572 -66.7489 -0.777 -0.576 -0.254 10 12 8
45.8010 33.6019 -66.8140 -0.632 -0.641 -0.436 9 10 11
44.0350 16.8177 -52.4751 -0.701 -0.685 -0.200 4 8 7
44.0835 16.6798 -52.4148 -0.477 -0.862 -0.174 6 8 5
44.1771 16.6589 -52.4844 -0.528 -0.839 -0.133 6 9 2
44.2609 16.6127 -52.5259 -0.528 -0.839 -0.133 24 32 14
44.3446 16.5666 -52.5673 -0.528 -0.839 -0.133 50 59 33
44.4283 16.5205 -52.6088 -0.528 -0.839 -0.133 54 63 33
44.6438 16.2946 -52.6342 -0.568 -0.780 -0.262 55 64 37
45.0261 15.9821 -52.7462 -0.442 -0.893 0.079 5 9 12
45.1154 15.9513 -52.8043 -0.239 -0.965 0.107 4 8 11
45.2280 15.9754 -52.9254 -0.091 -0.992 -0.087 4 8 8
45.3301 15.9742 -53.0177 -0.091 -0.992 -0.087 7 12 6
46.0668 15.7684 -53.5340 -0.944 -0.153 0.293 19 24 16
51.0943 25.6216 -65.5944 -0.559 -0.829 -0.004 14 16 11
51.2326 25.6397 -65.7344 -0.510 -0.860 0.021 8 12 10
52.0411 25.1384 -66.0922 -0.287 -0.955 -0.072 59 69 32
52.1699 25.1338 -66.2063 -0.405 -0.909 -0.096 64 75 34
52.2959 25.1231 -66.3132 -0.488 -0.855 -0.179 67 78 34
52.4021 25.0715 -66.3711 -0.471 -0.870 -0.147 68 79 37
52.5208 25.0452 -66.4594 -0.171 -0.960 -0.221 64 74 39
52.6553 25.0510 -66.5866 -0.186 -0.941 -0.284 35 43 21
65.2432 37.4301 -87.4634 -0.177 -0.979 -0.103 8 12 12
-26.8022 114.1251 -61.9796 -0.667 -0.724 0.177 46 57 27
-26.5640 113.9499 -62.0640 -0.665 -0.721 0.195 52 64 36
4.0403 81.8181 -65.5733 0.296 -0.637 -0.712 84 93 50
14.8019 84.2412 -77.2571 0.431 -0.845 0.316 44 37 19
14.9565 84.4119 -77.5285 0.213 -0.856 0.471 37 30 14
15.1447 84.2992 -77.6148 0.206 -0.854 0.477 31 24 8
15.3321 84.1939 -77.7057 0.146 -0.791 0.595 29 23 9
15.4947 84.3061 -77.9400 -0.696 -0.717 0.041 30 24 12
15.6771 84.2468 -78.0615 -0.766 -0.643 0.000 34 28 15
15.8164 84.5821 -78.4441 0.121 -0.589 0.799 35 32 16
44.6391 33.9785 -66.2575 0.580 -0.237 0.779 17 19 13
44.8543 33.8017 -66.3196 -0.060 -0.435 0.898 54 58 40
44.9327 33.6137 -66.2482 -0.034 -0.443 0.896 61 66 43
45.5320 33.8361 -66.9654 -0.855 -0.505 -0.120 8 14 5
44.0156 16.8985 -52.6803 -0.688 -0.698 -0.198 4 8 7
44.0537 16.7327 -52.5888 -0.451 -0.878 -0.163 6 8 4
44.1419 16.6974 -52.6426 -0.451 -0.878 -0.163 9 12 3
44.2212 16.6393 -52.6708 -0.521 -0.842 -0.144 28 35 17
44.3173 16.6241 -52.7471 -0.544 -0.827 -0.140 47 56 31
44.6193 16.3565 -52.8194 -0.541 -0.780 -0.316 40 48 28
45.0662 15.9507 -52.9190 -0.239 -0.965 0.107 5 9 11
45.1780 15.9729 -53.0381 -0.124 -0.978 -0.170 3 7 6
45.6658 15.9095 -53.4358 -0.531 -0.788 0.313 40 44 26
45.9859 15.4629 -53.3883 -0.801 -0.352 0.484 14 19 14
51.0456 25.6466 -65.7694 -0.640 -0.766 0.062 8 10 9
51.0967 24.9136 -65.2579 -0.216 -0.947 -0.238 5 9 10
52.0027 25.1817 -66.2903 -0.295 -0.952 -0.076 66 77 35
52.1350 25.1841 -66.4132 -0.438 -0.887 -0.147 67 78 35
52.2673 25.1860 -66.5355 -0.488 -0.855 -0.179 68 79 35
52.3592 25.1045 -66.5575 -0.466 -0.871 -0.155 67 77 39
52.4886 25.0998 -66.6723 -0.171 -0.960 -0.221 54 63 35
52.6390 25.1374 -66.8384 -0.046 -0.951 -0.306 22 28 14
-27.1681 114.6241 -62.4060 -0.886 -0.451 0.105 47 58 26
3.8321 78.1625 -62.9047 -0.589 -0.711 -0.384 77 85 48
3.9498 83.7475 -67.2841 -0.383 -0.740 -0.553 63 69 31
6.8104 74.6863 -62.9730 0.649 -0.723 -0.236 57 59 38
14.3478 83.9930 -76.9929 0.136 -0.746 0.652 48 41 24
14.5093 84.0927 -77.2171 0.199 -0.705 0.681 40 33 17
14.6929 84.0146 -77.3255 0.433 -0.857 0.278 32 26 10
14.8331 84.3015 -77.6733 0.213 -0.856 0.471 28 22 6
15.0213 84.1887 -77.7593 0.206 -0.854 0.477 30 24 10
15.2101 84.0696 -77.8411 0.146 -0.791 0.595 35 29 15
15.3416 84.4524 -78.2543 -0.692 -0.721 0.038 39 33 21
15.5228 84.4062 -78.3849 -0.764 -0.645 -0.008 40 34 21
45.4250 33.7182 -66.9972 -0.790 -0.591 -0.164 5 10 4
44.0041 17.0003 -52.9096 -0.703 -0.683 -0.198 6 8 7
44.0260 16.7914 -52.7699 -0.450 -0.877 -0.168 7 9 6
44.1102 16.7451 -52.8116 -0.451 -0.878 -0.163 13 16 9
44.2126 16.7457 -52.9058 -0.699 -0.682 -0.217 30 34 20
44.2985 16.7040 -52.9526 -0.711 -0.673 -0.204 43 50 32
44.3717 16.6298 -52.9628 -0.711 -0.673 -0.204 49 57 35
44.4318 16.5234 -52.9365 -0.716 -0.675 -0.180 48 55 35
44.5133 16.4711 -52.9711 -0.713 -0.674 -0.194 34 41 24
45.0135 15.9420 -53.0244 -0.253 -0.966 0.059 4 8 10
45.1118 15.9322 -53.1070 0.069 -0.953 -0.296 3 8 5
45.5810 15.8264 -53.4557 -0.740 -0.491 0.461 59 64 36
45.7431 15.7243 -53.5260 -0.733 -0.426 0.530 24 28 14
45.8182 15.6598 -53.5454 -0.760 -0.365 0.538 8 11 3
45.8739 15.5519 -53.5139 -0.741 -0.374 0.557 6 11 6
45.9491 15.4886 -53.5344 -0.782 -0.369 0.503 7 11 10
46.0533 15.4905 -53.6313 -0.711 -0.473 0.520 8 12 12
46.1709 15.5217 -53.7628 -0.762 -0.454 0.461 12 16 16
46.2333 15.4300 -53.7499 -0.762 -0.454 0.461 11 13 13
46.2768 15.2974 -53.6883 -0.724 -0.466 0.508 6 7 9
46.3590 15.2504 -53.7276 -0.819 -0.331 0.469 4 8 11
46.6226 14.9242 -53.7194 -0.814 -0.449 0.367 22 30 18
51.7582 25.3433 -66.3909 -0.536 -0.841 -0.076 57 67 32
51.8570 25.2753 -66.4294 -0.535 -0.842 -0.071 66 77 35
51.9690 25.2353 -66.5013 -0.298 -0.946 -0.127 68 79 37
52.3181 25.1415 -66.7492 -0.147 -0.965 -0.216 67 76 43
52.4439 25.1291 -66.8549 -0.143 -0.963 -0.227 42 49 29
62.6317 41.2864 -88.5413 0.598 -0.798 0.075 12 17 11
62.8424 41.3471 -88.7807 0.595 -0.802 0.050 9 13 11
-27.0152 114.2350 -62.6292 -0.883 -0.449 0.140 40 54 21
2.3292 78.3633 -61.9870 0.587 -0.705 -0.398 60 67 33
2.7813 78.3165 -62.3656 -0.304 -0.873 -0.381 62 70 33
3.8022 79.6776 -64.3474 0.404 -0.625 -0.668 81 89 52
3.6353 83.8434 -67.3942 -0.283 -0.836 -0.470 62 68 31
6.5579 74.6033 -62.9769 0.611 -0.769 -0.187 52 53 33
6.5755 75.2098 -63.4589 0.581 -0.763 -0.284 49 50 34
13.5871 84.8021 -77.2577 -0.607 -0.657 0.446 49 42 24
13.8214 84.3328 -77.1120 -0.608 -0.667 0.431 47 40 24
14.0289 84.0663 -77.0975 -0.619 -0.661 0.424 42 36 20
14.3913 83.9443 -77.3363 0.199 -0.705 0.681 28 22 8
14.5647 83.9488 -77.4987 0.128 -0.788 0.603 30 24 10
14.7097 84.1912 -77.8179 0.213 -0.856 0.471 36 30 16
14.8848 84.1893 -77.9770 0.199 -0.856 0.477 38 32 18
46.5571 55.1528 -84.7201 0.399 -0.427 0.811 24 24 17
45.3840 34.2763 -67.6081 -0.799 -0.497 -0.337 7 13 5
45.3808 33.8109 -67.2478 -0.793 -0.592 -0.142 5 10 5
43.9354 16.9531 -52.9730 -0.353 -0.920 -0.172 6 8 7
43.9732 16.7851 -52.8786 -0.186 -0.982 0.039 7 9 6
44.0762 16.7875 -52.9749 -0.405 -0.914 -0.023 12 14 9
44.1709 16.7680 -53.0469 -0.599 -0.795 -0.101 24 27 20
44.2528 16.7155 -53.0816 -0.583 -0.804 -0.118 36 42 30
44.3524 16.7082 -53.1673 -0.693 -0.685 -0.224 41 47 33
44.4351 16.6580 -53.2047 -0.615 -0.722 -0.317 34 40 27
44.5311 16.6410 -53.2796 -0.375 -0.845 -0.381 15 21 11
49.0492 27.0065 -65.3854 -0.976 -0.194 0.099 5 9 10
45.0118 16.0560 -53.2711 -0.427 -0.887 -0.174 5 9 11
45.0960 16.0117 -53.3143 0.095 -0.953 -0.287 4 8 5
45.4002 16.0003 -53.5845 -0.609 -0.739 0.287 57 65 29
45.5321 15.8263 -53.5718 -0.720 -0.491 0.490 70 77 39
45.6176 15.7853 -53.6188 -0.756 -0.417 0.505 61 66 33
46.3634 15.1383 -53.8057 -0.821 -0.326 0.468 3 7 8
46.4286 15.0548 -53.8014 -0.818 -0.444 0.366 4 9 4
46.4888 14.9611 -53.7846 -0.819 -0.447 0.360 21 29 16
46.5477 14.8653 -53.7651 -0.818 -0.444 0.366 40 50 29
51.8169 24.2298 -65.7908 -0.318 -0.943 -0.093 59 68 38
53.0434 24.8560 -67.3966 -0.494 -0.868 -0.043 4 8 7
61.8844 40.6802 -87.6600 0.007 -0.987 -0.158 27 33 18
62.1278 40.8091 -87.9823 -0.031 -0.992 -0.118 31 38 24
62.4797 41.1437 -88.5620 0.593 -0.804 0.045 21 27 15
62.7392 41.2983 -88.9188 0.605 -0.795 0.046 11 16 11
62.9547 41.3672 -89.1694 0.605 -0.794 0.060 6 10 11
63.2302 41.5480 -89.5609 0.605 -0.794 0.060 7 10 14
-27.4815 114.9857 -63.1615 -0.883 -0.449 0.140 46 60 27
3.1720 77.9955 -62.7829 -0.411 -0.784 -0.465 84 92 51
3.2959 78.7204 -63.4558 -0.345 -0.791 -0.505 81 89 49
3.4350 78.7617 -63.6155 -0.345 -0.791 -0.505 80 88 51
3.5518 78.9006 -63.8299 0.187 -0.666 -0.722 78 85 50
3.4979 81.0979 -65.4755 0.351 -0.632 -0.691 68 75 42
6.2584 74.7404 -63.1068 0.594 -0.785 -0.176 50 52 31
6.3753 74.8763 -63.3190 0.594 -0.785 -0.176 44 45 27
13.4679 84.6642 -77.3848 -0.418 -0.838 -0.350 47 40 24
13.8914 84.0747 -77.3191 -0.441 -0.772 0.458 32 27 13
14.0917 83.8626 -77.3395 -0.416 -0.851 0.321 28 24 12
14.4593 83.6976 -77.5498 -0.236 -0.971 -0.025 36 32 20
14.6366 83.6678 -77.6898 -0.116 -0.982 0.149 40 35 21
45.3940 34.0988 -67.7026 -0.687 -0.611 -0.394 4 8 7
43.9185 17.0421 -53.1889 -0.381 -0.922 -0.068 6 8 7
43.9359 16.8196 -53.0333 -0.183 -0.980 0.075 5 7 5
44.0407 16.8263 -53.1347 -0.425 -0.905 -0.027 9 11 8
44.2415 16.8158 -53.3111 -0.527 -0.821 -0.218 24 29 22
44.3544 16.8416 -53.4346 -0.615 -0.721 -0.319 26 31 24
44.4292 16.7701 -53.4482 -0.615 -0.722 -0.317 18 23 15
44.5257 16.7536 -53.5241 -0.375 -0.845 -0.381 5 11 6
49.0530 27.1703 -65.7187 -0.993 -0.092 0.070 5 9 12
45.0611 16.0461 -53.4701 0.006 -0.957 -0.292 10 15 11
45.2833 16.0843 -53.7037 -0.085 -0.973 -0.216 54 63 36
45.3573 16.0152 -53.7184 -0.693 -0.716 0.087 64 71 35
45.6801 15.3316 -53.4875 -0.570 -0.765 -0.300 26 31 22
46.0342 15.4322 -53.8904 -0.214 -0.923 -0.321 6 10 13
46.3100 15.1262 -53.9077 -0.821 -0.326 0.468 8 12 13
46.3685 15.0278 -53.8855 -0.820 -0.428 0.380 11 16 9
46.4402 14.9589 -53.8981 -0.819 -0.447 0.360 32 40 24
46.4876 14.8380 -53.8485 -0.771 -0.530 0.352 50 60 36
51.9031 24.2606 -66.0919 -0.157 -0.953 -0.260 22 28 15
60.3198 39.8087 -85.8178 -0.384 -0.624 0.680 3 7 10
53.0057 24.8980 -67.5965 -0.550 -0.835 -0.006 2 6 6
61.5645 40.8944 -87.7987 -0.041 -0.985 -0.166 17 22 14
61.6758 40.7673 -87.8028 -0.111 -0.989 -0.099 35 41 27
61.8971 40.8543 -88.0732 -0.099 -0.992 -0.078 51 58 38
62.0662 40.8390 -88.2167 -0.031 -0.992 -0.118 52 59 39
62.2518 40.8550 -88.3996 -0.031 -0.992 -0.118 38 45 29
62.4379 40.8710 -88.5829 -0.031 -0.992 -0.118 17 23 15
62.6795 40.9918 -88.8981 0.137 -0.965 -0.225 6 10 11
63.0189 41.2955 -89.4441 0.369 -0.903 -0.221 7 10 16
5.4616 51.1414 -44.3901 -0.001 -0.966 0.257 58 65 31
-8.6663 101.1028 -70.1002 -0.922 -0.369 0.118 40 49 20
-8.2091 100.1110 -69.7524 -0.918 -0.396 0.036 29 37 13
2.0933 77.6938 -61.8629 0.611 -0.709 -0.352 66 74 37
2.1971 77.8614 -62.0883 0.608 -0.710 -0.354 67 75 38
2.8150 78.3333 -63.0223 -0.424 -0.784 -0.453 84 92 53
2.9358 78.4452 -63.2201 -0.133 -0.892 -0.432 83 91 52
3.0994 79.6368 -64.2939 -0.566 -0.666 -0.485 75 81 48
5.9518 75.5798 -63.7749 0.562 -0.806 -0.184 44 45 28
5.8330 76.8130 -64.6210 0.747 -0.662 -0.057 41 42 26
13.1628 84.6198 -77.4130 -0.328 -0.833 -0.446 46 38 25
14.6751 74.4829 -70.9507 -0.647 -0.717 -0.257 37 31 17
13.7634 84.0082 -77.4918 -0.678 -0.731 -0.071 27 24 9
14.3181 83.7384 -77.7930 -0.236 -0.971 -0.025 38 31 18
46.0059 54.3644 -84.1886 0.405 -0.323 0.855 19 15 12
44.0704 36.4299 -68.5129 -0.507 -0.618 0.601 20 20 10
43.8854 16.8201 -53.1499 -0.183 -0.980 0.075 5 7 6
44.2878 16.8006 -53.5051 -0.518 -0.838 -0.171 11 16 10
48.9354 27.3560 -65.9588 -0.980 -0.107 0.170 5 9 12
45.2295 16.0739 -53.8084 -0.513 -0.858 0.020 57 66 38
45.3254 16.0561 -53.8828 -0.708 -0.691 0.147 63 71 35
45.6674 15.4129 -53.6992 -0.565 -0.770 -0.295 25 27 21
45.9785 15.4157 -53.9875 -0.238 -0.911 -0.336 6 7 9
46.2389 15.3029 -54.1397 -0.274 -0.909 -0.314 3 6 11
46.3242 15.0353 -54.0108 -0.797 -0.440 0.414 12 16 12
46.4063 14.9885 -54.0501 -0.816 -0.475 0.330 32 37 27
46.4408 14.8395 -53.9664 -0.698 -0.516 0.496 50 57 38
51.8779 24.3290 -66.3208 -0.207 -0.932 -0.297 17 23 11
52.0014 24.3156 -66.4240 -0.221 -0.939 -0.262 4 9 7
60.0514 39.7682 -85.8021 -0.079 -0.759 0.646 6 9 14
60.2042 39.7301 -85.9132 -0.391 -0.626 0.674 3 6 10
61.6459 40.8599 -88.1149 -0.111 -0.989 -0.099 52 61 36
61.8322 40.8785 -88.3008 -0.099 -0.992 -0.078 61 70 40
62.0067 40.8735 -88.4574 -0.099 -0.992 -0.078 63 71 45
62.1902 40.8850 -88.6351 -0.031 -0.992 -0.118 50 58 38
62.3764 40.9011 -88.8190 -0.031 -0.992 -0.118 20 26 18
63.8580 39.9995 -89.4835 -0.750 -0.661 0.020 4 9 5
64.0471 40.0168 -89.6708 -0.717 -0.693 0.079 9 15 4
64.1607 39.8978 -89.6832 -0.717 -0.693 0.079 37 44 26
64.2741 39.7790 -89.6955 -0.717 -0.693 0.079 60 69 39
64.4016 39.6857 -89.7404 -0.693 -0.718 0.073 71 81 48
64.5445 39.6200 -89.8211 -0.704 -0.704 0.096 71 80 52
-27.4644 114.9405 -63.9115 -0.913 -0.394 0.107 51 62 32
5.3601 51.1652 -44.5361 0.014 -0.965 0.263 60 67 33
-8.6125 100.9704 -70.4131 -0.924 -0.380 0.041 31 39 15
2.7483 78.6878 -63.5442 -0.115 -0.894 -0.434 78 85 50
13.9095 74.5667 -70.6224 -0.148 -0.925 -0.350 51 43 24
12.6779 84.6266 -77.3149 -0.223 -0.961 -0.166 49 40 23
13.6415 83.8956 -77.6340 -0.312 -0.939 0.145 36 33 18
13.8179 83.8711 -77.7776 -0.347 -0.926 0.147 38 34 21
43.8871 36.0190 -68.2527 0.207 -0.776 0.596 17 17 9
44.0050 34.9370 -67.5195 -0.684 -0.258 0.683 22 23 12
43.8724 16.9191 -53.3779 -0.241 -0.906 -0.349 6 8 7
43.9748 16.9189 -53.4722 -0.257 -0.902 -0.348 6 8 7
44.0766 16.9165 -53.5640 -0.384 -0.844 -0.374 8 10 7
44.2421 17.0782 -53.8424 -0.309 -0.834 -0.458 7 12 8
45.1795 16.0725 -53.9237 -0.523 -0.851 0.037 58 67 38
45.2619 16.0228 -53.9610 -0.720 -0.686 0.109 61 68 35
45.3493 15.9847 -54.0118 -0.718 -0.684 0.134 61 68 34
45.4197 15.9071 -54.0163 -0.773 -0.621 0.127 64 71 38
45.4979 15.8481 -54.0425 -0.753 -0.646 0.125 61 67 36
45.5453 15.7180 -53.9849 -0.364 -0.906 -0.217 52 58 35
45.6224 15.6574 -54.0089 -0.677 -0.725 -0.126 36 40 26
45.6822 15.5573 -53.9860 -0.620 -0.770 -0.154 19 22 18
45.7442 15.4630 -53.9698 -0.622 -0.771 -0.136 10 11 13
45.9641 15.4920 -54.1950 -0.385 -0.915 -0.122 4 6 7
46.2065 15.3376 -54.2982 -0.260 -0.904 -0.339 5 9 11
46.3146 15.3464 -54.4047 -0.260 -0.904 -0.339 8 12 13
46.3967 15.2980 -54.4427 -0.275 -0.900 -0.337 6 11 8
46.4254 15.1337 -54.3413 -0.490 -0.856 -0.164 18 23 17
61.5839 40.8905 -88.3503 -0.111 -0.989 -0.099 60 69 40
61.7672 40.9028 -88.5287 -0.099 -0.992 -0.078 64 74 41
61.9418 40.8978 -88.6857 -0.099 -0.992 -0.078 66 75 47
62.1123 40.8841 -88.8322 -0.089 -0.986 -0.142 44 52 32
64.1250 39.9693 -89.9751 -0.661 -0.749 0.055 40 46 31
64.2449 39.8615 -90.0017 -0.661 -0.749 0.055 60 68 44
64.3525 39.7320 -90.0000 -0.700 -0.708 0.095 65 74 48
64.4850 39.6475 -90.0564 -0.704 -0.704 0.096 59 67 45
1.5066 75.6335 -60.3208 0.279 -0.771 -0.573 62 69 35
2.4919 79.2114 -64.0260 -0.237 -0.902 -0.361 69 76 44
2.6446 81.0890 -65.6340 -0.137 -0.795 -0.591 63 67 40
13.6331 74.5294 -70.6499 -0.125 -0.925 -0.359 52 45 25
14.3071 75.3630 -71.9234 -0.643 -0.640 -0.422 32 26 12
13.5171 83.8020 -77.7886 -0.391 -0.916 0.087 38 35 20
43.9750 37.7138 -69.8855 0.207 -0.936 0.286 21 20 15
43.7743 35.8752 -68.2635 0.266 -0.739 0.619 15 15 8
45.2295 16.0631 -54.1253 -0.720 -0.685 0.111 60 66 37
45.3059 15.9988 -54.1455 -0.737 -0.667 0.111 58 65 36
45.4475 15.8451 -54.1561 -0.699 -0.695 -0.171 53 58 35
45.7185 15.5151 -54.1483 -0.622 -0.771 -0.136 6 10 12
45.9311 15.5270 -54.3539 -0.385 -0.915 -0.122 1 5 4
46.0496 15.5594 -54.4885 0.063 -0.879 0.473 4 8 5
46.1704 15.3645 -54.4477 -0.654 -0.739 0.162 12 16 13
46.2617 15.3363 -54.5100 -0.257 -0.903 -0.344 10 15 10
46.8558 15.0395 -54.8264 -0.050 -0.995 0.089 59 70 31
47.1415 14.9779 -55.0419 -0.087 -0.962 0.258 17 23 11
61.5458 40.9680 -88.6449 -0.064 -0.992 -0.112 65 74 41
61.7269 40.9759 -88.8183 -0.064 -0.992 -0.112 63 73 39
61.8662 40.9015 -88.8887 -0.100 -0.991 -0.092 55 63 37
62.0561 40.9253 -89.0825 -0.089 -0.986 -0.142 32 39 21
63.6556 39.9071 -89.7632 0.006 -0.974 -0.228 6 11 6
63.9438 40.1040 -90.1831 -0.730 -0.641 0.237 11 16 9
64.1223 40.1006 -90.3451 -0.745 -0.663 0.071 31 37 25
64.2331 39.9756 -90.3497 -0.745 -0.663 0.071 49 56 41
64.3450 39.8531 -90.3573 -0.766 -0.639 0.072 52 59 43
64.4358 39.6936 -90.3165 -0.680 -0.676 0.284 38 44 31
64.5632 39.5997 -90.3606 -0.353 -0.684 0.639 24 30 20
-28.0322 115.9404 -64.9439 -0.908 -0.413 0.070 49 60 30
3.4523 66.7582 -55.4525 -0.581 -0.811 0.070 62 69 35
2.4582 78.2121 -63.5219 0.506 -0.505 0.700 64 73 41
2.3935 79.0814 -64.1444 -0.254 -0.901 -0.352 61 70 41
8.5274 64.5933 -58.4449 -0.494 -0.814 0.306 29 29 17
44.9264 16.1991 -54.1149 -0.356 -0.931 0.078 36 42 29
45.0278 16.1943 -54.2049 -0.428 -0.897 0.113 52 59 41
45.1090 16.1408 -54.2380 -0.726 -0.677 0.123 52 60 38
45.1917 16.0910 -54.2754 -0.726 -0.680 0.106 53 61 37
45.2654 16.0198 -54.2876 -0.737 -0.667 0.111 57 62 41
45.3401 15.9517 -54.3032 -0.749 -0.646 -0.150 51 55 37
45.4208 15.8976 -54.3353 -0.644 -0.723 -0.249 35 39 25
45.9873 15.5288 -54.5696 -0.564 -0.770 0.299 8 14 5
46.0665 15.4728 -54.5989 -0.562 -0.770 0.304 22 28 17
46.1496 15.4259 -54.6390 -0.513 -0.790 0.335 26 32 18
46.7966 15.2388 -55.0902 -0.639 -0.489 0.594 29 36 18
46.8153 15.0551 -54.9633 0.099 -0.895 0.434 43 51 25
46.9094 15.0321 -55.0322 0.099 -0.895 0.434 44 53 28
61.9850 40.9381 -89.2976 0.023 -0.967 -0.253 22 29 13
63.3593 40.8257 -90.4798 -0.283 -0.593 0.754 5 9 10
63.3888 40.5462 -90.2878 -0.737 -0.618 0.273 5 9 8
63.4983 40.4160 -90.2868 -0.737 -0.618 0.273 6 11 7
63.4055 39.9161 -89.8087 0.006 -0.974 -0.228 4 8 7
63.6162 39.9735 -90.0485 0.006 -0.974 -0.228 5 9 8
63.8015 39.9838 -90.2279 0.003 -0.975 -0.222 10 15 11
64.0664 40.1370 -90.5930 -0.745 -0.663 0.071 15 20 15
64.1775 40.0117 -90.5973 -0.745 -0.663 0.071 26 31 26
64.2938 39.8965 -90.6145 -0.767 -0.638 0.071 29 34 28
64.3914 39.7485 -90.5886 -0.699 -0.661 0.271 21 26 21
64.4546 39.5406 -90.4839 -0.353 -0.684 0.639 13 18 14
-28.4009 116.8706 -65.7257 -0.797 -0.572 0.194 36 49 19
-28.0048 116.3075 -65.6487 -0.790 -0.576 0.210 48 63 32
2.7561 67.4864 -55.6536 -0.304 -0.836 0.456 59 69 34
2.8683 67.5489 -55.8067 -0.275 -0.832 0.482 59 69 34
2.4045 77.9067 -63.5402 -0.068 -0.954 -0.293 59 68 37
2.3766 78.6203 -64.0767 -0.229 -0.849 -0.476 61 67 39
2.4032 79.1190 -64.4944 -0.338 -0.819 -0.463 61 67 41
2.2500 80.3667 -65.3358 0.217 -0.815 -0.537 60 65 42
8.3230 64.4118 -58.3847 0.681 -0.607 0.409 27 27 17
43.0095 35.0464 -67.3570 0.880 -0.437 0.188 18 19 11
44.4691 15.9556 -53.6632 0.240 -0.917 -0.318 5 10 6
44.9136 16.2892 -54.3376 -0.499 -0.843 0.201 37 43 29
44.9942 16.2335 -54.3684 -0.701 -0.691 0.177 45 52 36
45.0673 16.1600 -54.3782 -0.726 -0.677 0.123 47 54 36
45.1567 16.1258 -54.4340 -0.714 -0.700 -0.025 48 55 37
45.2295 16.0520 -54.4432 -0.714 -0.700 -0.025 48 55 39
45.8632 15.5938 -54.6688 -0.507 -0.809 0.296 3 7 4
45.9361 15.5232 -54.6807 -0.564 -0.770 0.299 13 19 7
46.0152 15.4667 -54.7093 -0.562 -0.770 0.304 35 43 24
46.0965 15.4157 -54.7445 -0.513 -0.790 0.335 44 52 29
46.2213 15.4609 -54.8956 -0.116 -0.991 0.065 37 45 23
46.3238 15.4561 -54.9868 0.320 -0.794 0.517 26 33 17
46.3402 14.8095 -54.4924 -0.168 -0.977 0.131 8 13 9
46.7665 15.0529 -55.0788 0.099 -0.887 0.452 17 23 9
46.8550 15.0180 -55.1333 0.098 -0.893 0.439 20 27 13
52.5537 24.5819 -67.9467 -0.734 -0.664 0.147 49 57 31
52.6123 24.4340 -67.8844 -0.824 -0.427 0.373 58 68 33
61.9467 41.0148 -89.5939 0.023 -0.967 -0.253 18 24 10
63.0964 40.4797 -90.2366 0.275 -0.961 0.023 5 9 8
63.5841 40.3833 -90.6122 -0.412 -0.745 0.524 7 12 8
63.5767 40.0402 -90.3349 0.006 -0.974 -0.228 8 12 11
63.7611 40.0485 -90.5123 0.003 -0.975 -0.222 9 13 13
63.9867 40.1305 -90.7857 -0.698 -0.664 0.269 8 12 11
64.0997 40.0083 -90.7940 -0.698 -0.664 0.269 11 15 15
64.2504 39.9543 -90.8910 -0.765 -0.606 0.215 11 15 15
64.3315 39.7762 -90.8258 -0.692 -0.668 0.273 12 16 16
64.3818 39.5448 -90.6900 -0.315 -0.694 0.647 5 9 10
-28.2465 116.4791 -65.9526 -0.886 -0.459 0.065 43 57 26
7.6280 64.0962 -57.7621 0.008 -0.986 -0.167 32 34 20
7.7610 64.0829 -57.8750 0.684 -0.699 -0.209 31 31 19
7.8562 64.2393 -58.0871 0.684 -0.699 -0.209 29 29 17
7.9874 64.2368 -58.2067 0.644 -0.718 -0.263 28 28 16
13.0761 73.6506 -70.3761 -0.697 -0.717 0.026 46 44 21
13.1862 73.9538 -70.7182 -0.699 -0.711 0.082 40 38 18
42.8771 34.8151 -67.2755 0.880 -0.437 0.188 19 21 10
43.0744 35.0707 -67.6607 0.875 -0.413 0.252 27 30 11
44.7361 16.2302 -54.2905 0.005 -0.971 -0.237 19 24 16
44.8903 16.3544 -54.5319 -0.751 -0.646 0.138 37 43 33
44.9454 16.2362 -54.4894 -0.727 -0.675 0.127 43 49 37
45.0169 16.1585 -54.4941 -0.727 -0.675 0.127 43 49 36
45.1236 16.1656 -54.5987 -0.714 -0.700 -0.025 39 45 33
45.7263 15.6303 -54.7340 -0.533 -0.794 0.293 6 10 11
45.8112 15.5864 -54.7780 -0.507 -0.809 0.296 5 10 4
45.8862 15.5205 -54.7954 -0.513 -0.798 0.315 19 26 11
45.9686 15.4714 -54.8329 -0.533 -0.782 0.322 44 52 28
46.0634 15.4502 -54.9040 -0.440 -0.766 0.468 54 63 34
46.1670 15.4483 -54.9987 -0.159 -0.979 0.128 53 62 32
46.2480 15.3959 -55.0322 0.320 -0.794 0.517 45 53 29
46.2253 14.8890 -54.6100 -0.447 -0.853 -0.271 21 27 17
46.3119 14.8516 -54.6607 -0.453 -0.836 -0.309 14 19 13
46.7632 15.1482 -55.3141 -0.216 -0.910 0.354 10 15 10
46.8500 15.1089 -55.3633 -0.208 -0.914 0.349 12 17 11
46.9369 15.0700 -55.4132 -0.208 -0.914 0.349 11 16 10
62.9761 40.3987 -90.3329 0.242 -0.970 0.019 6 11 5
63.2951 40.3239 -90.5696 0.061 -0.996 -0.065 16 21 12
63.4822 40.3370 -90.7534 -0.003 -0.994 -0.112 18 23 17
63.6743 40.3584 -90.9485 -0.003 -0.994 -0.112 15 19 17
63.7207 40.1135 -90.7977 0.003 -0.975 -0.222 9 13 13
63.9727 40.2432 -91.1341 -0.758 -0.606 0.242 8 12 13
64.0737 40.0985 -91.1132 -0.765 -0.606 0.215 5 9 12
64.1807 39.9655 -91.1072 -0.765 -0.606 0.215 6 10 13
64.2757 39.8116 -91.0734 -0.766 -0.576 0.285 6 10 14
50.8527 13.8910 -58.1113 0.136 -0.988 -0.067 52 60 38
50.9797 13.9179 -58.2504 0.136 -0.988 -0.067 72 81 50
51.0916 13.9188 -58.3548 -0.052 -0.998 -0.017 73 83 47
-9.2382 102.2016 -72.6531 -0.946 -0.202 0.254 31 35 10
3.0572 66.0024 -55.3021 0.513 -0.839 -0.180 68 79 39
3.1434 66.1539 -55.5026 0.515 -0.841 -0.165 76 84 43
1.2400 75.8118 -61.4108 0.049 -0.497 0.867 79 87 46
1.3895 75.7833 -61.5269 0.033 -0.494 0.869 75 83 42
2.0753 77.6071 -63.6134 0.018 -0.734 -0.679 59 65 37
2.0766 78.1890 -64.0772 0.175 -0.827 -0.535 57 63 36
3.7601 75.4815 -63.4889 -0.395 -0.919 0.012 42 45 28
3.8756 75.6055 -63.6947 -0.572 -0.818 0.053 45 46 30
42.9242 34.7700 -67.5072 0.874 -0.418 0.247 36 39 20
44.0778 34.0929 -68.0405 0.891 -0.421 0.170 5 10 6
44.7023 16.2702 -54.4550 0.005 -0.971 -0.237 17 22 18
44.8403 16.3547 -54.6503 -0.537 -0.829 0.158 32 37 31
44.8897 16.2222 -54.5910 -0.492 -0.844 0.216 38 44 36
45.1600 16.3727 -54.9616 -0.460 -0.811 -0.361 29 34 27
50.0069 26.4489 -67.4719 -0.917 -0.372 -0.144 4 8 9
45.6702 15.6140 -54.8325 -0.498 -0.802 0.329 5 9 9
45.7484 15.5549 -54.8582 -0.498 -0.802 0.329 9 14 6
45.8219 15.4855 -54.8712 -0.517 -0.795 0.316 31 38 20
45.9104 15.4501 -54.9254 -0.499 -0.779 0.380 48 56 30
46.0080 15.4352 -55.0042 -0.451 -0.760 0.467 54 64 31
46.1191 15.4498 -55.1189 -0.167 -0.972 0.167 56 66 33
46.1908 15.3769 -55.1276 -0.305 -0.932 0.194 55 64 33
46.2640 15.3074 -55.1403 -0.316 -0.936 0.154 51 59 36
46.2173 14.9763 -54.8338 -0.661 -0.676 -0.326 40 47 31
46.2763 14.8783 -54.8107 -0.667 -0.672 -0.321 30 36 26
46.7267 15.1731 -55.4634 -0.501 -0.759 0.417 7 11 10
46.8068 15.1193 -55.4950 -0.503 -0.756 0.419 6 10 8
46.8786 15.0481 -55.5052 -0.208 -0.914 0.349 6 11 9
47.2515 15.1646 -55.9441 -0.446 -0.872 -0.202 5 11 10
47.5827 15.1881 -56.2703 -0.473 -0.804 -0.360 46 54 36
47.6773 15.1628 -56.3380 -0.473 -0.804 -0.360 57 65 41
47.7123 15.0166 -56.2544 -0.556 -0.789 -0.262 62 71 40
47.7967 14.9712 -56.2967 -0.556 -0.789 -0.262 61 71 35
47.8893 14.9422 -56.3597 -0.383 -0.887 -0.260 66 74 35
48.0094 14.9679 -56.4916 -0.422 -0.888 -0.183 68 76 39
61.6117 41.0132 -89.8263 0.079 -0.947 -0.312 28 32 16
50.5579 13.8428 -57.9645 0.169 -0.963 -0.209 4 9 4
50.8234 13.9181 -58.2709 0.120 -0.991 -0.066 61 70 45
50.9489 13.9423 -58.4067 0.120 -0.991 -0.066 68 77 46
51.0539 13.9313 -58.4954 -0.062 -0.998 -0.012 72 82 47
51.1742 13.9458 -58.6188 -0.350 -0.935 -0.055 69 79 44
51.2733 13.9245 -58.6938 -0.423 -0.906 0.009 62 71 40
-28.5629 116.8356 -66.7303 -0.902 -0.430 0.043 41 52 22
2.7702 65.7100 -55.0723 0.525 -0.839 -0.141 64 72 33
2.8715 65.8016 -55.2395 0.510 -0.843 -0.171 69 77 37
2.9643 65.9257 -55.4249 0.509 -0.844 -0.167 77 85 44
3.0389 66.1186 -55.6483 0.515 -0.841 -0.165 80 88 47
3.1405 66.2143 -55.8193 0.515 -0.841 -0.165 79 88 45
1.2701 75.2211 -61.2681 -0.004 -0.539 0.842 74 82 42
1.3803 75.3384 -61.4643 0.036 -0.534 0.845 68 76 36
3.6464 75.4302 -63.6456 -0.406 -0.914 0.015 39 42 25
42.7517 34.9087 -67.6817 0.604 -0.794 0.072 18 19 9
42.8690 34.8463 -67.7409 0.842 -0.380 0.383 31 34 15
43.3026 33.4495 -67.0295 0.767 -0.239 0.596 84 92 41
43.7764 33.7424 -67.7040 0.899 -0.422 0.115 6 11 3
43.9848 33.5342 -67.7316 0.692 -0.635 0.343 4 8 9
44.7928 16.3614 -54.7766 -0.537 -0.829 0.158 21 26 22
45.1458 16.4593 -55.1832 -0.488 -0.789 -0.373 12 17 12
45.2183 16.3821 -55.1889 -0.459 -0.797 -0.393 6 11 7
45.6982 15.5520 -54.9728 -0.507 -0.796 0.330 12 18 10
45.7611 15.4582 -54.9565 -0.511 -0.797 0.322 39 46 28
45.8499 15.4236 -55.0115 -0.150 -0.986 -0.073 54 63 35
45.9447 15.4024 -55.0828 -0.434 -0.786 0.440 55 65 31
46.0662 15.4405 -55.2262 -0.167 -0.972 0.167 55 65 30
46.1467 15.3869 -55.2583 -0.205 -0.973 0.108 55 65 32
46.1685 15.2038 -55.1324 -0.554 -0.793 -0.254 56 65 38
46.2046 15.0539 -55.0464 -0.660 -0.681 -0.317 52 60 41
46.2796 14.9900 -55.0652 -0.660 -0.681 -0.317 45 51 40
46.7184 15.0333 -55.5080 -0.253 -0.888 -0.383 4 8 9
47.2183 15.1955 -56.1024 -0.436 -0.878 -0.197 5 11 10
47.3897 15.3301 -56.3692 -0.496 -0.807 -0.320 16 24 15
47.6300 15.1641 -56.4603 -0.565 -0.793 -0.229 60 68 43
47.7643 15.0019 -56.4558 -0.587 -0.789 -0.181 60 70 35
47.9861 15.0164 -56.6738 -0.422 -0.888 -0.183 67 74 40
48.1068 15.0423 -56.8066 -0.477 -0.869 -0.128 67 74 43
50.7969 13.9502 -58.4375 0.094 -0.994 -0.059 64 73 48
50.9174 13.9658 -58.5621 -0.088 -0.995 -0.051 68 77 47
51.0111 13.9356 -58.6252 -0.062 -0.998 -0.012 70 80 50
51.1523 13.9852 -58.7961 -0.464 -0.886 -0.022 61 70 41
51.2505 13.9619 -58.8689 -0.500 -0.864 0.055 45 53 27
-28.2909 116.1487 -66.8291 -0.910 -0.395 0.127 45 54 27
-9.5048 102.6227 -73.4917 -0.945 -0.323 0.057 31 34 13
2.6728 65.6516 -55.2044 0.416 -0.905 -0.088 64 75 34
2.7665 65.7700 -55.3865 0.407 -0.859 -0.311 70 81 38
2.8745 65.8376 -55.5415 0.410 -0.859 -0.307 76 87 44
2.9423 66.0546 -55.7784 0.398 -0.866 -0.303 75 86 44
2.9832 66.3728 -56.0717 0.359 -0.878 -0.316 75 83 42
1.3009 75.1632 -61.5500 0.080 -0.751 0.656 63 70 35
42.5171 34.7968 -67.5983 0.482 -0.875 0.050 15 18 10
42.6672 34.8681 -67.7953 0.482 -0.875 0.050 14 18 7
42.7179 34.5383 -67.5782 0.439 -0.851 0.290 30 33 14
42.7942 34.3150 -67.4703 -0.909 -0.145 0.391 60 65 35
43.5817 33.2896 -67.3822 0.892 -0.420 0.167 7 9 7
43.7639 33.4758 -67.7011 0.913 -0.383 0.138 5 9 9
44.7214 16.5657 -55.0392 -0.515 -0.793 -0.325 6 10 12
44.8111 16.5300 -55.0942 -0.515 -0.793 -0.325 8 12 12
44.9332 16.5734 -55.2428 -0.478 -0.785 -0.394 7 11 12
45.0457 16.5926 -55.3630 -0.467 -0.792 -0.394 7 12 10
45.1500 16.5910 -55.4588 -0.461 -0.804 -0.375 7 11 10
45.6442 15.5406 -55.0774 -0.531 -0.789 0.309 16 22 13
45.7198 15.4756 -55.0958 -0.537 -0.782 0.317 47 54 36
45.8072 15.4375 -55.1467 -0.165 -0.983 -0.077 53 62 33
45.9071 15.4274 -55.2315 -0.165 -0.983 -0.077 54 64 29
46.0109 15.4260 -55.3272 -0.122 -0.984 0.132 57 67 33
46.1092 15.4116 -55.4072 -0.471 -0.864 -0.178 58 67 38
46.1274 15.2200 -55.2706 -0.547 -0.772 -0.324 58 66 42
46.3620 15.0469 -55.3505 -0.540 -0.764 -0.353 23 28 21
46.5468 14.9936 -55.4800 -0.282 -0.822 -0.494 6 10 10
46.7191 15.1374 -55.7557 -0.342 -0.860 -0.378 4 8 11
47.0601 15.1876 -56.1137 -0.669 -0.738 0.090 7 11 12
47.1453 15.1434 -56.1576 -0.597 -0.636 0.489 4 10 6
47.3828 15.4162 -56.5975 -0.497 -0.804 -0.325 11 19 9
47.5051 15.4473 -56.7365 -0.596 -0.735 -0.323 25 33 20
47.5886 15.1776 -56.5981 -0.766 -0.639 -0.067 55 63 41
47.9644 15.0685 -56.8609 -0.483 -0.861 -0.158 60 70 36
48.0552 15.0346 -56.9182 -0.483 -0.860 -0.166 61 67 41
50.6629 13.9890 -58.5099 0.043 -0.988 -0.149 47 54 36
50.7610 13.9665 -58.5834 -0.072 -0.997 -0.026 60 68 45
50.8693 13.9612 -58.6800 -0.072 -0.997 -0.026 68 77 53
50.9848 13.9678 -58.7929 -0.461 -0.879 -0.121 65 72 55
51.1162 14.0007 -58.9417 -0.486 -0.874 0.026 51 57 43
51.1995 13.9523 -58.9804 -0.483 -0.874 0.047 32 37 27
51.2859 13.9092 -59.0264 -0.321 -0.947 0.002 19 24 15
2.5577 65.6569 -55.3712 0.403 -0.862 -0.308 67 75 37
2.6495 65.7814 -55.5571 0.403 -0.861 -0.309 69 80 40
2.7461 65.8903 -55.7349 0.403 -0.861 -0.309 73 83 44
2.8265 66.0602 -55.9467 0.398 -0.866 -0.303 71 79 41
2.9031 66.2466 -56.1682 0.358 -0.883 -0.304 67 75 38
3.0780 71.6050 -60.6446 -0.280 -0.579 -0.765 41 46 24
43.2368 32.7583 -66.8538 0.880 -0.435 0.193 11 15 4
43.4418 33.0375 -67.2698 0.890 -0.424 0.166 6 8 8
45.6080 15.5700 -55.2315 -0.400 -0.902 -0.161 22 27 17
45.6901 15.5194 -55.2674 -0.392 -0.909 -0.145 48 56 36
45.7897 15.5086 -55.3516 -0.286 -0.941 -0.179 53 62 33
45.8877 15.4939 -55.4313 -0.286 -0.941 -0.179 55 65 31
45.9675 15.4380 -55.4607 -0.379 -0.925 -0.024 56 66 32
46.0830 15.4621 -55.5880 -0.438 -0.862 -0.257 57 66 39
46.7553 15.3185 -56.0998 -0.060 -0.983 -0.172 5 10 8
46.7724 15.1291 -55.9633 -0.669 -0.729 -0.141 5 9 8
47.0027 15.1682 -56.2097 -0.677 -0.729 0.100 7 12 9
47.0817 15.1112 -56.2376 -0.677 -0.731 0.085 4 10 6
47.6153 15.1112 -56.7354 -0.592 -0.670 0.448 53 61 37
47.7315 15.1292 -56.8584 -0.666 -0.746 0.018 56 65 35
47.8262 15.1032 -56.9259 -0.407 -0.887 0.220 59 69 37
47.9018 15.0388 -56.9446 -0.398 -0.830 0.390 59 68 38
50.4915 13.9634 -58.4958 0.135 -0.966 -0.218 17 22 16
50.6300 14.0107 -58.6630 0.043 -0.988 -0.149 45 51 38
50.7548 14.0339 -58.7983 -0.500 -0.863 -0.068 58 65 47
50.8277 13.9677 -58.8130 -0.072 -0.997 -0.026 64 71 54
50.9551 13.9945 -58.9534 -0.512 -0.853 -0.101 49 54 43
51.0651 13.9912 -59.0534 -0.504 -0.864 0.008 29 34 28
51.1635 13.9680 -59.1266 -0.419 -0.904 -0.087 16 21 17
51.2648 13.9496 -59.2063 -0.252 -0.952 -0.175 9 14 11
-28.9843 117.4496 -68.0231 -0.911 -0.375 0.173 42 51 22
-10.2008 102.7152 -73.6705 0.358 -0.831 0.425 56 63 30
-10.1326 103.0746 -74.0248 0.425 -0.822 0.380 57 62 34
2.5345 65.7854 -55.7238 0.170 -0.846 -0.505 67 74 39
2.6182 65.9402 -55.9273 0.152 -0.850 -0.505 64 71 36
2.6474 66.2956 -56.2418 0.191 -0.811 -0.554 62 69 35
2.7306 66.4580 -56.4508 0.191 -0.811 -0.554 60 67 33
0.6789 74.9715 -61.4146 0.441 -0.401 0.803 60 67 33
2.4515 74.1194 -62.3827 -0.273 -0.645 -0.714 40 44 27
2.5238 74.9524 -63.1236 -0.136 -0.650 -0.748 38 40 26
11.2612 79.2130 -74.7346 0.920 -0.391 0.014 36 30 13
11.4737 81.0148 -76.3897 0.933 -0.357 0.055 41 35 19
42.4365 34.5349 -67.7612 -0.829 -0.011 0.559 43 48 25
43.2755 32.6845 -67.0498 0.883 -0.460 0.097 6 7 8
45.5776 15.6133 -55.4028 -0.374 -0.900 -0.224 29 35 23
45.6619 15.5672 -55.4442 -0.414 -0.890 -0.189 49 57 35
45.7483 15.5259 -55.4916 -0.497 -0.828 -0.261 53 62 34
45.8474 15.5136 -55.5743 -0.393 -0.899 -0.192 54 63 33
45.9275 15.4581 -55.6044 -0.379 -0.925 -0.024 54 63 36
46.0360 15.4664 -55.7125 -0.462 -0.846 -0.264 53 61 38
46.1316 15.4453 -55.7847 -0.413 -0.863 -0.291 48 55 39
46.2271 15.4239 -55.8567 -0.413 -0.863 -0.291 32 38 28
46.6276 15.3762 -56.1925 -0.579 -0.816 -0.006 7 12 7
46.7316 15.3719 -56.2863 -0.042 -0.984 -0.172 6 11 4
46.8341 15.3640 -56.3757 0.063 -0.963 -0.263 7 12 5
46.9810 15.2244 -56.4002 -0.637 -0.771 0.001 15 20 14
47.0835 15.2160 -56.4892 -0.667 -0.736 0.115 11 16 11
47.3921 15.1917 -56.7580 -0.580 -0.590 0.562 15 18 8
47.5471 15.2902 -56.9825 -0.131 -0.761 0.636 21 24 11
47.6013 15.1809 -56.9449 -0.437 -0.661 0.610 33 40 23
47.6940 15.1506 -57.0069 -0.406 -0.696 0.592 47 55 34
47.7782 15.1032 -57.0474 -0.324 -0.798 0.508 51 59 37
47.8572 15.0453 -57.0744 -0.328 -0.806 0.493 53 57 38
50.3602 14.2010 -58.7316 -0.559 -0.808 -0.186 4 7 12
50.4767 14.2101 -58.8478 -0.550 -0.821 -0.152 5 9 12
50.4661 13.9985 -58.6669 0.135 -0.966 -0.218 12 16 15
50.5969 14.0324 -58.8165 0.043 -0.988 -0.149 27 32 25
50.9303 14.0297 -59.1260 -0.512 -0.853 -0.101 27 31 27
51.0328 14.0136 -59.2088 -0.492 -0.871 0.011 16 20 21
51.1392 14.0037 -59.3002 -0.419 -0.904 -0.081 9 12 16
4.2409 55.2893 -49.0730 -0.961 -0.252 0.114 31 34 13
2.4418 65.2587 -55.4811 0.313 -0.842 -0.439 64 71 37
2.4874 65.5457 -55.7566 0.358 -0.837 -0.414 64 71 38
2.5575 71.6167 -60.7501 -0.171 -0.601 -0.781 39 43 28
2.1129 74.4011 -62.5940 -0.210 -0.646 -0.734 38 42 27
11.2934 80.2480 -75.9349 0.918 -0.398 -0.005 38 32 17
42.3567 39.1650 -71.6695 0.622 -0.524 0.582 22 22 14
42.1111 36.2867 -69.1032 -0.863 -0.040 0.504 26 26 17
42.1232 35.7626 -68.6891 -0.939 -0.154 0.307 25 25 13
42.1757 35.4182 -68.4587 -0.869 -0.071 0.489 19 21 7
42.2120 35.0109 -68.1622 -0.804 0.026 0.594 21 24 5
42.2679 34.6916 -67.9553 -0.869 -0.063 0.491 40 45 24
42.2990 34.2751 -67.6464 -0.806 -0.043 0.590 72 76 50
42.5957 32.3381 -66.3518 -0.790 -0.068 0.609 72 78 42
42.6846 32.1844 -66.3103 -0.468 -0.879 -0.088 44 48 23
42.7438 31.9184 -66.1498 -0.563 -0.731 0.385 18 22 7
42.8707 31.9134 -66.2645 0.490 -0.468 0.736 7 10 4
42.9942 31.8952 -66.3654 0.863 -0.472 0.182 6 8 8
45.7326 15.6024 -55.7042 -0.497 -0.828 -0.261 52 61 33
45.8214 15.5660 -55.7578 -0.497 -0.828 -0.261 52 60 36
45.9270 15.5674 -55.8577 -0.485 -0.834 -0.263 54 62 40
46.0231 15.5471 -55.9312 -0.470 -0.844 -0.260 45 51 35
46.1176 15.5232 -56.0003 -0.457 -0.849 -0.265 31 37 27
46.2030 15.4787 -56.0441 -0.361 -0.904 -0.229 19 24 19
46.2923 15.4430 -56.0987 -0.536 -0.818 -0.208 10 14 13
46.5046 15.4450 -56.2991 -0.454 -0.890 -0.048 4 8 10
46.6027 15.4279 -56.3771 0.015 -0.990 -0.138 5 10 6
46.6963 15.4008 -56.4427 -0.042 -0.984 -0.172 5 10 4
46.8152 15.4278 -56.5760 0.072 -0.968 -0.242 12 18 6
46.9978 15.3625 -56.6939 -0.320 -0.934 -0.156 33 40 26
47.0334 15.2125 -56.6055 -0.735 -0.676 0.050 27 33 22
47.2344 14.9648 -56.5926 -0.442 -0.702 0.558 10 13 5
47.4159 15.1194 -56.8881 0.485 -0.683 0.546 10 13 3
47.4909 15.0533 -56.9046 0.288 -0.749 0.597 18 21 11
47.5652 14.9862 -56.9196 0.240 -0.857 0.455 29 32 21
47.6567 14.9543 -56.9795 0.373 -0.804 0.462 34 38 26
47.7572 14.9404 -57.0622 0.280 -0.829 0.485 35 38 27
50.1618 14.5219 -58.9738 -0.764 -0.625 -0.159 3 7 6
50.2674 14.1190 -58.7456 -0.583 -0.781 -0.222 4 8 10
50.5466 14.0246 -58.9304 0.064 -0.983 -0.171 14 18 19
50.9050 14.0645 -59.2983 -0.609 -0.777 -0.159 13 17 20
51.0060 14.0454 -59.3773 -0.515 -0.844 -0.152 9 12 19
51.1090 14.0296 -59.4610 -0.552 -0.827 -0.110 6 9 19
-29.3885 118.0170 -68.9076 -0.908 -0.403 0.112 39 48 19
2.5710 66.6677 -57.0208 0.123 -0.655 -0.746 60 65 34
2.3934 69.2391 -58.9503 -0.181 -0.604 -0.776 42 47 25
2.3909 69.7442 -59.3596 -0.180 -0.604 -0.777 40 45 25
2.1168 72.3067 -61.1913 -0.067 -0.629 -0.775 38 42 27
2.1143 72.8419 -61.6253 -0.067 -0.629 -0.775 38 42 28
42.3124 39.3257 -71.9998 0.575 -0.786 0.228 21 23 12
42.2185 34.2488 -67.7736 -0.809 -0.042 0.586 74 81 46
42.2826 33.9723 -67.6083 -0.857 -0.032 0.515 83 90 49
42.5901 32.0948 -66.3663 -0.609 -0.764 -0.212 27 29 14
42.7205 32.1026 -66.4950 -0.225 -0.887 -0.403 9 13 3
50.6665 26.3971 -69.2952 -0.317 -0.908 -0.275 42 48 33
50.7793 26.3516 -69.3640 -0.290 -0.899 -0.327 30 36 26
50.9141 26.3552 -69.4933 -0.290 -0.899 -0.327 16 21 15
46.4681 15.4720 -56.4532 -0.454 -0.890 -0.048 6 10 13
46.5629 15.4476 -56.5222 0.015 -0.990 -0.138 4 8 8
46.6609 15.4297 -56.5996 -0.042 -0.984 -0.172 4 9 3
47.0085 15.4886 -56.9735 -0.045 -0.981 -0.189 47 55 32
47.1803 14.9523 -56.6974 -0.430 -0.741 0.515 16 19 8
47.4138 14.9938 -56.9502 0.285 -0.751 0.596 7 10 4
47.4824 14.9152 -56.9505 0.365 -0.813 0.453 13 16 10
47.5933 14.9228 -57.0607 0.363 -0.806 0.467 16 19 14
47.6826 14.8864 -57.1148 0.362 -0.808 0.465 16 18 15
50.0575 14.0253 -58.6398 -0.414 -0.887 -0.206 10 15 10
50.1222 13.9446 -58.6347 -0.800 -0.595 -0.074 10 14 13
50.5960 13.9966 -59.1214 -0.057 -0.997 -0.059 9 12 17
50.8908 14.1183 -59.4971 -0.618 -0.769 -0.161 6 9 15
50.9866 14.0901 -59.5638 -0.519 -0.842 -0.148 4 7 15
-29.2722 117.7232 -69.1795 -0.908 -0.412 0.072 39 48 19
3.7653 56.5948 -50.1733 -0.956 -0.249 0.154 32 33 16
2.0173 68.7294 -58.4641 -0.083 -0.585 -0.806 48 52 28
1.8873 69.6860 -59.1250 -0.078 -0.583 -0.809 44 48 25
1.7816 72.0726 -60.9792 -0.056 -0.586 -0.809 36 40 24
10.9515 75.7785 -72.6250 0.915 -0.358 0.186 50 41 23
40.8666 34.3660 -66.8242 0.483 -0.293 0.825 21 21 11
41.0906 34.7939 -67.3848 0.461 -0.297 0.836 21 23 10
42.2553 39.4317 -72.2749 0.508 -0.847 0.160 20 22 9
41.9872 35.8329 -69.0774 -0.879 -0.085 0.470 49 55 29
42.0682 35.6054 -68.9673 -0.879 -0.085 0.470 50 56 25
42.5459 31.7029 -66.2216 -0.920 -0.082 0.384 6 8 5
50.6934 26.5995 -69.6966 -0.276 -0.856 -0.437 28 34 24
50.7397 26.1035 -69.3340 -0.518 -0.786 -0.336 8 12 11
46.4138 15.4604 -56.5595 -0.326 -0.935 0.141 6 10 13
46.5372 15.4980 -56.7061 -0.006 -0.971 -0.239 6 10 12
46.9787 15.5291 -57.1462 0.014 -0.968 -0.250 56 65 35
47.0043 15.3561 -57.0287 -0.734 -0.672 0.101 55 64 35
47.1521 15.2168 -57.0535 -0.812 -0.571 0.123 38 46 24
47.2897 15.0578 -57.0527 -0.435 -0.818 0.377 18 21 10
47.3615 14.9852 -57.0606 -0.405 -0.840 0.360 11 13 7
47.4389 14.9241 -57.0833 0.182 -0.876 0.446 10 12 10
47.5537 14.9398 -57.2040 0.215 -0.866 0.452 11 12 13
47.6491 14.9155 -57.2736 0.192 -0.852 0.487 12 13 14
52.8428 25.1662 -70.5420 0.233 -0.965 0.122 6 10 12
52.9878 25.1857 -70.6942 -0.621 -0.783 -0.034 3 6 11
53.1070 25.1531 -70.7795 0.385 -0.872 0.302 7 8 13
54.0152 25.3264 -71.7743 -0.373 -0.921 -0.113 55 71 35
54.0433 25.1156 -71.6281 -0.366 -0.929 -0.059 57 73 34
50.0161 14.2301 -58.9357 -0.149 -0.980 -0.133 16 21 12
50.0842 14.1542 -58.9376 -0.427 -0.883 -0.194 23 29 19
50.5010 14.2991 -59.4476 0.110 -0.947 -0.302 8 12 16
50.5389 14.1703 -59.3778 0.196 -0.946 -0.260 6 9 16
50.5446 13.9870 -59.2331 -0.049 -0.997 -0.052 7 10 17
50.6846 14.0357 -59.4044 -0.517 -0.852 -0.084 6 9 15
-29.1060 117.3043 -69.3948 -0.904 -0.422 0.071 44 53 24
1.1310 61.1764 -51.7049 -0.862 -0.495 0.113 60 67 34
1.3767 60.7585 -51.5924 -0.864 -0.491 0.110 59 66 32
2.0790 66.6838 -57.1234 -0.031 -0.586 -0.810 52 55 32
2.0837 67.1263 -57.4916 -0.060 -0.580 -0.812 47 50 29
1.5087 70.6295 -59.8301 -0.069 -0.587 -0.806 37 40 23
1.5226 72.0710 -61.0279 -0.017 -0.601 -0.799 37 39 26
1.4005 73.0336 -61.7043 -0.041 -0.637 -0.770 36 38 24
1.3811 73.6238 -62.1712 -0.213 -0.694 -0.688 34 36 22
10.9878 72.9949 -70.6913 0.523 -0.115 0.844 51 44 17
42.1186 39.1802 -72.1823 0.564 -0.793 0.231 26 28 14
42.4847 31.7410 -66.4122 -0.963 0.006 0.268 6 8 6
49.7844 26.4827 -68.9569 0.065 -0.968 -0.242 7 11 13
49.9707 26.6101 -69.2369 -0.514 -0.804 -0.298 21 26 22
50.0799 26.5561 -69.2952 -0.583 -0.791 -0.184 33 39 30
50.1696 26.4569 -69.2980 -0.590 -0.792 -0.158 39 45 34
50.5089 26.6259 -69.7561 -0.326 -0.850 -0.414 26 31 23
50.6942 26.7438 -70.0274 -0.287 -0.844 -0.453 16 21 16
50.7268 26.2139 -69.6225 -0.518 -0.785 -0.341 3 7 10
46.4105 15.5608 -56.8059 -0.147 -0.963 -0.227 4 8 11
46.5185 15.5643 -56.9103 -0.005 -0.971 -0.240 6 10 9
46.6285 15.5717 -57.0199 -0.144 -0.969 -0.203 16 22 13
46.7610 15.6272 -57.1902 0.237 -0.942 -0.239 39 47 28
46.9442 15.5601 -57.3074 0.009 -0.967 -0.256 57 67 33
47.1487 15.3116 -57.2955 -0.678 -0.643 -0.356 54 60 31
47.1392 15.0677 -57.0861 -0.635 -0.658 -0.404 45 54 30
47.3604 15.0822 -57.3060 -0.157 -0.902 -0.403 18 21 14
47.4954 15.1389 -57.4797 -0.148 -0.904 -0.401 11 13 11
52.9203 25.1711 -70.8288 -0.586 -0.798 -0.140 1 6 11
48.1338 15.1165 -58.0618 -0.417 -0.625 0.660 6 10 11
48.1831 14.9986 -58.0113 -0.350 -0.635 0.689 10 17 12
48.2446 14.9056 -57.9928 -0.397 -0.610 0.686 33 41 30
53.6212 25.2109 -71.5209 0.200 -0.931 0.306 48 59 40
53.8023 25.2967 -71.7618 0.202 -0.929 0.309 56 69 41
53.9181 25.2548 -71.8363 0.156 -0.919 0.362 57 71 36
48.8866 14.8788 -58.5746 -0.331 -0.911 -0.246 60 74 42
50.0000 14.2839 -59.1330 -0.368 -0.926 -0.081 30 38 22
50.0933 14.2522 -59.1947 -0.368 -0.926 -0.081 43 51 35
50.1957 14.2366 -59.2782 -0.391 -0.914 -0.111 41 47 33
50.3726 14.3513 -59.5389 0.217 -0.960 -0.177 28 33 26
50.5109 14.3973 -59.7069 0.225 -0.958 -0.179 8 12 13
50.6758 14.4886 -59.9370 0.227 -0.957 -0.183 5 8 14
-0.4666 63.2856 -52.1965 0.767 -0.619 0.167 56 66 29
-0.2604 63.0109 -52.1641 0.718 -0.695 -0.038 56 66 31
-0.1341 62.9864 -52.2628 0.756 -0.654 0.015 57 67 33
0.7448 61.6927 -52.0231 -0.843 -0.503 0.192 64 71 38
0.9694 61.3477 -51.9500 -0.855 -0.497 0.149 67 74 42
1.1968 60.9912 -51.8701 -0.834 -0.527 0.167 66 73 38
1.4306 60.6116 -51.7770 -0.829 -0.535 0.167 61 69 32
1.9939 65.6767 -56.4884 -0.495 -0.629 0.599 52 56 28
1.9814 66.1678 -56.8819 -0.116 -0.910 -0.399 46 50 25
40.5718 34.2912 -66.9319 -0.057 -0.383 0.922 23 23 15
42.0718 34.5687 -68.5742 -0.993 -0.081 0.091 67 73 46
49.7528 26.5564 -69.1983 0.068 -0.967 -0.244 4 8 10
49.9544 26.7196 -69.5229 -0.536 -0.783 -0.314 13 18 15
50.0432 26.6170 -69.5218 -0.558 -0.807 -0.194 21 26 19
50.1399 26.5334 -69.5440 -0.576 -0.797 -0.184 24 29 22
50.6755 26.5402 -70.0543 -0.379 -0.853 -0.360 5 9 10
50.7026 26.2996 -69.8812 -0.555 -0.819 -0.145 3 7 10
46.4018 15.6500 -57.0390 -0.143 -0.959 -0.244 3 7 8
46.5093 15.6520 -57.1420 -0.018 -0.975 -0.221 7 11 7
46.6074 15.6329 -57.2187 -0.122 -0.972 -0.200 21 27 17
46.7155 15.6351 -57.3223 -0.147 -0.967 -0.208 45 52 32
46.8259 15.6419 -57.4320 -0.147 -0.967 -0.208 52 61 31
46.9178 15.6086 -57.4910 0.009 -0.967 -0.256 56 66 30
47.1183 15.5773 -57.6542 -0.710 -0.620 -0.333 56 63 29
47.1710 15.4611 -57.6079 -0.678 -0.643 -0.356 57 64 32
47.1752 15.2443 -57.4329 -0.627 -0.684 -0.372 53 62 35
47.2382 15.1516 -57.4157 -0.655 -0.668 -0.354 40 48 28
47.3422 15.1446 -57.5079 -0.661 -0.699 -0.273 23 26 17
48.0757 15.3145 -58.3393 -0.413 -0.562 0.717 3 7 11
48.0725 15.0905 -58.1514 -0.354 -0.673 0.649 5 9 9
48.1234 14.9754 -58.1043 -0.358 -0.639 0.681 13 19 14
48.1999 14.9117 -58.1239 -0.358 -0.639 0.681 35 43 30
48.4924 15.0572 -58.5195 -0.289 -0.949 -0.130 57 70 43
48.5919 15.0375 -58.5970 -0.289 -0.949 -0.130 57 71 37
48.6922 15.0192 -58.6764 -0.414 -0.894 -0.171 57 71 35
48.8027 15.0201 -58.7813 -0.436 -0.882 -0.180 61 75 40
48.8765 14.9506 -58.7935 -0.322 -0.926 -0.197 59 71 42
48.9599 14.8995 -58.8298 -0.260 -0.943 -0.208 50 63 39
49.0468 14.8554 -58.8754 -0.253 -0.942 -0.221 32 40 27
49.1578 14.8565 -58.9809 -0.254 -0.942 -0.219 9 16 10
50.0642 14.6821 -59.6909 -0.759 -0.625 -0.181 34 43 25
49.9638 14.3025 -59.2830 -0.301 -0.930 -0.209 47 56 35
50.0630 14.2810 -59.3587 -0.315 -0.925 -0.210 58 67 46
50.1806 14.2918 -59.4784 -0.393 -0.914 -0.104 53 61 42
50.2794 14.2692 -59.5529 -0.477 -0.866 0.149 32 38 27
50.3878 14.2632 -59.6500 -0.611 -0.712 0.345 11 16 13
50.5593 14.3667 -59.8970 -0.798 -0.549 0.250 6 10 14
-0.4041 62.7452 -52.0690 0.708 -0.705 -0.049 57 69 31
-0.1960 62.8331 -52.3383 0.691 -0.704 -0.165 60 70 33
0.5490 61.9695 -52.3255 -0.849 -0.524 -0.066 77 83 46
0.7651 61.6545 -52.2684 -0.885 -0.461 0.070 74 82 42
1.0351 61.1632 -52.1161 -0.883 -0.465 0.065 69 77 38
3.0063 58.1064 -51.4428 -0.859 -0.125 0.497 49 52 33
3.4923 56.8536 -50.8631 -0.881 -0.125 0.457 39 41 26
1.9253 65.0772 -56.2001 -0.016 -0.563 0.826 47 51 27
10.9435 73.5772 -71.7556 0.923 -0.377 0.076 41 34 16
40.2722 33.2339 -65.9966 -0.476 -0.467 0.745 22 22 14
40.3477 32.9944 -65.8694 -0.153 -0.481 0.863 22 22 11
42.3054 32.1003 -66.9758 -0.591 -0.805 -0.059 6 8 7
49.6893 26.5551 -69.3481 0.071 -0.966 -0.249 4 8 9
49.9119 26.7683 -69.7349 -0.520 -0.810 -0.271 6 10 9
50.0008 26.6653 -69.7335 -0.535 -0.803 -0.262 11 16 11
50.0990 26.5846 -69.7592 -0.554 -0.802 -0.225 12 17 11
50.2054 26.5232 -69.8088 -0.561 -0.805 -0.193 9 14 9
46.3654 15.6788 -57.1969 0.007 -0.978 -0.210 2 6 6
46.4696 15.6732 -57.2907 -0.008 -0.978 -0.207 11 16 11
46.5871 15.6962 -57.4206 0.005 -0.978 -0.208 31 37 25
46.6851 15.6761 -57.4964 -0.136 -0.976 -0.172 44 52 30
46.8051 15.7034 -57.6323 -0.143 -0.978 -0.154 51 60 31
46.8891 15.6528 -57.6696 -0.034 -0.961 -0.274 54 63 30
47.0245 15.7118 -57.8463 -0.300 -0.914 -0.272 54 64 31
47.0903 15.6221 -57.8341 -0.690 -0.645 -0.328 53 62 32
47.1358 15.4900 -57.7675 -0.628 -0.679 -0.381 51 60 33
47.1911 15.3798 -57.7284 -0.577 -0.713 -0.397 47 55 32
47.2687 15.3165 -57.7491 -0.631 -0.678 -0.377 33 40 21
47.3234 15.2062 -57.7093 -0.627 -0.687 -0.368 17 23 11
47.4122 15.1670 -57.7606 -0.845 -0.518 -0.134 7 12 8
47.4704 15.0652 -57.7312 -0.842 -0.523 -0.134 4 8 12
47.8698 15.2172 -58.2341 -0.388 -0.586 0.712 3 6 10
47.9988 15.0396 -58.2087 -0.368 -0.667 0.647 6 7 9
48.0551 14.9352 -58.1752 -0.380 -0.662 0.646 13 16 14
48.1255 14.8594 -58.1788 -0.382 -0.648 0.659 24 30 23
48.4398 15.0484 -58.6322 -0.291 -0.950 -0.118 51 63 40
48.5388 15.0276 -58.7083 -0.291 -0.950 -0.118 57 71 41
48.6630 15.0554 -58.8485 -0.416 -0.895 -0.160 59 71 37
48.8538 14.9986 -58.9815 -0.322 -0.926 -0.197 59 68 40
48.9387 14.9500 -59.0213 -0.255 -0.942 -0.217 45 54 32
49.0298 14.9134 -59.0770 -0.254 -0.942 -0.219 22 30 17
49.1369 14.9067 -59.1725 -0.254 -0.942 -0.219 6 12 7
49.9513 14.3635 -59.4909 -0.322 -0.921 -0.221 56 67 34
50.0539 14.3476 -59.5746 -0.322 -0.921 -0.221 57 68 36
50.1586 14.3353 -59.6632 -0.398 -0.911 -0.109 56 66 39
50.2681 14.3312 -59.7631 -0.390 -0.914 -0.109 27 36 20
50.3612 14.2979 -59.8234 -0.470 -0.877 -0.101 10 14 11
-2.9084 68.6151 -54.8474 0.369 -0.891 -0.266 58 68 32
-2.6887 68.7095 -55.1338 0.356 -0.902 -0.246 60 70 33
-2.6490 68.9751 -55.3923 0.473 -0.863 -0.178 60 72 32
-0.2951 62.0642 -51.8656 0.750 -0.570 0.337 61 73 33
0.2787 62.4807 -52.7546 -0.851 -0.524 -0.046 77 83 46
0.5002 62.1517 -52.6902 -0.885 -0.460 0.072 74 82 43
0.7757 61.6471 -52.5306 -0.885 -0.460 0.072 71 79 42
1.8588 64.9130 -56.2725 -0.469 -0.599 0.648 39 43 20
11.0386 75.9553 -74.1395 0.416 -0.022 0.909 42 35 19
40.2018 33.2486 -66.1623 -0.380 -0.289 0.879 20 19 14
40.2566 32.9102 -65.9325 -0.153 -0.481 0.863 22 22 13
46.3224 15.6932 -57.3371 0.011 -0.978 -0.210 6 10 8
46.4345 15.7049 -57.4528 0.001 -0.980 -0.200 19 24 16
46.5456 15.7137 -57.5652 -0.171 -0.982 -0.077 39 46 31
46.6650 15.7401 -57.7000 -0.133 -0.980 -0.148 48 56 33
46.7858 15.7687 -57.8380 -0.227 -0.965 -0.127 53 62 33
47.0428 15.6257 -57.9619 -0.655 -0.667 -0.356 53 61 35
47.0990 15.5159 -57.9236 -0.596 -0.689 -0.413 46 54 30
47.1759 15.4504 -57.9418 -0.605 -0.683 -0.408 33 41 20
47.2486 15.3766 -57.9490 -0.597 -0.694 -0.401 21 28 12
47.4481 15.1187 -57.9230 -0.868 -0.495 -0.034 4 7 11
47.5056 15.0155 -57.8915 -0.868 -0.495 -0.034 5 8 15
47.6273 15.0435 -58.0298 -0.516 -0.668 0.537 5 8 11
47.7284 15.0290 -58.1133 -0.535 -0.608 0.586 5 9 10
47.8550 15.0658 -58.2636 -0.368 -0.667 0.647 7 11 12
47.9323 15.0029 -58.2844 -0.368 -0.667 0.647 5 9 10
48.0058 14.9327 -58.2953 -0.365 -0.678 0.638 8 12 11
48.5218 15.0880 -58.9123 -0.296 -0.945 -0.137 46 58 35
48.6753 15.1725 -59.1278 -0.663 -0.622 0.417 55 65 39
48.7493 15.1021 -59.1392 -0.404 -0.902 -0.153 57 65 39
48.8397 15.0636 -59.1925 -0.324 -0.925 -0.198 52 61 37
48.9075 14.9818 -59.1886 -0.144 -0.983 -0.117 33 42 24
49.0017 14.9507 -59.2517 -0.036 -0.986 -0.166 14 21 11
49.9344 14.4169 -59.6890 -0.322 -0.921 -0.221 63 75 40
50.0371 14.4010 -59.7729 -0.322 -0.921 -0.221 60 71 39
50.1304 14.3680 -59.8337 -0.398 -0.911 -0.109 52 62 38
50.2234 14.3346 -59.8938 -0.398 -0.911 -0.109 22 30 17
50.3167 14.3014 -59.9543 -0.468 -0.880 -0.083 8 12 12
-2.6911 68.3553 -55.1134 0.401 -0.903 -0.156 64 75 33
-0.3073 61.7625 -51.8606 0.785 -0.620 0.019 70 83 40
0.1008 62.6944 -53.0259 -0.861 -0.508 0.023 72 79 44
0.3137 62.3951 -52.9773 -0.887 -0.455 0.079 71 79 42
0.5707 61.9530 -52.8510 -0.887 -0.457 0.069 66 73 39
0.6956 61.9312 -52.9511 -0.549 -0.763 -0.341 61 68 35
2.2033 60.8662 -53.4885 -0.461 -0.575 -0.675 41 44 27
1.5316 65.2172 -56.4887 0.003 -0.812 0.584 38 41 20
