ply
format ascii 1.0
element vertex 863
property float x
property float y
property float z
property float nx
property float ny
property float nz
property uchar diffuse_red
property uchar diffuse_green
property uchar diffuse_blue
end_header
-84.9237 95.4913 -16.6692 0.163 -0.986 -0.029 48 50 25
-84.8705 95.6320 -16.6795 0.129 -0.888 0.441 53 56 30
-84.7912 95.7066 -16.6709 -0.285 -0.834 0.473 49 52 24
-84.5645 95.3976 -16.5539 -0.536 -0.832 -0.141 45 48 19
-84.4095 95.2736 -16.4893 -0.532 -0.833 -0.149 42 46 13
-84.2603 95.1637 -16.4288 -0.447 -0.879 -0.166 54 58 19
-84.1107 95.0518 -16.3679 -0.542 -0.828 -0.142 63 69 23
-83.9573 94.9287 -16.3039 -0.515 -0.847 -0.131 76 83 32
-83.8087 94.8172 -16.2433 -0.476 -0.874 -0.095 87 94 42
-73.0888 93.6404 -13.0878 -0.219 -0.953 0.211 101 120 117
-72.9812 93.6286 -13.0562 -0.233 -0.948 0.215 27 47 45
-72.0218 92.4631 -12.5860 -0.700 -0.621 -0.353 42 67 63
-69.2524 92.5904 -11.8472 -0.073 -0.951 0.302 41 71 69
-69.1884 108.4978 -14.6467 -0.939 -0.173 0.297 48 83 79
-66.8022 108.2506 -13.9470 -0.451 0.037 0.892 70 106 94
-60.9937 101.3991 -11.1367 0.280 -0.883 -0.376 60 93 86
-53.0203 102.0955 -9.0681 0.227 -0.084 0.970 72 94 86
-45.9158 99.1424 -6.5920 -0.337 -0.687 0.643 115 155 144
-46.0142 95.2667 -5.9326 -0.534 -0.824 0.187 97 134 135
-28.3157 96.3114 -1.2521 -0.915 -0.403 -0.022 48 47 22
-30.0802 87.3883 -0.1569 0.378 -0.862 0.337 86 87 43
-29.9319 87.4796 -0.1323 0.383 -0.847 0.368 76 77 37
-29.7730 87.5892 -0.1081 0.451 -0.783 0.428 71 71 36
-26.9618 89.7022 0.2906 0.525 -0.634 0.568 54 58 21
-26.7503 89.8874 0.3159 0.547 -0.646 0.533 65 69 32
-26.5250 90.0946 0.3412 0.545 -0.644 0.536 80 85 47
-26.3128 90.2788 0.3669 0.528 -0.707 0.470 93 98 57
-91.0697 100.2976 -19.3360 -0.848 -0.527 -0.057 109 115 68
-90.2532 99.2498 -18.9240 -0.564 -0.800 0.205 44 48 15
-90.1334 99.2370 -18.8888 -0.618 -0.782 0.077 44 47 19
-88.8087 98.2834 -18.3540 0.078 -0.930 0.361 58 60 36
-88.7475 98.4024 -18.3585 0.391 -0.896 0.210 62 64 40
-87.4530 97.1936 -17.7863 0.016 -0.939 -0.343 48 47 25
-87.2192 97.1633 -17.7166 0.221 -0.975 -0.013 44 43 22
-87.1105 97.1680 -17.6876 0.195 -0.980 0.029 45 44 23
-86.9925 97.1501 -17.6519 0.056 -0.998 -0.043 46 46 19
-86.9035 97.2028 -17.6369 -0.042 -0.997 -0.070 41 44 15
-86.8145 97.2558 -17.6219 -0.245 -0.898 -0.367 42 45 16
-86.4253 96.5704 -17.3923 0.043 -0.855 0.517 44 47 18
-86.3238 96.5903 -17.3679 0.043 -0.855 0.517 46 49 20
-86.2148 96.5919 -17.3382 0.058 -0.847 0.528 44 47 18
-86.0680 96.4995 -17.2813 -0.665 -0.725 -0.180 44 47 18
-85.8424 96.2086 -17.1673 -0.714 -0.650 -0.261 43 46 17
-85.5965 95.8641 -17.0380 -0.694 -0.666 -0.275 44 47 19
-84.8895 95.7183 -16.8175 -0.404 -0.729 0.553 35 39 7
-84.7450 95.6242 -16.7610 -0.295 -0.837 0.461 46 50 18
-84.4939 95.5325 -16.6755 -0.221 -0.904 0.366 66 70 35
-84.0930 95.0436 -16.4779 -0.557 -0.821 -0.125 85 91 43
-83.9178 94.8626 -16.3973 -0.303 -0.922 0.243 94 101 50
-83.7997 94.8325 -16.3595 -0.303 -0.919 0.253 101 108 56
-83.4683 94.2305 -16.1606 0.118 -0.969 0.215 106 113 62
-73.0604 93.6006 -13.1869 -0.231 -0.946 0.226 101 120 117
-72.9565 93.6068 -13.1594 -0.234 -0.939 0.251 28 48 46
-69.5763 109.8239 -15.1329 -0.948 -0.191 0.254 74 109 105
-69.3375 108.9071 -14.9032 -0.933 -0.172 0.316 70 105 101
-60.8466 102.5128 -11.4247 0.785 -0.606 -0.126 64 97 90
-53.5263 105.1931 -9.8922 -0.812 -0.371 0.450 60 87 80
-45.9910 95.2096 -6.0340 -0.532 -0.767 0.359 93 130 131
-35.3788 84.5780 -1.2139 0.613 -0.692 0.381 72 72 37
-28.2998 96.2498 -1.3571 -0.916 -0.401 -0.021 49 47 21
-30.0773 87.3182 -0.2471 0.491 -0.863 0.120 79 80 35
-29.9244 87.4176 -0.2229 0.486 -0.867 0.113 70 71 32
-29.7919 87.4806 -0.1977 0.529 -0.831 0.172 69 69 33
-29.6389 87.5792 -0.1733 0.487 -0.867 0.109 67 67 33
-26.9973 89.5667 0.1971 0.472 -0.590 0.655 58 62 25
-26.5320 90.0068 0.2462 0.539 -0.642 0.546 67 71 33
-26.3089 90.2088 0.2714 0.522 -0.616 0.590 68 73 31
-91.0250 99.7195 -19.3454 -0.620 -0.782 0.064 107 114 63
-91.0271 100.2321 -19.4386 -0.849 -0.525 -0.054 111 117 70
-90.2167 99.1973 -19.0287 -0.564 -0.800 0.205 42 46 13
-89.9444 98.8421 -18.8896 -0.734 -0.671 -0.099 42 45 17
-88.7197 98.1083 -18.4203 0.009 -0.848 0.530 45 47 23
-87.0628 97.8997 -17.9272 0.399 -0.912 0.095 39 42 13
-86.2930 96.5489 -17.4712 0.057 -0.843 0.535 48 51 22
-86.1921 96.5707 -17.4475 0.057 -0.843 0.535 41 44 15
-86.3317 97.1928 -17.5984 -0.098 -0.877 0.471 41 44 15
-84.9318 95.5859 -16.9230 -0.301 -0.841 0.449 66 70 33
-84.8151 95.5634 -16.8868 -0.301 -0.841 0.449 65 69 32
-84.6984 95.5410 -16.8507 -0.301 -0.841 0.449 49 54 16
-84.5889 95.5368 -16.8198 -0.295 -0.837 0.461 78 82 44
-84.4669 95.5000 -16.7796 -0.299 -0.837 0.458 100 105 66
-84.0882 95.0695 -16.5977 -0.296 -0.923 -0.244 109 115 65
-83.6993 94.6038 -16.4066 -0.488 -0.667 0.563 112 119 67
-83.4519 94.2256 -16.2701 0.040 -0.794 0.607 113 120 69
-73.0320 93.5613 -13.2860 -0.223 -0.893 0.390 101 121 118
-72.9270 93.5621 -13.2573 -0.210 -0.892 0.401 28 48 46
-72.8205 93.5552 -13.2268 -0.249 -0.891 0.380 22 42 40
-72.7077 93.5170 -13.1889 -0.657 -0.745 0.116 22 42 40
-59.7258 94.2139 -9.7468 0.439 -0.750 0.495 74 109 102
-46.0605 95.2243 -6.1736 -0.638 -0.654 0.406 93 135 133
-45.9669 95.1566 -6.1357 -0.638 -0.654 0.406 87 124 125
-30.2127 95.6841 -1.9010 -0.489 -0.609 0.625 100 102 54
-28.2817 96.1926 -1.4622 -0.385 -0.812 0.439 60 59 32
-30.0538 87.2847 -0.3381 0.385 -0.919 0.080 72 74 29
-29.9407 87.3139 -0.3123 0.357 -0.934 -0.007 69 69 30
-26.3118 90.1278 0.1762 0.528 -0.617 0.583 61 67 25
-26.0606 90.3752 0.2005 0.521 -0.605 0.602 82 85 38
-90.9984 99.6892 -19.4577 -0.620 -0.782 0.064 107 114 63
-90.8901 99.7038 -19.4306 -0.645 -0.757 0.100 103 109 60
-90.3518 99.2731 -19.2040 -0.528 -0.822 0.214 39 43 9
-90.2008 99.1908 -19.1474 -0.528 -0.822 0.214 42 46 14
-89.8830 98.7336 -18.9765 -0.753 -0.653 -0.082 42 45 18
-88.7034 98.1015 -18.5368 0.043 -0.875 0.482 45 47 23
-87.5568 97.7751 -18.1621 -0.758 -0.639 -0.130 47 47 22
-86.8717 98.2955 -18.0689 -0.629 -0.116 0.768 57 60 33
-86.1956 97.1653 -17.6765 -0.577 -0.110 0.809 75 78 51
-86.1504 97.3305 -17.6943 0.293 -0.592 0.751 87 90 62
-85.1396 95.6012 -17.1004 -0.138 -0.922 0.362 98 104 61
-85.1568 95.9226 -17.1639 -0.730 -0.677 0.088 97 102 59
-84.8961 95.5312 -17.0207 -0.304 -0.910 0.281 95 101 58
-84.7797 95.5093 -16.9847 -0.284 -0.916 0.284 71 76 34
-84.6621 95.4843 -16.9478 -0.284 -0.916 0.284 54 59 17
-84.5480 95.4681 -16.9135 -0.279 -0.918 0.283 83 88 46
-84.4354 95.4560 -16.8804 -0.238 -0.911 0.338 107 112 69
-84.3134 95.4188 -16.8400 -0.201 -0.874 0.443 112 118 70
-84.2021 95.4096 -16.8078 -0.201 -0.874 0.443 112 119 68
-83.7040 94.6555 -16.5331 -0.249 -0.715 0.654 112 119 67
-83.5978 94.6563 -16.5040 -0.243 -0.948 0.206 113 120 69
-72.9987 93.4974 -13.3793 -0.211 -0.884 0.416 97 117 114
-72.8964 93.5115 -13.3538 -0.210 -0.892 0.401 40 60 58
-72.7877 93.4938 -13.3207 -0.242 -0.870 0.429 20 40 38
-72.6792 93.4765 -13.2877 -0.657 -0.745 0.116 23 43 41
-70.4754 95.5092 -13.0536 -0.936 -0.331 0.116 44 69 66
-59.6965 94.2798 -9.8666 0.229 -0.926 0.302 76 111 104
-46.0424 95.1453 -6.2723 -0.638 -0.654 0.406 93 135 133
-45.9489 95.0778 -6.2343 -0.638 -0.654 0.406 77 114 115
-30.0242 87.2622 -0.4293 0.369 -0.923 0.113 71 73 28
-26.6030 89.9052 0.0278 0.571 -0.770 0.284 63 67 30
-26.2402 90.1704 0.0790 0.538 -0.692 0.481 63 66 25
-26.0140 90.3758 0.1037 0.543 -0.683 0.489 73 76 29
-90.9350 99.5781 -19.5451 -0.184 -0.899 0.398 108 115 62
-90.8002 99.5340 -19.4999 -0.393 -0.919 0.032 103 110 57
-90.6921 99.5487 -19.4729 -0.636 -0.767 -0.084 111 118 65
-90.3169 99.2242 -19.3099 -0.654 -0.753 -0.075 39 43 8
-90.1239 99.0479 -19.2243 -0.654 -0.753 -0.075 42 45 12
-89.8973 98.7949 -19.1153 -0.728 -0.680 -0.081 42 45 18
-88.6697 98.0543 -18.6412 0.285 -0.935 0.210 45 47 23
-88.4847 99.7628 -18.9059 -0.032 0.030 0.999 43 43 19
-88.3030 99.8808 -18.8777 -0.708 -0.197 0.678 50 49 28
-87.9993 99.4244 -18.7100 -0.716 -0.195 0.671 57 56 34
-87.2641 98.1874 -18.2795 -0.736 -0.167 0.656 80 83 55
-86.3152 98.0658 -17.9963 0.517 -0.538 0.666 99 103 66
-85.2371 95.6104 -17.2466 0.107 -0.947 0.303 101 107 63
-85.1042 95.5474 -17.1985 -0.024 -0.938 0.345 100 106 59
-85.1232 95.8733 -17.2639 -0.730 -0.677 0.088 100 106 59
-84.8600 95.4752 -17.1181 -0.290 -0.919 0.267 99 105 58
-84.7525 95.4764 -17.0888 -0.279 -0.918 0.283 76 82 36
-84.6352 95.4520 -17.0520 -0.279 -0.918 0.283 58 64 18
-84.5179 95.4276 -17.0153 -0.279 -0.918 0.283 87 93 47
-84.4007 95.4032 -16.9786 -0.279 -0.918 0.283 112 118 70
-84.2997 95.4212 -16.9541 -0.067 -0.873 0.484 112 118 70
-84.1686 95.3598 -16.9068 -0.211 -0.868 0.450 113 120 69
-72.9732 93.4721 -13.4818 -0.210 -0.892 0.401 96 116 113
-72.8659 93.4610 -13.4502 -0.210 -0.892 0.401 45 65 63
-72.7611 93.4629 -13.4218 -0.229 -0.892 0.390 19 39 37
-72.6507 93.4359 -13.3864 -0.657 -0.745 0.116 23 43 41
-61.0535 92.9450 -10.1090 0.406 -0.720 0.563 58 90 84
-60.9499 93.2011 -10.1278 0.394 -0.385 0.835 57 90 83
-53.1715 93.8016 -8.1013 -0.188 -0.620 0.761 78 105 96
-52.8474 93.8298 -8.0174 -0.197 -0.627 0.754 93 120 111
-46.1336 95.0675 -6.4011 -0.423 -0.796 0.433 90 135 130
-46.0275 95.0534 -6.3693 -0.419 -0.795 0.439 93 135 133
-45.9347 94.9835 -6.3309 -0.547 -0.800 0.247 64 101 102
-45.8311 94.9596 -6.2980 -0.196 -0.938 0.285 18 50 52
-30.2902 87.0576 -0.5683 0.186 -0.804 0.565 85 88 33
-30.1523 87.1312 -0.5440 0.271 -0.812 0.516 78 80 31
-29.7020 87.4137 -0.4724 0.550 -0.827 0.120 69 69 33
-26.3833 90.0258 -0.0428 0.551 -0.798 0.243 62 66 31
-26.1685 90.2130 -0.0184 0.546 -0.786 0.291 63 65 27
-90.9072 99.5451 -19.6565 -0.175 -0.897 0.405 113 121 62
-90.7819 99.5222 -19.6178 -0.393 -0.919 0.032 106 115 54
-90.6803 99.5513 -19.5954 -0.631 -0.770 -0.093 106 114 54
-90.4914 99.3867 -19.5127 -0.631 -0.770 -0.093 90 97 47
-90.3122 99.2427 -19.4367 -0.634 -0.768 -0.090 44 49 9
-90.1087 99.0430 -19.3435 -0.645 -0.761 -0.072 41 45 10
-89.8850 98.7964 -19.2360 -0.706 -0.702 -0.096 40 43 15
-89.0540 97.9365 -18.8473 0.109 -0.905 0.411 48 51 24
-88.8571 97.9995 -18.8049 0.487 -0.854 0.186 47 50 23
-88.9497 98.7349 -18.9675 0.624 -0.778 0.071 42 45 18
-88.3642 99.7848 -19.0025 0.042 -0.032 0.999 72 72 41
-86.2548 97.9500 -18.0807 0.516 -0.537 0.667 114 119 78
-85.0661 95.4865 -17.2944 -0.025 -0.928 0.371 110 117 67
-85.0896 95.8241 -17.3639 -0.730 -0.677 0.088 109 115 67
-84.8400 95.4606 -17.2275 -0.271 -0.913 0.306 107 113 65
-84.7233 95.4381 -17.1912 -0.271 -0.913 0.306 81 87 39
-84.6066 95.4155 -17.1550 -0.271 -0.913 0.306 62 68 20
-84.4935 95.4018 -17.1213 -0.270 -0.915 0.301 91 97 49
-84.3770 95.3794 -17.0851 -0.270 -0.915 0.301 116 122 74
-84.2606 95.3570 -17.0490 -0.270 -0.915 0.301 114 120 72
-84.1724 95.4091 -17.0345 -0.251 -0.909 0.333 112 118 70
-72.9428 93.4222 -13.5783 -0.159 -0.918 0.364 97 116 111
-72.8401 93.4342 -13.5523 -0.096 -0.934 0.343 44 64 62
-72.7356 93.4374 -13.5242 -0.118 -0.945 0.306 19 39 37
-57.1288 96.9591 -9.8931 0.316 -0.658 0.683 64 94 84
-46.0055 94.9917 -6.4698 -0.494 -0.852 0.175 93 135 133
-45.9156 94.9099 -6.4298 -0.589 -0.780 0.211 65 101 103
-45.8034 94.9225 -6.4013 -0.196 -0.938 0.285 19 51 52
-29.8697 95.6466 -2.1585 -0.629 -0.618 0.471 83 82 50
-30.3877 86.9803 -0.6840 0.223 -0.702 0.676 90 92 40
-30.2701 87.0182 -0.6587 0.112 -0.663 0.740 79 81 31
-30.1190 87.1152 -0.6353 0.209 -0.703 0.680 73 75 28
-29.9831 87.1847 -0.6110 0.197 -0.719 0.666 71 72 29
-29.6596 87.4131 -0.5647 0.517 -0.653 0.554 69 69 31
-26.2852 90.1124 -0.1411 0.465 -0.864 0.193 57 61 26
-26.0993 90.2512 -0.1159 0.473 -0.846 0.248 57 61 23
-90.8733 99.4988 -19.7638 -0.279 -0.880 0.385 117 126 64
-90.7637 99.5103 -19.7359 -0.393 -0.919 0.032 110 119 52
-90.6433 99.4980 -19.7005 -0.550 -0.815 -0.183 100 110 44
-88.0877 98.3379 -18.7797 -0.117 0.034 0.993 86 93 44
-85.3081 96.1417 -17.6022 -0.752 -0.654 -0.086 111 117 69
-85.0560 95.7748 -17.4638 -0.730 -0.677 0.088 111 117 71
-84.8195 95.4449 -17.3367 -0.250 -0.954 0.166 113 119 73
-84.7021 95.4206 -17.2998 -0.250 -0.954 0.166 99 105 59
-84.5847 95.3963 -17.2630 -0.250 -0.954 0.166 59 65 17
-84.4675 95.3720 -17.2262 -0.250 -0.954 0.166 81 84 39
-84.3487 95.3436 -17.1882 -0.201 -0.963 0.178 112 115 70
-84.2454 95.3557 -17.1621 0.092 -0.922 0.376 119 122 77
-84.0976 95.2500 -17.1016 -0.323 -0.915 0.241 119 122 77
-72.9131 93.3761 -13.6757 -0.165 -0.923 0.348 98 116 111
-72.8118 93.3949 -13.6514 -0.096 -0.934 0.343 46 66 64
-72.7014 93.3686 -13.6161 -0.327 -0.933 0.151 19 39 37
-72.5979 93.3767 -13.5892 -0.572 -0.819 0.052 23 43 41
-74.0587 103.2154 -15.8448 0.375 -0.638 0.672 35 57 54
-69.1366 91.2784 -12.2428 0.370 -0.124 0.921 102 132 130
-69.0520 91.3962 -12.2418 0.367 -0.054 0.929 96 126 124
-51.8828 98.9848 -8.9551 0.822 -0.299 0.484 65 92 83
-45.9789 94.9495 -6.5726 -0.467 -0.878 0.106 93 135 133
-45.8868 94.8772 -6.5336 -0.484 -0.864 0.139 64 101 102
-45.7724 94.8984 -6.5062 -0.202 -0.931 0.303 19 51 53
-45.3307 94.4789 -6.3058 -0.838 -0.546 0.004 69 102 101
-30.1211 95.4936 -2.3185 -0.665 -0.603 0.441 98 100 55
-29.9381 95.6398 -2.2958 -0.653 -0.686 0.322 93 93 58
-29.8494 95.5936 -2.2627 -0.661 -0.675 0.327 71 69 44
-30.7114 86.6702 -0.8178 0.329 -0.645 0.689 104 107 52
-30.1262 87.0277 -0.7244 0.159 -0.630 0.760 71 74 29
-29.9903 87.0973 -0.7001 0.289 -0.675 0.679 76 79 36
-29.6524 87.3509 -0.6551 0.446 -0.622 0.644 69 71 31
-29.5213 87.4104 -0.6303 0.312 -0.680 0.663 65 67 28
-26.0555 90.2473 -0.2128 0.473 -0.846 0.248 54 58 23
-25.8967 90.3404 -0.1867 0.562 -0.759 0.328 55 56 21
-25.7509 90.4117 -0.1601 0.615 -0.710 0.341 62 63 27
-90.8271 99.4254 -19.8625 -0.205 -0.909 0.362 115 124 60
-90.7197 99.4416 -19.8361 -0.368 -0.930 0.013 110 120 49
-90.6112 99.4556 -19.8090 -0.498 -0.843 -0.202 104 114 45
-90.4508 99.3542 -19.7456 -0.510 -0.837 -0.197 98 106 48
-89.2567 98.4598 -19.2473 -0.557 -0.809 0.188 47 53 18
-87.9478 98.5777 -18.9102 0.015 0.020 1.000 109 116 63
-87.2321 97.3952 -18.4885 -0.699 -0.206 0.685 108 115 63
-86.4439 98.2183 -18.4287 0.187 -0.625 0.758 113 119 71
-85.2173 96.2266 -17.7126 -0.797 -0.589 -0.131 111 117 71
-84.7884 95.4019 -17.4378 -0.243 -0.957 0.162 111 117 73
-84.6713 95.3784 -17.4011 -0.243 -0.957 0.162 99 105 59
-84.5543 95.3549 -17.3645 -0.243 -0.957 0.162 62 68 20
-84.4374 95.3314 -17.3279 -0.243 -0.957 0.162 80 84 39
-84.3107 95.2822 -17.2838 -0.251 -0.952 0.174 107 110 65
-84.2156 95.3158 -17.2640 0.164 -0.920 0.356 114 117 74
-84.1158 95.3373 -17.2407 0.079 -0.931 0.357 114 117 74
-72.8946 93.3852 -13.7866 -0.380 -0.915 0.136 105 124 119
-72.7811 93.3439 -13.7476 -0.380 -0.915 0.136 54 74 72
-72.6759 93.3431 -13.7185 -0.327 -0.933 0.151 19 39 37
-69.2430 90.7723 -12.2861 0.216 -0.382 0.899 52 81 79
-57.2266 105.4333 -11.7762 0.083 -0.948 0.307 93 119 110
-46.1433 95.0253 -6.7503 -0.576 -0.817 0.022 97 141 133
-45.9483 94.9241 -6.6774 -0.496 -0.866 0.054 93 135 133
-45.8535 94.8629 -6.6397 -0.517 -0.856 0.023 57 94 95
-45.7428 94.8690 -6.6105 -0.202 -0.934 0.293 14 46 47
-30.2126 95.6680 -2.4965 -0.752 -0.444 0.487 106 109 52
-33.7053 84.8825 -1.4027 0.702 -0.651 0.289 108 108 54
-29.9791 87.0424 -0.7903 0.279 -0.680 0.678 77 80 37
-29.2389 87.4888 -0.6719 0.233 -0.644 0.729 69 73 38
-27.5424 88.8712 -0.4690 0.209 -0.977 0.050 61 65 32
-27.4108 88.9246 -0.4431 0.413 -0.876 0.250 61 65 30
-27.2576 89.0138 -0.4180 0.423 -0.852 0.308 61 65 30
-26.0661 90.1536 -0.3076 0.574 -0.720 0.390 54 58 25
-90.5548 99.1061 -19.8517 0.011 -1.000 -0.015 110 119 55
-90.6131 99.4885 -19.9413 -0.498 -0.843 -0.202 107 116 54
-90.4522 99.3861 -19.8774 -0.510 -0.837 -0.197 107 115 59
-89.4713 98.4630 -19.4305 -0.724 -0.690 -0.015 48 51 26
-89.3768 98.5055 -19.4127 -0.561 -0.805 0.193 63 66 38
-89.2225 98.4118 -19.3523 -0.557 -0.809 0.188 77 84 44
-89.1688 99.6058 -19.5671 0.749 -0.662 0.025 104 111 69
-88.5392 99.2060 -19.3173 -0.695 -0.220 0.684 108 115 63
-87.6424 98.1492 -18.8678 -0.049 -0.014 0.999 113 120 68
-84.7655 95.3801 -17.5452 -0.255 -0.952 0.169 111 117 71
-84.6473 95.3537 -17.5076 -0.242 -0.955 0.171 92 98 52
-84.5205 95.3048 -17.4634 -0.251 -0.952 0.174 69 75 29
-84.4033 95.2806 -17.4266 -0.251 -0.952 0.174 84 91 45
-84.2863 95.2564 -17.3898 -0.251 -0.952 0.174 101 107 61
-84.1876 95.2808 -17.3674 0.164 -0.920 0.356 101 107 63
-84.0792 95.2793 -17.3373 0.103 -0.923 0.370 104 107 64
-83.4236 95.2574 -17.1530 -0.775 -0.506 -0.379 105 108 64
-83.0078 94.4128 -16.8764 -0.775 -0.506 -0.379 106 109 62
-82.6491 94.0091 -16.7003 0.284 -0.652 -0.703 113 117 66
-72.8633 93.3311 -13.8820 -0.335 -0.942 -0.023 108 128 121
-72.7556 93.3181 -13.8500 -0.380 -0.915 0.136 58 79 74
-69.1530 90.9912 -12.4131 0.744 -0.440 0.503 69 98 96
-49.9742 102.6268 -9.3824 0.633 -0.661 -0.403 74 101 94
-46.1124 95.0008 -6.8554 -0.576 -0.817 0.022 96 140 133
-46.0199 94.9287 -6.8162 -0.317 -0.935 0.159 94 139 136
-45.9174 94.8997 -6.7824 -0.317 -0.935 0.159 93 135 134
-45.8238 94.8339 -6.7441 -0.460 -0.887 0.048 47 84 87
-45.7122 94.8436 -6.7153 -0.344 -0.924 0.166 6 37 40
-45.0308 94.0891 -6.3831 -0.716 -0.698 0.013 101 125 111
-29.3895 87.3217 -0.7857 0.322 -0.684 0.655 66 71 31
-27.9859 88.5510 -0.6365 0.497 -0.867 -0.047 65 69 33
-27.8450 88.6213 -0.6113 0.537 -0.841 0.068 65 69 35
-27.5729 88.9128 -0.5926 0.290 -0.856 0.429 62 66 33
-27.4944 88.8766 -0.5641 0.209 -0.977 0.050 59 65 31
-27.4096 88.8513 -0.5360 0.262 -0.965 -0.024 60 66 30
-27.3122 88.8474 -0.5085 0.211 -0.977 -0.017 61 65 28
-25.8455 90.2723 -0.3796 0.589 -0.725 0.356 53 57 24
-25.6718 90.3889 -0.3543 0.605 -0.699 0.381 62 63 29
-90.5044 99.0229 -19.9466 -0.064 -0.995 -0.077 111 119 61
-90.4718 99.2038 -19.9728 -0.135 -0.972 0.194 110 118 61
-90.3571 99.2034 -19.9412 -0.145 -0.964 0.222 111 119 64
-89.3410 98.4542 -19.5167 -0.556 -0.812 0.180 74 78 43
-89.2356 99.5253 -19.6957 0.749 -0.662 0.025 107 115 69
-89.3913 100.4296 -19.9141 0.859 -0.499 0.113 115 123 77
-89.5712 101.1273 -20.0990 0.575 -0.775 -0.261 119 127 80
-87.4876 97.8097 -18.8825 -0.058 -0.429 0.901 117 124 72
-86.1147 95.0171 -17.9632 -0.584 -0.801 -0.132 116 123 71
-85.5975 95.8782 -17.9884 -0.362 -0.202 0.910 113 120 69
-85.4658 95.8205 -17.9410 -0.364 -0.202 0.909 113 120 69
-85.3741 95.8641 -17.9243 -0.492 -0.180 0.852 113 119 71
-84.7715 95.4328 -17.6750 -0.602 -0.760 0.247 110 116 70
-84.6263 95.3368 -17.6165 -0.602 -0.760 0.247 88 94 48
-84.4816 95.2412 -17.5582 -0.602 -0.760 0.247 74 80 34
-84.3373 95.1458 -17.5001 -0.602 -0.760 0.247 91 99 52
-84.1934 95.0507 -17.4421 -0.602 -0.760 0.247 97 103 57
-84.1406 95.1953 -17.4557 0.024 -0.860 0.510 93 99 53
-84.0193 95.1595 -17.4154 -0.046 -0.846 0.531 95 98 55
-83.7417 95.5749 -17.4198 0.002 -0.767 0.641 95 98 55
-83.0610 94.0193 -16.9308 0.328 -0.662 -0.674 94 97 54
-83.0256 94.2116 -16.9584 0.369 -0.659 -0.655 94 97 52
-72.8427 93.3297 -13.9906 -0.343 -0.922 0.179 107 128 120
-72.7322 93.3033 -13.9551 -0.370 -0.914 0.167 58 79 74
-69.0668 91.2435 -12.5485 0.767 -0.439 0.468 60 90 90
-53.2758 102.3818 -10.3745 -0.626 -0.660 0.415 78 108 100
-53.1534 102.3842 -10.3413 -0.580 -0.711 0.398 72 102 94
-52.9568 101.9563 -10.2042 -0.608 -0.779 0.153 71 101 93
-51.9618 94.4046 -8.4646 -0.361 -0.467 0.807 75 102 95
-51.8441 94.4702 -8.4450 -0.458 -0.542 0.704 83 110 103
-46.0834 94.9687 -6.9597 -0.565 -0.820 0.096 96 141 134
-45.9932 94.8871 -6.9191 -0.305 -0.938 0.165 94 139 136
-45.8903 94.8596 -6.8855 -0.305 -0.938 0.165 93 135 134
-45.7924 94.8119 -6.8493 -0.460 -0.887 0.048 46 83 86
-45.6834 94.8103 -6.8191 -0.557 -0.805 0.205 6 37 40
-45.0060 94.0422 -6.4839 -0.721 -0.692 0.024 97 122 107
-27.7738 88.6664 -0.7074 0.542 -0.837 0.070 66 71 32
-27.3725 89.1749 -0.6959 -0.790 -0.596 0.148 67 72 34
-27.4432 88.8874 -0.6595 -0.013 -0.993 -0.116 66 72 36
-27.3583 88.8623 -0.6313 0.253 -0.967 -0.027 64 70 34
-27.2752 88.8341 -0.6030 0.208 -0.978 -0.023 65 69 32
-27.1367 88.8985 -0.5775 0.530 -0.784 0.323 62 66 29
-25.7975 90.2749 -0.4770 0.631 -0.698 0.340 54 58 25
-90.4756 98.9878 -20.0568 -0.134 -0.990 0.041 115 122 69
-90.4343 99.1493 -20.0771 -0.051 -0.934 0.354 114 121 69
-90.3288 99.1695 -20.0521 -0.043 -0.933 0.358 115 122 71
-89.1465 98.2987 -19.5567 -0.544 -0.822 0.168 110 118 67
-89.3557 100.3792 -20.0221 0.861 -0.493 0.123 113 122 69
-88.3098 98.7283 -19.4111 -0.778 -0.288 0.558 116 123 71
-87.6480 97.4227 -18.9734 0.610 -0.788 -0.086 116 123 71
-87.4131 97.1277 -18.8510 0.571 -0.734 -0.367 116 123 71
-85.7537 94.9552 -17.9694 0.164 -0.985 -0.045 107 114 63
-85.5279 95.1958 -17.9546 -0.050 -0.946 0.320 105 111 63
-85.0008 95.5029 -17.8700 -0.688 -0.519 0.507 97 103 55
-83.8722 95.0942 -17.4799 0.090 -0.861 0.500 93 96 53
-82.7595 94.1047 -16.9803 -0.794 -0.504 -0.338 106 110 60
-73.0646 93.4849 -14.1965 -0.679 -0.729 0.090 111 120 103
-71.4008 107.5635 -16.5003 0.678 -0.387 0.625 51 81 81
-51.8294 94.3430 -8.5334 -0.441 -0.544 0.714 72 99 92
-46.0578 94.9218 -7.0620 -0.560 -0.822 0.105 96 142 134
-45.9688 94.8351 -7.0206 -0.239 -0.956 0.170 94 139 136
-45.8603 94.8315 -6.9901 -0.305 -0.938 0.165 92 134 133
-45.7649 94.7734 -6.9525 -0.301 -0.942 0.151 46 82 86
-45.6574 94.7663 -6.9215 -0.557 -0.805 0.205 6 37 40
-45.3945 94.5046 -6.7980 -0.897 -0.426 0.116 30 50 56
-45.3159 94.3834 -6.7527 -0.896 -0.431 0.111 41 68 70
-44.9914 93.9556 -6.5797 -0.783 -0.545 0.299 92 118 104
-44.6240 94.5366 -6.5927 -0.404 -0.700 0.589 93 107 88
-28.3417 88.3007 -0.8987 0.604 -0.670 0.431 76 82 34
-28.3019 88.0325 -0.8352 0.399 -0.668 0.629 71 78 29
-28.0783 88.2443 -0.8153 -0.450 -0.841 0.299 72 79 30
-27.3914 89.2366 -0.8213 -0.794 -0.594 0.125 71 77 29
-27.3578 88.9554 -0.7569 -0.476 -0.878 0.050 78 85 46
-27.3199 88.8513 -0.7261 0.069 -0.998 0.010 73 79 43
-27.2418 88.8149 -0.6975 0.200 -0.979 -0.025 69 75 39
-25.7638 90.2540 -0.5738 0.565 -0.741 0.362 54 58 25
-25.5582 90.4224 -0.5504 0.565 -0.741 0.362 63 64 32
-25.4144 90.4891 -0.5240 0.410 -0.855 0.319 72 74 38
-25.1850 90.6944 -0.5012 0.567 -0.701 0.432 81 84 43
-94.4323 102.4482 -21.9533 0.367 -0.411 0.835 101 124 78
-90.4896 99.3007 -20.2476 -0.642 -0.743 0.190 115 121 76
-89.0331 99.3861 -19.8645 0.625 -0.778 -0.056 113 122 64
-88.3455 98.8460 -19.5688 -0.491 -0.053 0.870 112 119 67
-87.4242 97.1873 -18.9874 0.571 -0.734 -0.367 112 119 67
-87.2974 97.1499 -18.9452 0.579 -0.725 -0.373 111 118 66
-86.1590 94.9294 -18.1930 -0.519 -0.598 0.611 110 117 65
-85.9366 94.9106 -18.1282 -0.598 -0.790 -0.137 110 117 65
-85.8436 94.9459 -18.1096 0.193 -0.980 -0.036 102 109 57
-85.7367 94.9472 -18.0805 0.149 -0.988 -0.037 103 110 59
-85.5010 95.1635 -18.0586 -0.107 -0.939 0.327 101 108 57
-84.9223 95.3384 -17.9344 -0.692 -0.513 0.508 92 98 50
-84.1047 94.6123 -17.5661 -0.669 -0.500 0.550 90 98 49
-73.0364 93.4462 -14.2961 -0.679 -0.729 0.090 111 120 103
-73.6736 98.2153 -15.4153 0.630 -0.346 0.695 67 88 83
-73.5086 98.5346 -15.4333 0.636 -0.342 0.692 21 42 37
-71.4278 107.9430 -16.7248 0.685 -0.463 0.563 47 77 77
-70.9460 108.2542 -16.6541 0.824 -0.293 0.484 71 101 101
-59.8955 104.8888 -12.9535 -0.575 0.084 0.814 68 100 89
-57.0426 103.8036 -11.9553 0.859 -0.427 -0.283 64 96 85
-51.8148 94.2155 -8.6215 -0.441 -0.544 0.714 65 92 85
-51.7293 94.0616 -8.5675 -0.474 -0.550 0.688 63 90 83
-46.0329 94.8718 -7.1638 -0.563 -0.820 0.104 96 142 135
-45.9333 94.8302 -7.1283 -0.443 -0.864 0.240 97 142 139
-45.8380 94.7715 -7.0905 -0.313 -0.936 0.161 88 129 128
-45.7355 94.7431 -7.0567 -0.313 -0.936 0.161 39 75 79
-45.6313 94.7222 -7.0239 -0.557 -0.805 0.205 7 39 42
-45.3695 94.4568 -6.8995 -0.896 -0.431 0.111 32 51 57
-45.2896 94.3416 -6.8548 -0.882 -0.470 0.045 50 77 79
-30.8392 86.5813 -1.3505 -0.460 -0.887 -0.024 103 107 48
-28.0918 89.6901 -1.2117 -0.270 -0.593 0.759 73 76 33
-27.4087 89.1315 -0.9135 -0.766 -0.611 0.200 77 84 32
-27.3478 89.0650 -0.8836 -0.766 -0.611 0.200 79 85 39
-27.3465 88.8990 -0.8504 -0.461 -0.887 0.029 79 84 45
-27.3150 88.7844 -0.8191 -0.291 -0.950 0.117 73 79 44
-27.2326 88.7554 -0.7907 -0.281 -0.951 0.130 70 76 41
-27.0992 88.8111 -0.7651 -0.290 -0.945 -0.153 66 70 35
-26.8170 89.1128 -0.7473 -0.096 -0.850 -0.518 65 69 34
-26.2185 89.7669 -0.7125 0.613 -0.674 0.412 56 60 25
-25.7468 90.2057 -0.6699 0.522 -0.714 0.467 57 58 26
-25.5578 90.3468 -0.6459 0.453 -0.763 0.461 63 64 32
-25.4109 90.4187 -0.6198 0.470 -0.761 0.446 73 74 39
-25.2281 90.5482 -0.5953 0.523 -0.705 0.479 82 84 43
-94.3618 102.3285 -22.0417 0.368 -0.414 0.833 99 125 78
-89.7978 98.2963 -19.9826 -0.069 -0.813 0.578 115 121 77
-89.9356 98.8598 -20.1330 -0.668 -0.738 0.094 114 120 76
-89.7527 98.7048 -20.0518 -0.664 -0.746 0.048 110 115 74
-89.0320 98.3567 -19.7843 0.510 -0.844 0.166 110 120 59
-88.9526 98.4350 -19.7782 0.605 -0.725 0.330 110 120 59
-87.4986 97.3983 -19.1718 0.594 -0.799 -0.097 107 114 62
-87.4190 97.4756 -19.1654 0.769 -0.606 -0.203 105 112 60
-87.3613 97.6063 -19.1757 0.769 -0.614 -0.176 99 106 54
-85.8239 94.6684 -18.1663 -0.504 -0.591 0.630 100 107 55
-85.8369 94.9631 -18.2288 0.126 -0.992 -0.007 98 105 53
-85.7346 94.9759 -18.2032 0.126 -0.992 -0.007 98 105 53
-85.6323 94.9888 -18.1777 0.126 -0.992 -0.007 98 105 54
-85.1055 95.2905 -18.0934 0.385 -0.919 -0.090 94 100 52
-84.6975 94.7984 -17.8830 -0.457 -0.342 0.821 92 98 52
-84.5650 94.7335 -17.8337 -0.462 -0.346 0.816 92 98 52
-84.4866 94.8078 -17.8270 -0.677 -0.481 0.557 92 98 52
-84.3342 94.6906 -17.7617 -0.674 -0.487 0.556 91 97 51
-73.4664 98.4338 -15.5263 0.554 -0.345 0.758 20 41 36
-60.2432 104.6098 -13.1306 -0.814 -0.003 0.581 66 96 88
-60.1202 104.2243 -13.0197 -0.709 0.036 0.705 66 96 88
-46.0119 94.8059 -7.2635 -0.510 -0.789 0.343 100 146 138
-45.9082 94.7816 -7.2302 -0.480 -0.821 0.309 103 148 145
-45.8094 94.7374 -7.1942 -0.480 -0.821 0.309 78 119 118
-45.7042 94.7203 -7.1619 -0.358 -0.929 0.090 23 60 63
-45.5924 94.7305 -7.1333 -0.682 -0.612 0.400 11 42 45
-30.8407 86.5037 -1.4386 0.175 -0.967 0.187 98 101 44
-27.2694 88.7856 -0.9143 -0.067 -0.985 0.158 74 78 45
-27.1708 88.7833 -0.8868 -0.067 -0.985 0.158 70 74 40
-27.0533 88.8124 -0.8603 -0.290 -0.945 -0.153 67 71 36
-26.4016 89.5569 -0.8302 0.596 -0.690 0.411 60 64 28
-26.1697 89.7714 -0.8095 0.606 -0.678 0.417 56 60 23
-25.9474 89.9689 -0.7879 0.501 -0.676 0.541 52 56 21
-25.7210 90.1720 -0.7663 0.481 -0.679 0.555 57 58 26
-25.5288 90.3181 -0.7428 0.275 -0.810 0.518 64 65 33
-25.4012 90.3584 -0.7158 0.262 -0.816 0.515 73 75 39
-25.2620 90.4174 -0.6894 0.256 -0.817 0.517 82 85 44
-94.5902 103.3228 -22.4366 0.654 -0.737 -0.168 108 120 72
-89.7441 98.2049 -20.0733 -0.077 -0.805 0.588 114 120 74
-89.7882 98.8143 -20.2084 -0.690 -0.718 -0.088 109 115 71
-88.8110 97.8791 -19.7514 -0.629 -0.749 -0.208 110 119 63
-88.3649 97.3665 -19.5255 -0.147 -0.981 -0.130 110 119 63
-87.3435 97.5971 -19.2917 0.763 -0.611 -0.210 91 98 47
-85.6914 94.6390 -18.2411 -0.443 -0.744 0.500 93 100 49
-85.6195 94.9912 -18.2924 0.126 -0.992 -0.007 93 100 50
-57.2595 103.0610 -12.1359 0.812 -0.441 -0.382 88 120 109
-54.7551 99.2848 -10.6863 -0.072 -0.594 0.801 92 119 110
-54.6091 99.6049 -10.7108 -0.153 -0.508 0.847 94 121 112
-48.4630 102.4393 -9.5956 0.888 -0.246 0.389 63 90 81
-45.8905 94.7023 -7.3279 -0.476 -0.735 0.483 103 145 143
-45.7917 94.6585 -7.2919 -0.429 -0.782 0.452 78 118 118
-45.6805 94.6664 -7.2630 -0.198 -0.851 0.486 24 60 63
-45.5757 94.6482 -7.2305 -0.682 -0.612 0.400 12 42 45
-30.9266 86.4463 -1.5538 0.346 -0.911 0.225 99 102 47
-30.7989 86.5036 -1.5303 0.299 -0.929 0.219 94 97 40
-27.2151 88.8011 -1.0102 -0.045 -0.993 0.105 76 80 44
-27.0962 88.8324 -0.9839 -0.072 -0.991 0.111 72 76 40
-26.4225 89.7822 -0.9906 0.526 -0.848 0.058 69 73 36
-26.4530 89.5637 -0.9549 0.539 -0.828 0.154 66 71 32
-26.2371 89.5851 -0.9000 0.635 -0.641 0.431 60 62 24
-25.9203 89.9375 -0.8841 0.500 -0.683 0.533 56 58 21
-25.3745 90.3258 -0.8127 0.275 -0.810 0.518 68 70 34
-25.2175 90.4134 -0.7872 0.265 -0.814 0.517 79 82 41
-89.9986 98.8036 -20.3891 -0.665 -0.747 0.011 117 123 73
-89.7278 98.7078 -20.2952 -0.609 -0.782 -0.132 109 115 67
-88.8250 97.9421 -19.8914 -0.603 -0.783 -0.154 101 107 57
-87.2305 97.9028 -19.4458 0.713 -0.648 -0.266 90 96 48
-82.5189 93.8988 -17.3367 -0.844 -0.486 -0.226 105 109 58
-73.7793 108.3603 -17.8843 0.031 -0.954 -0.298 42 68 65
-73.6273 108.2441 -17.8189 -0.440 -0.880 -0.179 41 68 63
-66.8246 102.9082 -14.8645 -0.679 -0.614 0.404 39 73 59
-45.8723 94.6254 -7.4258 -0.429 -0.782 0.452 104 146 144
-45.7715 94.5902 -7.3910 -0.429 -0.782 0.452 78 117 117
-45.6588 94.6042 -7.3629 -0.198 -0.851 0.486 24 59 63
-30.9610 86.3097 -1.6386 0.685 -0.671 0.285 96 96 42
-30.7418 86.5307 -1.6235 0.135 -0.813 0.566 92 93 36
-27.0092 89.0687 -1.1160 0.530 -0.661 0.531 84 87 45
-26.3872 89.7645 -1.0871 0.525 -0.842 0.121 77 79 37
-26.3604 89.6408 -1.0545 0.559 -0.803 0.208 74 77 35
-26.4201 89.2099 -0.9831 0.607 -0.542 0.581 66 68 27
-26.0033 89.7261 -0.9739 0.498 -0.574 0.650 62 64 24
-25.1680 90.4175 -0.8855 0.343 -0.781 0.521 76 79 38
-94.0302 101.7217 -22.2209 0.441 -0.435 0.785 101 125 99
-89.8202 98.6886 -20.4417 -0.663 -0.743 0.096 112 119 67
-89.7197 98.7192 -20.4204 -0.592 -0.790 -0.158 105 112 61
-82.5776 94.7016 -17.6339 0.240 -0.697 0.676 113 117 66
-73.5906 108.1862 -17.9407 -0.421 -0.888 -0.184 34 61 57
-73.4582 108.1824 -17.9036 -0.422 -0.863 -0.277 36 62 59
-66.7755 102.6717 -14.9361 -0.683 -0.706 0.186 35 73 55
-46.0200 94.7694 -7.6145 -0.420 -0.886 0.198 99 140 131
-45.8419 94.5988 -7.5306 -0.462 -0.849 0.258 105 145 144
-45.7486 94.5330 -7.4914 -0.459 -0.846 0.272 70 106 108
-45.6312 94.5664 -7.4661 -0.199 -0.845 0.496 19 53 56
-45.4887 94.7014 -7.4547 -0.370 -0.763 0.530 14 44 47
-45.1031 94.4943 -7.3063 -0.856 -0.419 0.304 73 100 103
-45.0181 94.3996 -7.2635 -0.844 -0.484 0.231 108 137 137
-30.7171 86.4999 -1.7138 0.153 -0.821 0.549 91 91 37
-26.9700 89.0584 -1.2116 0.553 -0.558 0.619 84 87 42
-26.3995 89.8367 -1.2151 0.447 -0.889 0.096 79 82 36
-26.4146 89.1441 -1.0768 0.608 -0.547 0.575 65 68 24
-25.6242 90.1020 -1.0569 0.430 -0.777 0.460 59 61 24
-93.9588 101.5997 -22.3068 0.620 -0.620 0.481 95 109 80
-90.8882 99.8155 -21.0938 -0.833 -0.524 0.178 112 121 68
-89.9193 98.9410 -20.6464 -0.737 -0.674 -0.050 106 113 62
-89.8336 99.0061 -20.6364 -0.432 -0.767 -0.474 101 108 57
-82.8962 94.4378 -17.7843 -0.882 -0.459 -0.108 94 97 52
-82.5228 93.9937 -17.5896 -0.860 -0.473 -0.191 104 108 57
-82.5384 94.6350 -17.7270 0.560 -0.725 0.401 113 117 66
-73.4753 97.7750 -15.8917 0.701 -0.273 0.658 79 96 93
-66.7419 102.6097 -15.0476 -0.683 -0.706 0.186 37 78 55
-44.0388 102.9424 -8.8864 0.155 -0.761 0.630 99 134 130
-45.8135 94.5644 -7.6342 -0.453 -0.853 0.258 110 141 143
-45.7159 94.5163 -7.5975 -0.453 -0.855 0.253 54 84 86
-45.5993 94.5462 -7.5717 -0.345 -0.842 0.414 8 37 40
-45.4674 94.6378 -7.5545 -0.366 -0.767 0.527 17 46 48
-45.0716 94.4720 -7.4115 -0.847 -0.471 0.247 83 111 115
-26.6090 89.4139 -1.2949 0.628 -0.530 0.569 77 83 37
-25.9270 90.0337 -1.2364 0.551 -0.775 0.310 70 73 28
-26.4540 89.0049 -1.1675 0.608 -0.547 0.575 66 69 23
-25.6980 89.9063 -1.1471 0.629 -0.713 0.309 59 61 25
-89.8831 98.8893 -20.7514 -0.739 -0.669 -0.080 101 108 57
-89.3283 98.6679 -20.5528 -0.475 -0.753 -0.456 88 94 46
-82.5022 94.5765 -17.8225 0.558 -0.737 0.382 112 116 65
-73.4357 97.6868 -15.9864 0.695 -0.266 0.669 80 96 93
-66.8359 102.6086 -15.2067 -0.525 -0.825 0.210 19 61 37
-65.2281 104.2594 -15.1113 -0.888 -0.286 -0.361 35 73 58
-44.4374 103.1876 -9.1820 0.314 -0.219 0.924 88 124 120
-45.1527 94.4365 -7.5448 -0.736 -0.655 0.169 45 73 76
-45.0354 94.4685 -7.5193 -0.708 -0.676 0.207 83 111 116
-44.9761 94.2736 -7.4622 -0.847 -0.471 0.247 106 132 135
-44.9584 93.9203 -7.3834 -0.692 -0.708 0.142 102 126 126
-44.9001 93.7279 -7.3271 -0.735 -0.676 -0.060 101 122 114
-33.5897 84.7042 -2.3331 0.748 -0.610 0.261 107 105 50
-26.5926 89.5333 -1.4248 0.728 -0.550 0.409 84 87 44
-26.4991 89.5199 -1.3964 0.668 -0.533 0.520 80 83 38
-26.4106 89.4985 -1.3676 0.651 -0.552 0.521 77 80 35
-26.0355 89.9476 -1.3588 0.585 -0.738 0.338 74 77 32
-26.0367 89.4459 -1.2540 0.666 -0.678 0.312 63 65 24
-93.8893 101.5061 -22.5296 0.615 -0.623 0.483 113 136 116
-90.1404 98.9816 -20.9673 -0.692 -0.504 0.518 94 101 50
-89.9537 99.3376 -20.9914 -0.482 -0.749 -0.455 91 98 47
-89.8277 99.3134 -20.9517 -0.572 -0.704 -0.422 91 98 47
-83.4496 94.8586 -18.2599 -0.759 -0.590 0.276 90 92 53
-83.3011 94.7480 -18.1957 -0.740 -0.564 0.367 90 92 53
-82.4750 94.5435 -17.9258 0.558 -0.737 0.382 112 116 65
-76.9614 94.4198 -16.3870 0.438 -0.849 0.297 93 100 59
-66.7903 102.4117 -15.2862 -0.568 -0.591 0.572 21 63 39
-57.1997 89.2064 -9.8629 0.771 -0.546 0.328 94 127 118
-57.0838 89.4687 -9.8865 0.731 -0.498 0.467 82 115 106
-44.7849 101.5108 -9.0583 0.146 -0.182 0.972 88 124 120
-45.1809 94.1787 -7.6167 -0.868 -0.454 0.203 45 73 76
-45.1041 94.0532 -7.5691 -0.868 -0.454 0.203 83 110 117
-44.9291 93.8903 -7.4866 -0.633 -0.733 0.248 102 126 126
-44.8480 93.7861 -7.4423 -0.625 -0.759 0.184 101 122 114
-26.5562 89.3500 -1.4858 0.668 -0.529 0.523 84 87 42
-26.4188 89.4093 -1.4607 0.645 -0.550 0.531 82 85 40
-26.1288 89.7185 -1.4465 0.497 -0.617 0.610 77 80 35
-26.4785 88.8160 -1.3516 0.599 -0.550 0.582 69 72 27
-25.9896 89.4474 -1.3510 0.671 -0.671 0.315 66 68 27
-25.4141 90.0492 -1.3203 0.621 -0.733 0.276 59 60 27
-93.8587 101.4680 -22.6440 0.614 -0.630 0.475 122 157 144
-90.7871 99.6785 -21.4195 -0.884 -0.451 0.123 107 115 64
-90.2057 98.9006 -21.0940 -0.693 -0.503 0.516 94 101 50
-84.1963 95.1608 -18.6476 0.153 -0.279 0.948 87 94 52
-83.9790 95.1591 -18.5876 0.309 -0.304 0.901 85 90 50
-83.2887 94.7551 -18.3120 -0.786 -0.567 0.245 83 85 46
-82.4478 94.5105 -18.0291 0.558 -0.737 0.382 111 115 64
-76.9309 94.3746 -16.4867 0.383 -0.834 0.397 93 100 59
-66.7517 102.2935 -15.3839 -0.565 -0.585 0.582 22 64 40
-65.2070 104.8704 -15.5099 -0.791 -0.311 -0.526 51 89 74
-45.8902 94.6970 -8.0401 0.058 -0.966 -0.253 97 132 128
-45.1636 94.1012 -7.7136 -0.869 -0.441 0.223 47 75 78
-45.0867 93.9766 -7.6660 -0.868 -0.454 0.203 89 116 123
-44.8241 93.7356 -7.5425 -0.643 -0.740 0.200 98 118 110
-26.7315 88.9858 -1.5657 0.607 -0.499 0.618 84 87 42
-26.3589 89.4323 -1.5588 0.445 -0.589 0.675 82 85 40
-26.1527 89.6037 -1.5388 0.474 -0.549 0.689 77 80 35
-25.8739 89.8925 -1.5239 0.350 -0.644 0.680 74 75 31
-25.3853 90.0202 -1.4171 0.608 -0.707 0.360 59 60 27
-93.8131 101.3991 -22.7476 0.587 -0.637 0.500 108 154 150
-93.7698 101.5552 -22.7693 -0.138 -0.772 0.620 73 111 87
-93.6526 101.5594 -22.7381 -0.138 -0.772 0.620 102 120 77
-93.5285 101.5492 -22.7018 0.074 -0.828 0.556 110 120 69
-76.9037 94.3423 -16.5901 0.480 -0.838 0.260 93 100 59
-73.3186 97.4294 -16.2713 0.743 -0.265 0.615 88 104 101
-66.7263 102.3240 -15.5168 -0.339 -0.534 0.775 25 67 43
-65.3279 105.2474 -15.7627 -0.856 -0.335 -0.394 51 89 74
-47.0461 94.2694 -8.3845 0.830 -0.469 0.303 76 106 98
-45.8532 94.6978 -8.1495 0.055 -0.976 -0.211 91 126 122
-45.3212 94.1925 -7.8948 -0.685 -0.709 0.165 19 47 50
-45.2192 94.1651 -7.8609 -0.828 -0.517 0.217 18 46 49
-45.1352 94.0671 -7.8168 -0.863 -0.445 0.236 50 78 81
-45.0672 93.9085 -7.7639 -0.863 -0.457 0.217 99 126 133
-44.7980 93.6938 -7.6439 -0.639 -0.733 0.234 91 112 104
-26.1212 89.7468 -1.6711 0.477 -0.563 0.675 82 85 38
-26.0738 89.6571 -1.6388 0.434 -0.544 0.718 77 80 33
-93.7646 101.3240 -22.8489 0.499 -0.622 0.604 106 162 164
-93.7128 101.4626 -22.8648 -0.508 -0.569 0.647 75 121 102
-93.5593 101.3912 -22.8072 -0.508 -0.569 0.647 101 122 81
-93.4910 101.4968 -22.8114 0.080 -0.834 0.546 109 120 69
-48.0037 92.1751 -8.3108 0.676 -0.183 0.714 67 97 89
-46.1500 94.2175 -8.2461 -0.871 -0.483 0.088 90 126 122
-45.2848 94.1903 -8.0028 -0.833 -0.549 0.069 23 51 54
-45.1939 94.1186 -7.9624 -0.831 -0.519 0.199 23 51 54
-26.7633 88.4555 -1.6773 0.633 -0.611 0.476 78 81 34
-26.3620 88.9462 -1.6738 0.652 -0.626 0.428 73 77 29
-93.7761 101.3725 -22.9937 -0.508 -0.569 0.647 105 165 168
-93.6226 101.3012 -22.9360 -0.508 -0.569 0.647 74 124 107
-87.5641 96.8187 -20.2921 0.740 -0.501 0.449 88 95 53
-87.4276 97.0242 -20.2997 0.556 -0.766 0.324 85 92 48
-82.3670 94.4134 -18.3397 0.525 -0.793 0.309 111 116 62
-73.1536 97.3902 -16.4655 0.699 -0.284 0.656 45 64 58
-66.3962 103.4645 -15.9436 0.027 -0.953 -0.300 39 83 60
-48.2969 91.1307 -8.2770 0.682 -0.173 0.710 62 92 82
-48.0549 91.7758 -8.3520 0.682 -0.173 0.710 63 93 85
-45.3568 94.1902 -8.1413 -0.814 -0.560 0.151 18 46 50
-45.2484 94.1877 -8.1110 -0.835 -0.550 0.024 29 57 61
-30.7371 86.1125 -2.3617 0.522 -0.779 0.348 82 84 37
-26.8328 88.2681 -1.7634 0.704 -0.650 0.285 83 90 39
-93.8285 101.5056 -23.1687 -0.614 -0.790 -0.006 106 167 168
-93.6369 101.3560 -23.0831 -0.614 -0.790 -0.006 74 126 109
-93.4372 101.1885 -22.9913 -0.605 -0.796 -0.005 99 124 83
-89.0238 99.7568 -21.4646 0.647 -0.558 0.520 85 92 51
-88.9460 99.8480 -21.4634 0.647 -0.558 0.520 85 92 51
-87.5244 96.7569 -20.3901 0.739 -0.519 0.430 85 92 51
-87.3768 96.6703 -20.3305 0.589 -0.766 0.258 83 90 48
-87.3572 96.8891 -20.3735 0.595 -0.756 0.272 81 88 46
-82.6368 94.3110 -18.5092 -0.869 -0.494 -0.023 97 101 52
-82.3700 93.8645 -18.3373 -0.874 -0.485 -0.014 101 106 52
-82.1196 93.4595 -18.1791 -0.863 -0.505 -0.013 106 111 57
-82.3399 94.3808 -18.4432 0.509 -0.789 0.344 110 115 61
-76.7996 94.1599 -16.8751 0.362 -0.580 0.730 92 99 57
-73.1937 97.1302 -16.5431 0.698 -0.282 0.659 93 111 103
-46.3686 93.9047 -8.4744 -0.815 -0.540 0.211 76 112 108
-45.3395 94.1117 -8.2380 -0.813 -0.559 0.165 20 47 52
-45.2224 94.1439 -8.2130 -0.835 -0.550 0.024 26 54 58
-44.8256 93.5768 -7.9788 -0.711 -0.702 0.032 97 122 118
-31.0090 85.8943 -2.4916 0.552 -0.800 0.235 96 99 47
-30.8591 85.9912 -2.4720 0.537 -0.819 0.202 92 94 46
-30.7034 86.0980 -2.4528 0.537 -0.819 0.202 78 79 35
-25.7924 90.0566 -1.9815 0.260 -0.963 -0.067 85 92 40
-25.5615 89.7648 -1.8536 0.487 -0.844 0.226 73 77 30
-93.8079 101.4882 -23.2908 -0.591 -0.805 -0.057 107 167 167
-93.6223 101.3509 -23.2093 -0.581 -0.813 -0.035 74 125 111
-93.4381 101.2158 -23.1286 -0.581 -0.813 -0.035 98 122 81
-89.8994 99.1348 -21.6943 -0.191 -0.477 0.858 88 95 51
-89.7260 99.2656 -21.6759 -0.601 -0.199 0.774 87 94 50
-88.7989 99.8096 -21.5431 0.492 -0.870 -0.006 81 88 47
-88.8929 100.3109 -21.6806 0.510 -0.852 -0.117 79 86 44
-82.3355 93.8105 -18.4329 -0.875 -0.483 -0.015 101 106 52
-82.3355 94.1097 -18.4996 0.407 -0.911 0.065 106 111 57
-82.3148 94.3535 -18.5483 0.572 -0.795 0.204 110 115 61
-76.7662 94.1042 -16.9715 0.374 -0.571 0.731 93 100 58
-54.0260 86.8942 -9.1286 -0.826 -0.464 -0.322 68 94 85
-53.9552 86.6946 -9.0647 -0.900 -0.410 0.147 64 90 81
-48.9253 97.5438 -10.1054 0.290 0.022 0.957 84 114 104
-45.3171 94.0539 -8.3377 -0.819 -0.556 0.141 18 45 53
-45.1964 94.1000 -8.3149 -0.835 -0.550 0.024 12 39 47
-44.8818 93.6340 -8.1247 -0.715 -0.698 -0.020 107 132 127
-44.7993 93.5357 -8.0802 -0.706 -0.708 0.026 100 122 112
-30.9976 85.8404 -2.5798 0.612 -0.776 0.152 97 99 48
-30.6584 86.1034 -2.5454 0.524 -0.847 0.093 73 74 31
-29.2847 87.1509 -2.4024 0.045 -0.720 0.693 88 87 39
-25.7118 90.1118 -2.0832 0.151 -0.988 0.012 86 93 41
-25.5142 89.7656 -1.9518 0.483 -0.846 0.228 74 77 30
-93.6077 101.3460 -23.3356 -0.581 -0.813 -0.035 74 126 111
-93.4235 101.2108 -23.2547 -0.581 -0.813 -0.035 99 124 83
-89.6861 98.4253 -21.6035 0.531 -0.532 0.659 91 98 54
-89.6832 99.1989 -21.7767 -0.635 -0.253 0.730 87 94 50
-82.3128 93.7895 -18.5391 -0.871 -0.491 -0.008 101 106 52
-82.2831 94.3079 -18.6477 0.578 -0.807 0.117 110 115 61
-76.7269 94.0256 -17.0609 0.442 -0.626 0.643 93 100 58
-66.7507 101.4357 -15.9932 -0.873 -0.441 0.211 23 73 35
-65.6700 99.9223 -15.3564 -0.920 -0.108 0.376 66 102 88
-53.9241 86.7156 -9.1651 -0.824 -0.465 -0.324 48 74 65
-53.8420 86.6105 -9.1189 -0.890 -0.411 -0.197 43 69 60
-45.1705 94.0562 -8.4169 -0.835 -0.550 0.024 17 44 53
-44.8530 93.6021 -8.2277 -0.719 -0.684 0.127 107 133 126
-44.7878 93.4386 -8.1730 -0.725 -0.689 0.002 100 122 111
-34.3890 83.4559 -3.0763 0.681 -0.692 0.240 19 21 9
-31.0065 85.7504 -2.6653 0.683 -0.703 0.196 96 98 49
-30.6065 86.1207 -2.6389 0.562 -0.809 0.175 70 71 27
-25.4673 89.7659 -2.0501 0.483 -0.846 0.228 72 79 30
-25.3326 89.8175 -2.0248 0.596 -0.738 0.316 66 69 26
-93.5760 101.3055 -23.4494 -0.581 -0.814 -0.013 94 146 130
-93.3971 101.1815 -23.3722 -0.555 -0.830 -0.050 95 121 77
-90.4857 99.2134 -22.1275 -0.878 -0.471 -0.082 108 116 65
-89.7513 98.8604 -21.8461 -0.201 -0.448 0.871 78 85 41
-89.1619 98.5639 -21.6173 0.615 -0.778 -0.127 76 83 41
-76.6963 93.9804 -17.1602 0.450 -0.602 0.660 93 100 58
-66.5042 101.7080 -16.1200 -0.816 -0.577 -0.030 25 72 36
-66.3754 101.6203 -16.0648 -0.862 -0.501 0.076 30 76 45
-49.6162 97.1161 -10.4488 -0.467 -0.841 -0.273 79 109 101
-45.6407 94.2104 -8.6997 -0.605 -0.768 -0.211 79 114 118
-45.5419 94.1681 -8.6630 -0.599 -0.771 -0.214 51 82 87
-45.3327 94.1311 -8.5973 -0.778 -0.627 -0.045 19 43 53
-45.2724 93.9376 -8.5369 -0.819 -0.556 0.141 24 51 60
-44.8236 93.5727 -8.3310 -0.677 -0.704 0.213 107 133 126
-44.7523 93.4328 -8.2797 -0.713 -0.700 0.042 100 122 111
-25.5607 89.8708 -2.2108 0.144 -0.907 0.397 81 90 37
-25.4202 89.7662 -2.1486 0.483 -0.846 0.228 74 80 31
-93.5698 101.3181 -23.5822 -0.561 -0.824 -0.075 94 147 130
-93.3873 101.1866 -23.5021 -0.561 -0.824 -0.075 96 122 78
-93.2167 101.0790 -23.4307 -0.555 -0.829 -0.072 107 117 67
-89.6646 98.6946 -21.9115 -0.201 -0.448 0.871 74 81 37
-89.1587 98.5877 -21.7483 0.615 -0.778 -0.127 74 81 39
-76.6613 93.9180 -17.2543 0.545 -0.666 0.510 93 100 58
-72.3343 92.6264 -15.7727 0.608 -0.729 0.315 109 130 107
-72.2436 92.7000 -15.7647 0.588 -0.741 0.325 102 125 108
-66.4725 101.6656 -16.2349 -0.828 -0.560 -0.022 26 73 37
-66.3410 101.5449 -16.1713 -0.862 -0.501 0.076 32 78 46
-56.6914 94.7746 -11.9770 -0.631 -0.063 0.773 57 101 78
-55.3422 87.2601 -9.8874 -0.661 -0.723 -0.203 79 114 95
-45.6962 94.2801 -8.8502 -0.599 -0.714 -0.361 77 129 123
-45.5069 94.1601 -8.7709 -0.188 -0.882 -0.432 47 78 83
-45.3147 94.0554 -8.6943 -0.766 -0.637 -0.090 20 44 54
-45.1267 93.9366 -8.6156 -0.816 -0.569 0.108 26 53 62
-45.0469 93.8234 -8.5678 -0.811 -0.575 0.109 46 73 82
-44.7962 93.5360 -8.4333 -0.680 -0.702 0.212 106 131 125
-44.7226 93.4048 -8.3831 -0.711 -0.701 0.048 98 120 109
-44.3456 93.6011 -8.3247 -0.465 -0.765 0.445 92 103 81
-30.3712 86.2174 -2.8047 0.543 -0.776 0.320 61 61 22
-25.3926 89.7353 -2.2453 0.468 -0.802 0.372 74 80 31
-25.2213 89.8453 -2.2235 0.468 -0.802 0.372 65 68 25
-93.5601 101.3233 -23.7126 -0.561 -0.824 -0.075 95 149 133
-93.3775 101.1917 -23.6322 -0.561 -0.824 -0.075 95 121 78
-89.1507 98.6004 -21.8758 0.614 -0.779 -0.126 74 81 39
-76.6274 93.8601 -17.3496 0.715 -0.664 0.218 93 100 58
-72.3089 92.6016 -15.8757 0.603 -0.738 0.304 107 128 106
-72.2181 92.6751 -15.8677 0.588 -0.741 0.325 108 131 114
-72.6783 97.3842 -17.0808 0.688 -0.282 0.669 27 47 50
-66.8507 102.1320 -16.5796 -0.739 -0.443 0.507 31 81 43
-66.4396 101.6098 -16.3465 -0.860 -0.510 0.012 32 79 44
-66.3066 101.4695 -16.2776 -0.862 -0.501 0.076 39 85 55
-46.0976 93.8224 -8.9743 -0.720 -0.617 0.317 95 138 134
-45.7551 94.3361 -8.9990 -0.600 -0.718 -0.354 81 133 126
-45.6554 94.2954 -8.9623 -0.610 -0.710 -0.352 75 127 122
-45.4724 94.1501 -8.8786 -0.535 -0.809 -0.245 34 65 70
-45.3806 94.0803 -8.8373 -0.601 -0.769 -0.216 18 45 54
-45.1048 93.8772 -8.7148 -0.811 -0.575 0.109 26 53 62
-45.0233 93.7711 -8.6680 -0.811 -0.575 0.109 55 82 91
-44.8574 93.5737 -8.5770 -0.678 -0.702 0.216 112 139 137
-44.7688 93.4988 -8.5354 -0.675 -0.709 0.207 102 127 121
-30.8798 85.7530 -2.9413 0.668 -0.674 0.316 95 98 47
-30.6565 85.9786 -2.9322 0.668 -0.674 0.316 78 79 34
-30.4582 86.1590 -2.9195 0.627 -0.707 0.326 62 63 20
-93.7196 101.4315 -23.9136 -0.592 -0.799 0.111 107 168 169
-93.5428 101.3128 -23.8375 -0.603 -0.789 0.116 96 148 138
-93.3629 101.1869 -23.7589 -0.603 -0.789 0.116 95 120 82
-89.6124 98.8976 -22.1983 0.031 -0.869 -0.494 81 88 44
-76.3851 94.2396 -17.4896 0.684 -0.719 0.128 105 112 70
-72.2840 92.5793 -15.9793 0.603 -0.738 0.304 107 127 106
-72.1926 92.6501 -15.9708 0.588 -0.741 0.325 108 131 114
-72.1123 92.7795 -15.9789 0.675 -0.608 0.419 68 89 78
-67.4243 102.0305 -16.8476 0.189 -0.060 0.980 35 81 45
-67.2113 102.3618 -16.8664 0.125 -0.095 0.988 33 82 44
-66.8132 102.0274 -16.6794 -0.806 -0.423 0.415 30 80 42
-66.5371 101.6580 -16.5178 -0.834 -0.459 0.305 30 80 43
-66.4074 101.5611 -16.4597 -0.873 -0.484 0.055 36 83 48
-66.2723 101.3942 -16.3838 -0.862 -0.501 0.076 46 92 62
-55.0840 90.3289 -10.7424 0.408 -0.208 0.889 64 101 71
-45.6316 94.2420 -9.0631 -0.795 -0.605 0.029 81 132 127
-45.4319 94.1638 -8.9902 -0.536 -0.826 -0.173 34 65 70
-45.0024 93.7082 -8.7665 -0.810 -0.577 0.100 55 82 91
-44.8391 93.5019 -8.6737 -0.679 -0.707 0.200 113 139 137
-44.7533 93.4167 -8.6304 -0.679 -0.703 0.211 102 128 121
-30.8087 85.8047 -3.0375 0.615 -0.684 0.392 96 98 50
-30.5986 86.0065 -3.0269 0.613 -0.687 0.391 78 79 38
-93.6791 101.3730 -24.0211 -0.589 -0.796 0.138 115 176 179
-93.5030 101.2558 -23.9454 -0.589 -0.796 0.138 112 163 159
-89.2806 98.9614 -22.2499 0.783 -0.314 0.537 84 91 47
-81.9885 93.6922 -19.0152 -0.574 -0.816 0.068 105 112 58
-81.8728 93.6662 -18.9774 -0.643 -0.764 -0.050 110 117 63
-76.5173 93.9917 -17.5865 0.836 -0.549 0.023 96 103 61
-76.3768 94.2811 -17.6159 0.871 -0.490 -0.020 106 113 71
-72.2460 92.4903 -16.0638 0.670 -0.620 0.407 107 127 106
-72.1594 92.5850 -16.0623 0.670 -0.620 0.407 109 132 115
-72.0814 92.7269 -16.0742 0.670 -0.610 0.423 67 89 78
-71.6871 94.0425 -16.2750 0.080 -0.284 0.956 33 59 53
-68.9451 92.9333 -15.2634 0.322 -0.891 -0.319 43 72 70
-67.3664 101.7230 -16.8940 0.191 -0.063 0.980 35 81 46
-67.2501 101.7784 -16.8751 0.152 -0.063 0.986 33 79 43
-57.7347 89.7991 -11.4562 0.116 -0.833 0.541 75 112 95
-56.7228 89.8193 -11.1837 -0.204 -0.077 0.976 76 120 97
-54.8571 90.2606 -10.7761 0.217 -0.377 0.900 60 97 64
-45.6056 94.1971 -9.1653 -0.743 -0.605 0.286 88 136 133
-45.5177 94.1101 -9.1208 -0.743 -0.605 0.286 77 113 117
-45.3876 94.1928 -9.1046 -0.528 -0.831 -0.177 34 65 70
-44.9853 93.6308 -8.8624 -0.869 -0.495 0.014 54 81 90
-44.9041 93.5256 -8.8155 -0.711 -0.691 0.131 99 126 133
-44.8189 93.4373 -8.7715 -0.677 -0.707 0.202 112 139 137
-30.5636 85.9939 -3.1186 0.336 -0.800 0.498 71 73 37
-93.6454 101.3286 -24.1338 -0.589 -0.796 0.138 116 176 181
-93.4694 101.2114 -24.0578 -0.589 -0.796 0.138 113 165 166
-83.5422 94.7608 -19.8115 -0.357 -0.665 0.656 90 96 50
-83.4244 94.7354 -19.7732 -0.357 -0.665 0.656 89 95 49
-83.3066 94.7100 -19.7350 -0.357 -0.665 0.656 88 94 48
-83.1836 94.6699 -19.6918 -0.371 -0.676 0.637 87 93 47
-81.8397 93.6160 -19.0742 -0.625 -0.780 0.039 106 113 59
-76.5025 94.0073 -17.7047 0.876 -0.479 -0.057 94 101 59
-76.3647 94.3077 -17.7380 0.871 -0.490 -0.020 104 111 69
-72.2208 92.4664 -16.1670 0.565 -0.735 0.376 107 126 107
-72.1318 92.5493 -16.1622 0.670 -0.620 0.407 110 132 116
-72.0534 92.6888 -16.1737 0.670 -0.610 0.423 72 93 84
-71.9625 92.7655 -16.1670 0.669 -0.618 0.413 23 44 38
-72.1825 96.2852 -17.0603 -0.302 -0.914 0.270 46 68 69
-71.6293 93.8423 -16.3305 0.071 -0.281 0.957 37 63 56
-67.3328 95.9411 -15.6503 -0.488 -0.533 0.691 42 85 67
-66.0378 100.6804 -16.4172 -0.899 -0.425 0.104 85 122 106
-57.7090 89.7580 -11.5504 0.205 -0.738 -0.643 46 81 64
-56.9527 88.9745 -11.1577 -0.009 -0.217 0.976 67 108 85
-56.8799 88.5788 -11.0442 0.686 -0.669 0.285 67 108 85
-55.1773 89.8071 -10.8684 0.077 -0.731 0.678 41 79 43
-45.5838 94.1357 -9.2647 -0.753 -0.589 0.292 89 135 131
-45.4908 94.0691 -9.2235 -0.699 -0.650 0.297 75 109 113
-45.3471 94.2063 -9.2166 -0.530 -0.827 -0.188 32 63 68
-44.9641 93.5693 -8.9609 -0.879 -0.477 0.004 62 89 97
-44.8970 93.4108 -8.9050 -0.858 -0.513 -0.032 100 128 134
-93.5827 101.2243 -24.2242 -0.553 -0.811 0.192 115 177 181
-93.4166 101.1273 -24.1556 -0.553 -0.811 0.192 112 167 165
-83.7233 94.7053 -19.9678 -0.338 -0.666 0.665 87 93 45
-83.6141 94.7029 -19.9374 -0.398 -0.668 0.629 84 90 44
-83.4937 94.6708 -19.8967 -0.386 -0.671 0.633 85 88 45
-83.0982 94.4779 -19.7423 -0.297 -0.695 0.655 91 94 49
-82.9504 94.3688 -19.6758 -0.246 -0.745 0.620 90 93 47
-76.3579 94.3555 -17.8668 0.867 -0.483 -0.122 103 110 69
-72.1042 92.5135 -16.2621 0.670 -0.620 0.407 113 132 124
-72.0220 92.6334 -16.2682 0.669 -0.618 0.413 76 97 90
-71.9347 92.7288 -16.2670 0.669 -0.618 0.413 30 51 44
