ply
format ascii 1.0
element vertex 391
property float x
property float y
property float z
property float nx
property float ny
property float nz
property uchar diffuse_red
property uchar diffuse_green
property uchar diffuse_blue
end_header
39.6527 78.0296 -10.3658 -0.021 -0.989 0.147 99 118 85
39.2839 83.2650 -11.1431 -0.339 -0.784 0.520 39 42 21
25.0025 72.3645 -3.3261 -0.026 -0.996 0.080 66 86 35
37.6736 77.9419 -11.8302 0.124 -0.986 0.114 122 136 77
38.1110 77.8892 -12.2779 0.189 -0.967 0.173 73 86 63
37.5935 80.1255 -12.7646 -0.645 -0.554 0.526 117 130 73
24.8392 73.0529 -5.4753 0.113 -0.993 0.046 68 82 48
37.5130 81.3948 -14.1657 0.705 -0.709 0.009 105 117 71
37.6199 81.4955 -14.2454 0.706 -0.707 0.039 102 113 73
37.4613 81.3917 -14.2582 0.704 -0.711 0.010 111 120 75
37.5663 81.4750 -14.3334 0.706 -0.708 0.016 102 113 74
37.4011 81.3102 -14.3295 0.706 -0.708 0.016 108 116 75
37.6137 81.5008 -14.4870 0.725 -0.687 0.044 51 64 27
37.3417 81.2356 -14.4025 0.730 -0.679 0.075 102 110 73
37.4435 81.2929 -14.4708 0.806 -0.592 -0.006 110 121 85
37.5558 81.4433 -14.5651 0.725 -0.688 0.040 56 69 32
37.3869 81.2455 -14.5514 0.805 -0.593 -0.009 111 122 87
37.5000 81.4041 -14.6483 0.788 -0.612 0.064 59 72 35
37.3323 81.2160 -14.6370 0.805 -0.593 -0.011 107 116 85
37.3357 81.5276 -15.6989 -0.207 -0.968 0.143 50 62 39
22.8470 72.1607 -5.8688 0.236 -0.956 -0.173 97 117 64
35.7187 79.8758 -15.3768 -0.789 -0.301 0.536 108 119 62
35.6655 79.8584 -15.4649 -0.789 -0.301 0.536 106 117 61
36.7511 81.3820 -16.4670 0.161 -0.950 0.266 39 48 29
36.1490 83.5237 -16.9324 0.380 -0.914 0.141 89 103 52
36.0907 83.4858 -17.0206 0.380 -0.914 0.141 92 109 54
36.0333 83.4598 -17.1124 0.382 -0.915 0.132 104 121 66
35.9750 83.4226 -17.2009 0.382 -0.915 0.132 105 119 66
35.9158 83.3740 -17.2858 0.408 -0.902 0.143 106 118 69
35.8572 83.3336 -17.3733 0.408 -0.902 0.143 107 116 68
35.8017 83.3318 -17.4729 0.477 -0.855 0.206 102 112 63
35.7420 83.2785 -17.5564 0.477 -0.855 0.206 100 113 60
35.8399 83.2589 -17.6072 0.015 -0.982 0.189 83 95 44
35.6269 83.2260 -17.7406 0.058 -0.988 0.145 98 111 58
35.5681 83.1834 -17.8275 0.061 -0.986 0.155 96 109 56
35.4094 83.1317 -17.8542 0.336 -0.854 0.396 97 110 57
35.5086 83.1319 -17.9116 0.336 -0.860 0.384 95 108 55
35.4486 83.0732 -17.9933 0.334 -0.861 0.385 96 109 56
34.6819 67.4780 -13.1327 0.586 -0.526 0.617 67 76 48
35.3884 83.0118 -18.0741 0.364 -0.846 0.390 93 106 53
35.2662 82.8616 -18.2264 0.256 -0.965 0.060 93 105 55
38.0053 76.5396 -17.9894 -0.157 -0.932 0.326 117 126 70
35.2082 82.8291 -18.3165 0.291 -0.954 0.073 94 106 56
37.4677 77.1228 -17.9689 -0.060 -0.956 0.286 64 69 39
37.5159 76.7413 -17.8857 0.120 -0.991 0.059 69 75 41
37.9555 76.5323 -18.0809 -0.186 -0.932 0.312 118 127 70
35.1513 82.8143 -18.4126 0.295 -0.952 0.077 95 107 57
37.9143 76.5935 -18.1977 -0.257 -0.914 0.314 119 129 71
35.0947 82.8042 -18.5104 0.303 -0.951 0.058 91 105 54
35.1881 82.7233 -18.5411 0.542 -0.820 0.184 90 102 52
37.8632 76.5774 -18.2863 -0.257 -0.914 0.314 117 126 67
37.9286 76.3566 -18.2592 -0.102 -0.942 0.321 118 128 67
35.0371 82.7802 -18.6036 0.303 -0.951 0.058 91 103 53
35.1296 82.6848 -18.6294 0.435 -0.881 0.188 90 102 52
37.8120 76.5612 -18.3750 -0.257 -0.914 0.314 116 126 65
37.8775 76.3394 -18.3472 -0.103 -0.935 0.340 119 129 68
37.7614 76.5493 -18.4653 -0.243 -0.930 0.276 117 127 66
37.8269 76.3267 -18.4370 -0.129 -0.933 0.336 120 130 67
37.7744 76.2991 -18.5212 -0.166 -0.943 0.290 121 131 68
35.0458 82.4630 -18.9159 0.492 -0.833 0.253 90 100 51
37.7246 76.2926 -18.6135 -0.145 -0.947 0.287 119 130 65
37.5256 76.5970 -18.7134 -0.203 -0.956 0.212 112 123 58
37.6731 76.2738 -18.7013 -0.145 -0.947 0.287 118 127 59
37.4749 76.5877 -18.8052 -0.181 -0.948 0.261 111 122 59
37.0634 76.6875 -18.7178 0.105 -0.986 0.128 62 68 32
37.4879 76.3277 -18.8568 -0.233 -0.941 0.244 120 129 64
34.6405 78.1587 -17.8687 -0.505 -0.121 0.855 88 96 49
37.4371 76.3166 -18.9479 -0.233 -0.941 0.244 119 127 67
37.3863 76.3056 -19.0390 -0.233 -0.941 0.244 116 124 66
22.4627 72.3623 -9.0488 0.686 -0.681 -0.256 45 59 34
37.3354 76.2945 -19.1302 -0.233 -0.941 0.244 118 126 69
22.4171 72.3344 -9.1151 0.689 -0.680 -0.250 45 59 33
37.2845 76.2834 -19.2215 -0.233 -0.941 0.244 119 127 71
37.2336 76.2723 -19.3129 -0.233 -0.941 0.244 121 128 73
36.7596 76.6598 -19.2812 -0.035 -0.981 0.191 60 64 31
37.1825 76.2611 -19.4045 -0.233 -0.941 0.244 121 129 71
36.7129 76.6945 -19.3908 -0.049 -0.980 0.195 59 63 30
37.1314 76.2500 -19.4961 -0.233 -0.941 0.244 120 128 69
36.6612 76.6825 -19.4825 -0.096 -0.963 0.251 58 62 29
36.9880 76.2480 -19.5356 0.400 -0.916 -0.034 100 107 57
36.6114 76.6898 -19.5819 -0.087 -0.961 0.262 57 60 29
36.5890 76.0581 -19.4854 0.436 -0.899 -0.046 59 62 31
36.5402 76.0705 -19.5861 0.403 -0.914 -0.041 62 65 35
22.3358 72.4187 -9.9212 0.499 -0.851 -0.165 36 47 29
36.4905 76.0756 -19.6841 0.403 -0.915 -0.025 61 64 35
36.5851 76.1671 -20.0257 0.339 -0.941 -0.014 70 76 39
36.2546 75.8076 -20.2098 0.361 -0.932 0.027 58 63 30
36.2066 75.8328 -20.3168 0.353 -0.935 0.029 58 63 30
36.0729 75.9333 -20.3985 -0.170 -0.861 0.479 56 61 31
36.1668 75.9456 -20.4603 0.024 -0.986 0.162 58 63 30
36.3918 75.9096 -20.7132 0.024 -0.986 0.162 90 99 48
36.3391 75.8900 -20.8026 -0.108 -0.985 0.136 92 100 47
36.1475 75.9225 -20.9546 -0.179 -0.970 0.163 70 77 35
35.8211 75.9647 -20.8986 -0.164 -0.984 0.073 53 57 32
36.0962 75.9189 -21.0511 -0.184 -0.964 0.190 69 76 36
35.7727 75.9961 -21.0097 -0.193 -0.979 0.061 53 57 30
36.0443 75.9102 -21.1455 -0.184 -0.964 0.190 68 74 35
36.2031 75.6210 -21.1368 0.153 -0.965 0.211 106 115 62
35.8145 75.9958 -21.1651 -0.104 -0.978 0.182 53 57 30
35.9030 75.9437 -21.2005 -0.183 -0.962 0.203 58 63 32
36.0596 75.6239 -21.1786 0.053 -0.988 0.146 81 89 43
34.8373 75.9908 -20.6889 -0.301 -0.899 0.319 57 62 30
35.7616 75.9773 -21.2556 -0.070 -0.978 0.194 53 57 30
36.0072 75.6077 -21.2696 0.053 -0.988 0.146 78 85 41
35.7089 75.9628 -21.3478 -0.070 -0.978 0.194 53 57 30
35.9553 75.5977 -21.3634 -0.053 -0.993 0.104 76 84 40
35.6573 75.9618 -21.4460 -0.064 -0.976 0.206 53 57 30
35.9037 75.5905 -21.4586 -0.053 -0.993 0.104 76 83 42
20.3034 71.6757 -10.4031 0.369 -0.929 -0.028 88 102 50
35.8533 75.5978 -21.5602 -0.123 -0.981 0.147 73 80 37
35.7490 75.5769 -21.7483 -0.020 -0.978 0.205 66 73 34
20.5316 75.9053 -12.5001 -0.450 -0.893 0.002 36 45 24
35.6975 75.5745 -21.8461 -0.068 -0.980 0.186 68 74 36
20.4668 75.9507 -12.5936 -0.437 -0.899 -0.018 36 45 24
20.3296 75.9928 -12.6407 -0.415 -0.908 -0.061 39 47 23
20.1277 75.9931 -12.6309 0.155 -0.925 -0.348 53 62 35
20.2683 76.0184 -12.7291 -0.406 -0.912 -0.056 37 45 21
18.1029 67.5309 -8.1194 -0.215 -0.935 -0.283 79 97 49
20.0781 75.9590 -12.7032 0.159 -0.922 -0.354 54 60 33
38.4727 71.7928 -22.6182 0.715 -0.571 0.403 127 137 88
38.9518 73.7220 -23.6844 -0.185 -0.943 -0.276 125 132 72
36.6926 70.8869 -21.2620 -0.743 0.037 0.668 43 66 49
38.2488 71.8340 -22.6200 0.721 -0.586 0.370 63 79 44
38.3430 71.8518 -22.6864 0.714 -0.595 0.370 79 93 56
38.8232 73.8240 -23.7755 -0.098 -0.980 -0.175 119 130 76
38.9169 73.8117 -23.8297 -0.095 -0.980 -0.177 124 133 73
19.9534 76.0170 -12.8822 0.156 -0.967 -0.203 55 61 35
20.0218 76.0389 -12.9342 0.156 -0.967 -0.203 48 53 31
28.5564 78.2586 -19.2092 0.017 -0.835 0.549 28 33 16
38.1826 71.7004 -22.6512 0.717 -0.581 0.385 49 71 43
38.6833 73.8533 -23.8309 0.432 -0.898 -0.078 76 92 52
38.7875 73.9113 -23.9199 0.148 -0.986 -0.077 109 123 71
19.9635 76.0473 -13.0184 0.156 -0.967 -0.203 51 56 34
28.5018 78.2071 -19.2859 0.017 -0.835 0.549 22 25 12
35.3274 75.4681 -22.4939 -0.117 -0.961 0.251 59 64 32
38.5442 73.8891 -23.8895 0.154 -0.979 -0.137 53 78 50
38.6417 73.9025 -23.9565 0.150 -0.983 -0.107 56 78 40
35.1916 75.5847 -22.5880 0.022 -0.949 0.314 54 59 27
35.2717 75.4198 -22.5718 0.029 -0.946 0.324 56 61 29
37.7129 71.6155 -22.5726 -0.348 -0.751 0.561 43 75 49
37.8768 71.4879 -22.6246 -0.166 -0.868 0.468 45 77 52
38.4963 73.8962 -23.9944 0.154 -0.979 -0.137 45 72 46
35.1344 75.5187 -22.6579 0.053 -0.949 0.310 52 57 25
35.2182 75.3991 -22.6623 -0.011 -0.881 0.473 58 63 31
36.2395 75.2818 -23.2619 0.228 -0.931 0.284 78 87 44
37.8185 71.4051 -22.6800 -0.321 -0.871 0.371 47 75 50
37.9370 71.6052 -22.8369 0.535 -0.649 0.541 44 77 54
38.3420 73.8274 -24.0011 0.369 -0.928 -0.047 46 78 55
35.1647 75.3791 -22.7531 0.030 -0.850 0.525 55 60 28
38.2179 73.9739 -24.1151 -0.671 -0.738 0.066 50 83 55
35.1093 75.3357 -22.8333 -0.010 -0.881 0.473 58 63 31
35.1987 75.2878 -22.8703 -0.011 -0.881 0.473 60 66 33
35.0581 75.3466 -22.9386 0.098 -0.995 0.019 58 63 33
35.2334 75.2052 -22.9916 -0.128 -0.966 0.225 72 78 40
36.1721 75.2049 -23.5895 0.148 -0.856 0.496 71 81 31
35.0054 75.3395 -23.0357 0.098 -0.995 0.019 58 63 33
35.0881 75.2020 -23.0311 -0.173 -0.960 0.219 60 65 32
35.1800 75.1871 -23.0835 -0.143 -0.965 0.219 71 78 39
36.1181 75.1802 -23.6794 0.142 -0.841 0.522 76 86 39
36.1995 75.0449 -23.6747 -0.024 -0.296 0.955 79 92 44
38.1513 73.8733 -24.4309 0.088 -0.993 0.077 68 94 58
29.8042 73.7735 -19.1862 -0.313 -0.358 0.880 15 19 5
35.1270 75.1736 -23.1777 -0.143 -0.965 0.219 71 77 39
36.3959 74.6908 -23.7860 0.177 -0.333 0.926 99 110 68
35.0739 75.1600 -23.2720 -0.143 -0.965 0.219 69 76 36
34.9294 75.1710 -23.3183 -0.143 -0.965 0.219 58 63 30
35.0207 75.1465 -23.3664 -0.143 -0.965 0.219 66 73 31
34.8761 75.1575 -23.4127 -0.143 -0.965 0.219 58 63 30
34.9675 75.1329 -23.4609 -0.143 -0.965 0.219 68 75 32
34.9149 75.1288 -23.5601 -0.121 -0.966 0.228 71 78 35
35.6475 74.9254 -23.9441 -0.145 -0.685 0.714 78 82 31
37.9661 73.6591 -25.1615 0.046 -0.868 0.494 93 105 63
38.2293 73.4843 -25.2554 -0.043 -0.946 0.322 127 129 71
35.8345 74.5479 -24.3068 -0.177 -0.585 0.792 110 121 64
36.0990 74.3607 -24.3960 0.027 -0.741 0.671 113 128 70
37.9099 73.6115 -25.2397 0.046 -0.868 0.494 86 97 56
35.5184 74.7462 -24.3248 -0.380 -0.538 0.752 73 81 33
35.1690 74.6794 -24.4764 -0.017 -0.981 0.192 73 74 37
35.2720 74.7933 -24.5945 -0.567 -0.606 0.558 68 71 33
35.1154 74.6619 -24.5701 -0.017 -0.981 0.192 72 73 38
35.2137 74.7195 -24.6601 -0.585 -0.659 0.474 67 70 33
35.0694 74.7449 -24.7143 -0.244 -0.758 0.605 71 72 37
35.1579 74.6755 -24.7408 -0.337 -0.755 0.563 69 72 38
37.4667 73.6366 -25.9166 -0.141 -0.510 0.849 120 132 72
37.5370 73.4342 -25.8705 -0.244 -0.885 0.397 118 128 64
37.6215 73.3475 -25.8864 -0.231 -0.914 0.335 123 134 66
37.4096 73.5828 -25.9919 -0.234 -0.456 0.859 113 124 66
37.4968 73.5139 -26.0176 -0.149 -0.484 0.862 121 131 69
37.5964 73.5438 -26.0966 0.226 -0.477 0.849 119 130 65
36.8983 73.7260 -25.8595 0.399 -0.496 0.771 39 52 11
36.9923 73.7141 -25.9158 0.399 -0.496 0.771 40 53 10
37.1773 73.6619 -26.0133 -0.234 -0.456 0.859 56 67 24
37.2632 73.5813 -26.0327 -0.234 -0.456 0.859 82 92 44
37.5226 73.3583 -26.1004 -0.149 -0.484 0.862 115 125 64
36.7513 73.7189 -25.8973 0.120 -0.934 0.335 38 52 17
37.4767 73.3932 -26.2239 0.294 -0.845 0.447 112 121 64
37.4199 73.3417 -26.3003 0.279 -0.836 0.472 115 124 68
37.2594 73.2243 -26.2776 -0.227 -0.481 0.847 112 121 68
37.3620 73.2819 -26.3722 0.279 -0.836 0.472 123 132 75
34.9637 74.4856 -25.4902 0.318 -0.939 -0.131 37 41 12
36.9432 73.3965 -26.2872 -0.172 -0.645 0.745 38 49 12
37.0269 73.2971 -26.2959 -0.173 -0.661 0.730 48 57 15
37.1144 73.2306 -26.3225 0.276 -0.846 0.457 81 90 43
26.0836 76.2695 -20.5909 -0.402 -0.837 0.370 10 11 5
26.1777 76.1572 -20.6001 -0.536 -0.790 0.297 12 13 7
31.9034 75.8047 -24.2254 -0.459 -0.803 0.379 67 76 34
36.1633 74.6532 -26.5026 0.237 -0.933 -0.272 36 44 16
36.8824 73.3089 -26.3438 -0.161 -0.705 0.691 40 50 11
36.9714 73.2555 -26.3776 -0.161 -0.705 0.691 50 58 14
37.0578 73.1795 -26.3989 0.274 -0.842 0.464 80 90 39
25.9365 76.3291 -20.6553 -0.388 -0.845 0.368 13 16 15
26.0291 76.2356 -20.6724 -0.513 -0.766 0.388 13 16 14
26.1236 76.1195 -20.6799 -0.599 -0.723 0.345 11 15 15
31.2056 75.1819 -23.6058 -0.593 -0.626 0.506 43 47 14
35.9131 74.5963 -26.4505 0.003 -0.988 -0.156 43 48 13
36.5179 74.8492 -26.9718 -0.565 0.176 0.806 38 51 15
36.5777 74.4949 -26.8432 -0.570 0.176 0.803 31 46 9
36.6390 74.1657 -26.7276 -0.570 0.176 0.803 34 51 13
36.8191 73.1990 -26.3880 0.268 -0.901 0.341 51 57 12
25.7914 76.3637 -20.7094 -0.468 -0.802 0.373 13 15 11
25.8800 76.3158 -20.7455 -0.388 -0.845 0.368 11 15 15
20.7531 72.4400 -15.6070 0.604 -0.782 -0.154 20 25 19
25.6454 76.4046 -20.7663 -0.526 -0.761 0.379 15 18 9
25.7322 76.3770 -20.8108 -0.516 -0.767 0.382 12 14 10
31.4762 77.3067 -25.0803 -0.936 -0.218 0.277 114 122 67
36.3746 74.4777 -26.9828 -0.546 0.180 0.818 73 66 27
36.4378 74.1547 -26.8698 -0.546 0.180 0.818 74 67 28
36.5002 73.8352 -26.7580 -0.546 0.180 0.818 76 71 31
36.5669 73.5643 -26.6724 -0.550 0.177 0.817 77 72 32
20.7041 72.4102 -15.6788 0.605 -0.780 -0.161 20 25 19
25.4919 76.5205 -20.8544 -0.585 -0.740 0.332 26 30 17
25.5842 76.4378 -20.8761 -0.585 -0.740 0.332 11 14 7
36.2906 74.1659 -26.9181 -0.536 0.159 0.829 89 76 33
36.3562 73.8691 -26.8186 -0.536 0.159 0.829 86 74 30
20.6547 72.3820 -15.7512 0.608 -0.777 -0.161 21 27 19
25.4353 76.5038 -20.9436 -0.616 -0.747 0.249 19 22 13
35.2777 74.0941 -26.3480 0.341 -0.291 0.894 84 70 36
36.6880 72.9944 -26.7564 0.368 -0.908 -0.198 95 91 43
36.8927 73.1206 -26.9543 0.368 -0.908 -0.198 121 126 67
25.2844 76.5860 -21.0180 -0.547 -0.779 0.307 29 33 21
35.3961 73.8742 -26.4602 0.472 -0.758 0.450 82 76 37
36.8423 73.1256 -27.0627 0.376 -0.909 -0.183 122 125 67
31.9688 75.3803 -25.0420 -0.880 -0.398 0.259 94 98 47
32.0594 75.3094 -25.0679 -0.881 -0.409 0.238 88 92 42
36.7883 73.0992 -27.1534 0.331 -0.942 -0.061 125 127 69
15.9369 70.3443 -11.9386 -0.754 -0.414 0.510 93 107 58
16.0493 70.1779 -11.9320 -0.753 -0.411 0.514 96 110 61
20.5832 72.2684 -16.0059 0.549 -0.830 -0.102 19 27 18
25.0740 76.6714 -21.1905 -0.517 -0.793 0.323 34 38 24
31.9160 75.5196 -25.2157 -0.878 -0.413 0.243 80 84 35
36.1112 73.4950 -27.0340 -0.906 -0.414 0.090 90 88 37
36.8343 73.1116 -27.3305 0.324 -0.944 -0.069 120 125 64
20.5329 72.2443 -16.0799 0.549 -0.830 -0.102 20 26 13
32.5685 74.3731 -25.2276 -0.563 -0.317 0.763 57 58 23
36.7867 73.1423 -27.4542 0.322 -0.943 -0.083 124 123 66
20.4773 72.2457 -16.1631 0.630 -0.759 -0.166 20 26 12
31.9184 74.6426 -25.2027 -0.053 0.105 0.993 63 65 25
39.3634 72.4373 -29.2646 -0.092 -0.680 0.727 130 135 77
39.5666 72.4652 -29.4160 0.009 -0.704 0.710 128 133 75
20.3827 72.2413 -16.4582 0.577 -0.789 -0.211 19 25 13
39.6788 72.2468 -29.5249 0.056 -0.876 0.479 126 131 73
20.3317 72.2193 -16.5334 0.581 -0.787 -0.208 18 24 11
31.5674 74.2927 -25.2076 -0.690 -0.106 0.716 80 87 35
31.6550 74.0737 -25.1556 -0.690 -0.106 0.716 84 90 37
31.7423 73.8812 -25.1170 -0.682 -0.103 0.724 89 90 40
33.4705 73.7703 -26.2326 0.795 -0.386 0.468 76 84 33
39.6328 72.2660 -29.6468 0.019 -0.865 0.502 129 134 76
39.7228 72.2106 -29.6796 0.033 -0.875 0.484 125 130 72
20.2805 72.1982 -16.6091 0.592 -0.783 -0.190 16 22 9
31.5998 74.0238 -25.2319 -0.651 -0.097 0.753 97 103 47
31.6870 73.8108 -25.1822 -0.668 -0.075 0.740 103 104 54
33.5044 73.6667 -26.3431 0.773 -0.506 0.382 80 88 37
39.6642 72.1568 -29.7560 0.033 -0.862 0.505 129 134 76
39.8626 72.1516 -29.8881 0.237 -0.682 0.692 121 129 72
39.9586 72.1300 -29.9422 0.237 -0.682 0.692 119 127 70
20.2276 72.1852 -16.6877 0.617 -0.778 -0.120 15 22 7
31.5441 73.9188 -25.2793 -0.425 0.037 0.904 105 111 55
39.8032 72.0934 -29.9617 -0.219 -0.881 0.418 127 134 78
39.8987 72.0697 -30.0146 -0.107 -0.872 0.477 124 131 77
39.9974 72.0630 -30.0783 -0.129 -0.833 0.538 120 127 72
40.1020 72.0880 -30.1623 0.279 -0.612 0.740 116 123 69
20.2362 72.2160 -16.8310 0.620 -0.776 -0.115 16 23 14
39.7401 72.0141 -30.0219 -0.229 -0.948 0.220 126 134 75
39.8359 71.9924 -30.0760 -0.201 -0.951 0.237 127 135 76
39.9315 71.9683 -30.1287 -0.198 -0.829 0.524 124 132 74
40.2256 71.9351 -30.3120 0.428 -0.532 0.730 110 118 60
40.3225 71.9167 -30.3686 0.419 -0.535 0.734 110 118 60
20.1863 72.1878 -16.9043 0.628 -0.770 -0.112 16 23 13
23.9151 64.4953 -15.4573 -0.279 -0.854 0.440 50 56 26
20.1367 72.1583 -16.9771 0.609 -0.782 -0.134 16 23 13
39.8138 71.8584 -30.2799 -0.333 -0.767 0.549 130 138 79
40.0316 71.6761 -30.4781 -0.229 -0.808 0.542 130 138 79
40.1247 71.6387 -30.5223 -0.190 -0.810 0.554 130 138 79
32.6969 70.4051 -24.9187 0.408 -0.511 0.757 113 121 62
40.2563 71.5319 -30.7011 -0.290 -0.771 0.567 131 136 78
40.6376 71.4261 -30.9071 0.176 -0.771 0.612 115 120 62
19.8125 71.9040 -16.9873 0.598 -0.785 -0.163 52 61 30
40.1118 71.5560 -30.7596 -0.414 -0.883 0.221 128 136 77
40.4867 71.4166 -30.9435 -0.171 -0.814 0.555 122 127 69
40.5696 71.3253 -30.9521 -0.159 -0.801 0.577 114 119 61
40.6537 71.2413 -30.9654 -0.156 -0.720 0.676 113 118 62
40.5148 71.2924 -31.0420 -0.158 -0.554 0.817 121 126 68
19.9561 72.0252 -17.3958 0.726 -0.688 0.005 14 22 11
22.7579 75.2208 -21.0390 -0.453 -0.795 -0.404 36 40 14
30.5742 72.9316 -25.2065 -0.039 -0.114 0.993 74 80 37
40.8137 71.0126 -31.2439 0.116 0.103 0.988 109 116 58
30.5214 72.7428 -25.2069 -0.082 -0.135 0.987 84 91 39
30.6098 72.6151 -25.1992 -0.049 -0.089 0.995 91 98 47
30.6978 72.4865 -25.1908 0.033 -0.107 0.994 99 106 55
30.7854 72.3954 -25.2024 -0.086 -0.079 0.993 100 107 55
30.8728 72.3056 -25.2145 -0.116 -0.068 0.991 102 109 56
30.9600 72.1800 -25.2072 -0.122 -0.081 0.989 104 111 58
31.0464 71.7475 -25.0343 -0.032 0.059 0.998 107 115 60
40.2937 71.1667 -31.1128 -0.328 -0.503 0.800 133 138 82
40.3818 71.1031 -31.1394 -0.171 -0.556 0.814 136 141 85
30.9928 71.0294 -24.7452 0.045 0.074 0.996 112 119 64
41.0861 69.8766 -31.1095 -0.246 -0.585 0.773 107 115 58
19.8696 71.9733 -17.6784 0.661 -0.746 -0.080 15 22 11
19.8227 71.9304 -17.7464 0.643 -0.748 -0.167 14 22 8
30.2829 71.8516 -24.9701 -0.115 0.005 0.993 111 119 61
40.2006 73.1261 -32.8598 -0.164 0.013 0.986 134 139 83
16.8174 69.0521 -14.4260 0.256 -0.966 -0.027 23 33 8
29.5153 72.1468 -25.0082 -0.049 -0.479 0.876 105 113 56
19.6747 71.8979 -18.1233 0.631 -0.758 -0.165 19 28 13
29.3701 72.3182 -25.1395 -0.050 -0.846 0.531 108 116 60
20.5473 73.3513 -19.6733 0.703 -0.676 -0.222 21 26 20
20.3265 73.0539 -19.4817 0.759 -0.649 -0.045 19 25 20
20.2713 72.6862 -19.3648 0.789 -0.611 -0.056 21 28 21
20.3016 72.8946 -19.5039 0.755 -0.653 -0.054 20 27 19
20.1833 72.4828 -19.3163 0.803 -0.595 -0.033 22 29 19
20.2385 72.5681 -19.4036 0.787 -0.613 -0.068 22 30 13
19.8180 72.5573 -19.2298 -0.443 -0.673 -0.592 20 30 22
19.8920 72.5517 -19.2788 -0.443 -0.673 -0.592 22 32 21
19.9843 72.4618 -19.2926 -0.432 -0.675 -0.599 26 34 20
20.0844 72.3348 -19.2907 -0.387 -0.678 -0.625 31 40 21
20.1232 72.4945 -19.4093 0.153 -0.807 -0.571 40 50 28
15.9626 69.7828 -15.0419 -0.667 -0.718 0.198 87 101 54
19.3586 71.9089 -18.9157 0.589 -0.779 -0.216 38 48 20
26.5347 71.4992 -24.0393 -0.207 -0.062 0.976 111 121 61
18.4399 71.2875 -19.1640 0.308 -0.944 0.118 44 47 29
18.3889 71.2615 -19.2391 0.308 -0.944 0.118 40 43 22
18.3394 71.2293 -19.3115 0.313 -0.937 0.153 38 41 20
23.5332 72.9776 -24.1466 0.255 -0.935 0.244 109 118 61
18.5273 71.3673 -19.6611 0.711 -0.686 -0.152 57 61 38
18.3052 71.1846 -19.5157 0.313 -0.937 0.153 37 39 25
18.2394 71.0369 -19.7620 -0.063 -0.992 -0.114 38 43 17
18.1008 71.0794 -19.8165 -0.059 -0.995 -0.080 40 47 15
18.1778 71.0515 -19.8553 -0.063 -0.992 -0.114 46 53 22
35.7725 57.8883 -24.6584 -0.590 -0.293 0.753 95 100 46
17.5707 71.0969 -20.6117 -0.002 -0.975 0.221 83 93 43
17.6336 71.1229 -20.6756 -0.455 -0.875 0.163 81 90 47
13.8852 67.3029 -15.4894 0.833 -0.553 -0.034 87 104 50
17.6539 71.0891 -20.8005 -0.455 -0.875 0.163 60 67 32
17.7341 71.0516 -20.8355 -0.376 -0.903 0.208 53 60 28
16.9718 70.5914 -20.0933 0.289 -0.948 -0.134 52 63 29
17.6574 71.1178 -20.9547 -0.066 -0.954 0.293 54 61 29
13.4094 70.8040 -17.7008 0.461 -0.862 -0.211 85 98 55
17.2834 70.9913 -20.7235 0.421 -0.907 0.008 52 59 27
17.4445 71.1679 -20.9618 -0.455 -0.875 0.163 50 58 21
17.5279 71.1190 -20.9915 -0.455 -0.875 0.163 59 67 29
17.2313 70.9664 -20.8002 0.421 -0.907 0.008 44 51 18
15.4272 68.4985 -18.1636 0.499 -0.806 0.318 95 109 58
17.4227 70.8948 -21.2945 0.767 -0.641 0.032 96 106 54
30.5522 65.3992 -27.4533 -0.735 -0.380 0.562 116 124 64
16.9390 70.6741 -20.9125 0.681 -0.729 0.072 84 96 47
17.0347 70.8242 -21.0873 0.610 -0.782 0.129 89 99 47
16.9722 71.2937 -21.3604 0.460 -0.494 0.738 92 102 50
32.0144 61.2405 -25.8541 -0.846 -0.527 -0.080 115 120 64
16.8305 70.6062 -20.9167 0.600 -0.771 0.213 91 104 51
30.8553 62.2279 -26.4117 -0.834 -0.552 -0.004 107 115 55
14.8984 68.5284 -18.7789 0.457 -0.873 -0.173 99 111 61
27.2361 68.7953 -28.8292 -0.676 -0.657 -0.334 117 124 68
24.6254 69.6792 -28.9119 -0.223 0.154 0.963 109 119 57
22.0219 73.2997 -30.2013 -0.830 -0.557 -0.028 130 140 80
14.3875 68.4471 -20.6305 0.495 -0.867 -0.055 30 33 22
21.9194 73.0459 -30.0848 -0.033 -0.627 0.778 129 139 79
12.7770 67.1936 -18.5276 0.304 -0.898 -0.317 87 104 52
13.2854 67.4321 -19.3660 0.272 -0.962 0.028 24 30 17
12.6984 67.1252 -19.4204 0.398 -0.862 -0.315 26 31 24
21.3196 69.9949 -29.5260 -0.819 -0.511 0.260 98 106 55
20.4800 70.7263 -29.5926 -0.568 0.117 0.815 103 111 60
20.4521 70.5670 -29.5938 -0.572 0.118 0.812 102 111 58
20.6025 70.2285 -29.4389 -0.572 0.118 0.812 102 111 58
13.0434 68.0013 -21.5845 0.178 -0.972 -0.155 23 28 21
20.2664 70.4179 -29.4737 -0.860 -0.332 0.388 101 110 57
20.3920 70.1983 -29.3955 -0.861 -0.317 0.398 100 109 54
10.1812 71.3366 -22.9927 -0.863 -0.306 0.402 20 32 13
10.2010 71.1348 -23.1264 -0.870 -0.348 0.349 64 79 39
10.1120 71.1929 -23.3922 -0.863 -0.369 0.345 86 102 51
10.3384 70.8081 -23.2493 -0.863 -0.390 0.322 86 102 51
11.7701 66.1121 -22.6586 0.541 -0.840 0.037 91 105 56
