ply
format ascii 1.0
element vertex 837
property float x
property float y
property float z
property float nx
property float ny
property float nz
property uchar diffuse_red
property uchar diffuse_green
property uchar diffuse_blue
end_header
-86.4337 95.5894 -16.9573 -0.496 -0.868 -0.001 60 51 22
-86.3422 95.5926 -16.9105 -0.404 -0.914 -0.035 60 51 22
-86.0360 96.2984 -16.9841 -0.485 -0.522 0.702 60 51 22
-85.4393 95.2951 -16.3398 0.030 -0.941 -0.338 56 46 22
-85.2133 94.8799 -16.0841 -0.693 -0.720 -0.032 56 45 25
-85.1238 94.8777 -16.0367 -0.694 -0.687 -0.216 59 48 26
-79.3373 94.4407 -12.8659 -0.064 -0.968 0.244 103 101 62
-66.6166 89.0945 -4.4433 0.482 -0.785 -0.388 133 175 187
-66.4635 89.1720 -4.3889 0.506 -0.783 -0.362 129 171 183
-66.3048 89.2564 -4.3338 0.499 -0.784 -0.369 121 163 175
-97.6295 110.4928 -27.8899 -0.450 -0.767 -0.459 90 112 116
-97.5312 110.3823 -27.8017 -0.450 -0.767 -0.459 82 102 113
-97.4284 110.3342 -27.7320 -0.452 -0.781 -0.431 82 101 119
-97.3185 110.3817 -27.6904 -0.132 -0.922 -0.365 83 101 120
-89.8740 98.3044 -19.7760 -0.023 -0.999 0.034 137 126 92
-89.7847 98.2903 -19.7246 0.018 -0.998 0.060 123 112 78
-89.6921 98.2904 -19.6763 -0.029 -0.999 0.021 110 100 67
-89.5964 98.3032 -19.6306 -0.014 -1.000 0.019 87 77 44
-88.6786 97.1484 -18.7661 -0.002 -0.928 0.371 120 107 72
-88.5824 97.1665 -18.7219 -0.137 -0.851 0.507 118 106 70
-88.4949 97.1504 -18.6708 -0.006 -0.925 0.381 100 90 51
-88.4067 97.1373 -18.6204 -0.178 -0.962 0.209 100 90 51
-88.3236 97.1041 -18.5659 -0.240 -0.963 0.118 99 90 50
-88.1524 97.0578 -18.4610 -0.641 -0.760 -0.110 88 79 39
-88.0764 96.9984 -18.4015 -0.632 -0.771 -0.082 88 79 39
-88.0025 96.9314 -18.3406 -0.632 -0.771 -0.082 88 79 40
-87.9289 96.8644 -18.2797 -0.632 -0.771 -0.082 88 79 41
-87.8553 96.7976 -18.2190 -0.632 -0.771 -0.082 81 71 35
-87.7819 96.7309 -18.1585 -0.632 -0.771 -0.082 81 71 35
-87.7181 96.6296 -18.0914 -0.808 -0.589 0.001 81 70 37
-87.6543 96.5292 -18.0246 -0.822 -0.556 -0.124 81 70 37
-87.5977 96.4040 -17.9533 -0.882 -0.470 -0.034 79 68 35
-86.8946 95.6876 -17.3472 -0.075 -0.919 -0.387 61 48 14
-86.8203 95.6331 -17.2902 -0.082 -0.917 -0.390 60 48 14
-86.7266 95.6441 -17.2449 -0.105 -0.914 -0.393 58 49 16
-86.6273 95.6738 -17.2029 -0.041 -0.979 0.200 58 49 16
-86.5256 95.7111 -17.1622 0.046 -0.964 0.263 58 49 16
-86.4561 95.6408 -17.1025 -0.702 -0.695 0.156 58 49 16
-86.3713 95.6218 -17.0518 -0.649 -0.735 0.195 63 55 21
-86.2963 95.5706 -16.9955 -0.359 -0.888 0.289 63 55 21
-85.6589 95.5775 -16.6647 0.351 -0.933 0.082 67 58 23
-85.5894 95.5098 -16.6059 0.296 -0.953 0.059 66 57 23
-85.4803 95.5666 -16.5678 0.331 -0.939 0.096 59 51 16
-85.1451 95.4764 -16.3626 0.133 -0.991 0.014 53 43 19
-85.0928 95.3584 -16.2959 0.013 -1.000 -0.000 53 42 21
-85.1377 94.9474 -16.1824 -0.673 -0.712 -0.200 54 43 20
-79.2890 94.4164 -12.9493 -0.064 -0.968 0.244 104 102 63
-105.6153 118.4860 -34.8825 -0.597 -0.723 0.347 112 140 128
-105.5017 118.4965 -34.8268 -0.747 -0.607 0.273 112 140 126
-105.3856 118.4425 -34.7480 -0.878 -0.469 0.096 113 139 125
-105.0212 117.7773 -34.3347 -0.231 -0.774 -0.589 120 148 133
-104.9030 117.6214 -34.2207 -0.232 -0.757 -0.610 120 148 134
-103.2807 105.3274 -29.2518 0.144 -0.929 -0.341 122 136 134
-89.8284 98.2810 -19.8650 0.018 -0.998 0.060 135 127 79
-89.7347 98.2856 -19.8177 0.018 -0.998 0.060 136 128 80
-89.6412 98.2894 -19.7701 -0.075 -0.997 -0.006 136 125 78
-89.5494 98.2853 -19.7208 -0.029 -0.999 0.021 90 80 33
-89.4486 98.3197 -19.6797 -0.660 -0.751 0.033 59 49 2
-89.2948 98.1843 -19.5540 -0.655 -0.756 0.002 126 115 68
-89.2125 98.1407 -19.4964 -0.661 -0.749 0.048 126 115 68
-88.9282 97.4113 -19.1034 -0.869 -0.208 0.449 126 118 66
-88.8655 97.2939 -19.0313 -0.879 -0.215 0.425 126 119 66
-88.7958 97.2064 -18.9655 -0.882 -0.248 0.401 130 122 70
-88.6359 97.1142 -18.8511 -0.002 -0.928 0.371 130 123 70
-88.5448 97.1123 -18.8029 -0.137 -0.851 0.507 130 122 70
-87.4851 96.2948 -17.9755 -0.813 -0.567 -0.131 120 110 61
-87.4206 96.2002 -17.9101 -0.811 -0.584 0.048 120 110 61
-87.1901 96.0516 -17.7400 -0.387 -0.689 0.613 109 102 51
-87.1012 96.0450 -17.6913 -0.387 -0.689 0.613 109 102 51
-86.8321 95.7227 -17.4428 -0.075 -0.919 -0.387 98 90 41
-86.7577 95.6681 -17.3856 -0.082 -0.917 -0.390 98 90 41
-86.5767 95.6678 -17.2910 -0.035 -0.976 0.213 82 74 27
-86.4187 95.5909 -17.1827 -0.728 -0.678 0.105 82 74 29
-86.3349 95.5685 -17.1314 -0.649 -0.735 0.195 67 58 13
-86.2567 95.5278 -17.0770 -0.346 -0.890 0.296 67 58 15
-85.7918 95.8544 -16.9437 0.412 -0.853 0.321 58 49 7
-85.6870 95.8972 -16.9033 0.401 -0.852 0.337 58 49 7
-85.6109 95.8484 -16.8472 -0.064 -0.996 0.060 59 50 8
-85.3243 95.8856 -16.7101 -0.652 -0.757 -0.027 46 37 0
-85.2714 95.7655 -16.6421 -0.618 -0.783 -0.072 64 55 16
-85.0296 95.3870 -16.3890 0.145 -0.981 0.132 56 44 19
-85.0419 95.0749 -16.2908 -0.214 -0.970 0.112 53 41 15
-84.9568 95.0583 -16.2408 -0.210 -0.972 0.105 61 49 22
-84.8705 95.0450 -16.1913 -0.210 -0.972 0.105 74 62 35
-84.7795 95.0460 -16.1441 -0.378 -0.924 -0.051 83 72 40
-84.6014 94.7698 -15.9585 -0.391 -0.808 -0.441 122 112 62
-79.2844 94.2943 -13.0227 -0.043 -0.968 0.248 105 103 64
-71.3532 102.9401 -11.7801 0.251 -0.618 0.745 113 125 100
-71.0976 103.0042 -11.6681 -0.045 -0.641 0.766 124 132 108
-106.6267 119.1813 -35.8012 -0.084 -0.640 -0.764 108 135 128
-104.6212 117.4264 -34.1628 -0.197 -0.772 -0.604 107 134 118
-104.5081 117.4238 -34.1029 -0.216 -0.790 -0.574 103 130 111
-91.9237 109.6200 -24.9042 -0.015 -0.803 -0.596 117 116 74
-89.8507 98.7794 -20.1656 -0.565 -0.805 -0.182 136 128 81
-89.7696 98.7250 -20.1049 -0.568 -0.803 -0.181 136 128 79
-89.7164 98.5487 -20.0177 -0.671 -0.741 -0.003 135 127 78
-89.6393 98.4787 -19.9539 -0.671 -0.741 -0.003 135 127 78
-89.4068 98.2789 -19.7651 -0.661 -0.750 0.007 62 52 3
-89.3298 98.2116 -19.7022 -0.661 -0.750 0.007 101 91 42
-89.2529 98.1444 -19.6395 -0.661 -0.750 0.007 131 121 72
-87.6912 96.6821 -18.3314 -0.583 -0.805 -0.115 128 118 65
-87.1032 95.8568 -17.7461 -0.594 -0.667 0.450 131 124 69
-86.9852 95.6397 -17.6113 -0.745 -0.543 0.387 126 119 65
-86.2139 95.4957 -17.1603 -0.372 -0.878 0.302 123 115 68
-85.7411 95.8457 -17.0317 0.412 -0.853 0.321 103 94 51
-84.9994 95.3154 -16.4658 0.051 -0.996 0.067 82 71 43
-84.9889 95.0730 -16.3785 -0.220 -0.972 0.079 71 60 31
-84.9032 95.0579 -16.3287 -0.222 -0.971 0.093 74 63 35
-79.3324 94.2628 -13.1539 -0.043 -0.968 0.248 98 96 57
-79.2358 94.2708 -13.1061 -0.043 -0.968 0.248 105 103 64
-71.4855 102.7560 -11.9248 0.353 -0.631 0.691 109 117 97
-71.3778 102.7500 -11.8666 0.130 -0.694 0.708 113 125 100
-71.3198 102.6477 -11.8018 0.174 -0.746 0.643 119 128 107
-71.1776 102.7081 -11.7480 0.177 -0.750 0.637 124 132 110
-108.5530 118.2087 -36.6330 0.539 -0.840 0.065 109 116 106
-106.2158 118.8214 -35.6224 -0.614 -0.671 -0.416 110 137 128
-106.0944 118.6703 -35.5079 -0.484 -0.832 -0.271 110 138 126
-105.8594 118.5202 -35.3344 -0.487 -0.840 -0.239 97 124 115
-89.6761 98.5006 -20.1019 -0.694 -0.683 -0.226 135 127 78
-88.0172 98.0371 -19.0797 0.213 -0.976 -0.037 134 128 70
-87.9215 98.0456 -19.0327 0.207 -0.978 -0.029 134 128 70
-87.8756 97.8651 -18.9475 -0.643 -0.765 -0.011 134 128 70
-87.7768 97.8858 -18.9030 -0.643 -0.764 -0.047 133 127 69
-87.7052 97.8042 -18.8380 -0.669 -0.742 -0.034 133 127 69
-87.6283 97.7435 -18.7773 -0.673 -0.734 -0.091 133 127 69
-87.5613 97.6462 -18.7094 -0.762 -0.643 -0.079 133 127 69
-87.4888 97.5705 -18.6459 -0.792 -0.568 -0.223 134 124 71
-87.4270 97.4563 -18.5749 -0.792 -0.568 -0.223 134 124 71
-87.3932 96.2512 -18.1483 -0.851 -0.425 0.308 132 122 69
-86.7765 95.5571 -17.5911 -0.602 -0.680 0.419 132 125 71
-86.6912 95.5397 -17.5408 -0.610 -0.674 0.416 132 125 71
-86.3846 95.6556 -17.4202 0.014 -0.972 0.236 126 118 69
-86.1540 95.5185 -17.2535 -0.605 -0.740 0.294 125 117 70
-85.6903 95.8371 -17.1198 0.412 -0.853 0.321 117 108 65
-85.5868 95.8750 -17.0787 0.401 -0.852 0.337 118 109 66
-85.0855 95.4441 -16.6711 -0.753 -0.553 -0.356 111 100 66
-85.0372 95.0389 -16.5084 -0.243 -0.968 0.054 111 100 67
-84.9421 95.0519 -16.4633 -0.218 -0.970 0.106 106 95 62
-84.8573 95.0340 -16.4130 -0.236 -0.959 0.159 106 95 62
-84.7857 94.9771 -16.3563 -0.220 -0.916 0.335 108 98 63
-84.1811 95.4109 -16.1883 0.199 -0.779 0.594 137 127 76
-79.2945 94.2154 -13.2348 -0.045 -0.969 0.241 98 96 57
-79.1968 94.2257 -13.1874 -0.032 -0.972 0.231 104 102 63
-71.4005 102.5640 -11.9528 -0.110 -0.967 0.230 113 125 101
-71.3085 102.5281 -11.8926 0.240 -0.847 0.474 119 128 107
-71.1606 102.5995 -11.8398 0.240 -0.847 0.474 124 132 111
-108.2923 119.8624 -37.2170 -0.500 -0.783 0.370 98 126 112
-107.3820 120.0214 -36.7971 -0.100 -0.162 0.982 97 123 119
-107.1523 120.0473 -36.6863 0.619 -0.349 0.703 97 124 119
-107.0447 120.1878 -36.6782 0.615 -0.348 0.707 96 124 114
-106.2985 119.1869 -35.9477 -0.635 -0.576 -0.515 93 120 111
-105.9291 118.6372 -35.5674 -0.533 -0.796 -0.286 91 117 108
-102.1853 106.8107 -29.5784 -0.082 -0.748 -0.658 52 88 84
-96.6430 94.5137 -22.4916 0.111 -0.025 0.994 123 177 205
-93.3555 102.9944 -23.6751 -0.271 -0.925 0.266 107 118 97
-89.1426 97.0333 -19.4446 -0.754 -0.652 -0.082 140 130 76
-87.2452 98.2683 -18.8778 -0.765 -0.490 0.418 137 127 74
-87.1358 98.3230 -18.8395 -0.452 -0.683 0.574 137 127 74
-87.0043 98.1163 -18.7004 -0.453 -0.631 0.629 137 127 74
-86.9343 96.0794 -17.9684 -0.129 -0.982 0.136 136 129 74
-86.8341 96.1104 -17.9267 -0.200 -0.971 0.128 136 130 72
-86.3274 95.3724 -17.4107 -0.749 -0.662 0.033 133 125 76
-86.2257 95.4088 -17.3702 -0.649 -0.735 0.195 127 119 70
-86.1179 95.4642 -17.3330 -0.621 -0.726 0.296 127 119 70
-85.9562 95.6926 -17.3267 0.054 -0.998 0.025 127 119 72
-85.8816 95.6395 -17.2697 0.374 -0.881 0.289 127 119 72
-84.1327 95.3924 -16.2742 0.210 -0.770 0.602 138 128 77
-79.2372 94.2109 -13.3203 -0.020 -0.998 0.058 99 97 58
-79.1375 94.2254 -13.2733 -0.028 -0.975 0.221 105 103 64
-106.2538 119.2901 -36.1180 -0.635 -0.576 -0.515 77 104 94
-106.1250 118.9996 -35.9512 -0.629 -0.582 -0.516 78 104 95
-106.0033 118.8490 -35.8361 -0.453 -0.701 -0.551 78 104 97
-105.8801 118.6537 -35.7048 -0.533 -0.796 -0.286 82 109 99
-98.1841 99.7382 -25.1997 0.241 -0.639 0.730 114 182 210
-98.0902 99.7873 -25.1677 0.266 -0.641 0.720 113 182 200
-93.6006 102.9773 -23.9265 -0.409 -0.867 0.283 144 182 206
-93.5067 102.9518 -23.8688 -0.409 -0.867 0.283 150 181 189
-93.4086 102.9544 -23.8186 -0.271 -0.926 0.264 96 117 110
-93.3127 102.9418 -23.7644 -0.271 -0.926 0.264 108 122 99
-91.3488 112.1455 -25.9042 -0.330 -0.604 -0.726 122 120 79
-90.0772 98.3297 -20.4955 -0.607 -0.795 0.019 141 134 82
-89.9011 98.2875 -20.3893 -0.298 -0.634 0.714 141 133 84
-89.7756 98.4314 -20.3734 -0.264 -0.459 0.848 141 133 84
-89.6939 98.3813 -20.3137 -0.293 -0.725 0.624 141 133 84
-89.2814 98.1560 -20.0215 -0.700 -0.714 0.017 76 66 15
-85.5696 96.4650 -17.5083 0.580 -0.641 0.503 135 127 79
-85.4063 96.6893 -17.5003 0.572 -0.664 0.481 132 124 79
-84.8910 95.1549 -16.7049 -0.361 -0.862 0.355 129 122 72
-84.7201 95.1210 -16.6043 -0.453 -0.889 0.061 132 125 75
-84.2896 95.0459 -16.3544 -0.105 -0.946 0.307 136 126 75
-79.1753 94.2168 -13.4071 -0.018 -0.999 0.037 99 97 58
-79.0767 94.2286 -13.3599 -0.014 -0.998 0.064 106 104 65
-108.1897 119.7839 -37.4544 -0.423 -0.858 0.293 90 115 95
-108.0846 119.9214 -37.4472 -0.415 -0.800 0.434 91 114 96
-107.2235 119.0463 -36.6968 -0.667 -0.150 0.730 75 102 97
-106.2085 119.3880 -36.2870 -0.646 -0.572 -0.506 74 105 97
-102.5890 108.4107 -30.6098 -0.421 -0.511 -0.750 57 100 92
-100.6242 106.3266 -28.8674 0.287 -0.279 0.917 118 179 210
-99.8138 106.7733 -28.6003 0.206 -0.585 0.784 128 181 207
-93.4637 102.9004 -23.9584 -0.420 -0.860 0.290 140 170 178
-93.3659 102.9007 -23.9077 -0.268 -0.877 0.399 89 110 102
-93.2679 102.9023 -23.8572 -0.271 -0.926 0.264 107 123 99
-91.2380 111.7674 -25.8655 -0.381 -0.617 -0.689 126 126 76
-90.2939 98.8067 -20.8945 -0.655 -0.510 0.558 132 125 70
-89.7545 98.2990 -20.4385 -0.264 -0.459 0.848 130 122 73
-89.6609 98.3017 -20.3907 -0.293 -0.725 0.624 130 122 73
-84.7049 95.5491 -16.8613 -0.447 -0.890 -0.089 129 122 67
-84.5687 95.6807 -16.8359 -0.288 -0.954 -0.079 132 125 71
-84.6660 95.1208 -16.6930 -0.431 -0.901 0.060 132 125 71
-84.5745 95.1213 -16.6456 -0.423 -0.905 0.041 132 125 71
-84.4951 95.0866 -16.5923 -0.423 -0.905 0.041 132 125 71
-84.4156 95.0519 -16.5390 -0.423 -0.905 0.041 136 126 75
-84.3334 95.0257 -16.4871 -0.127 -0.955 0.267 136 126 75
-84.2417 95.0267 -16.4398 -0.127 -0.955 0.267 136 126 75
-73.2855 96.0371 -11.0899 -0.717 -0.621 0.317 131 147 137
-73.1891 96.0308 -11.0375 -0.642 -0.693 0.328 130 146 140
-73.0614 95.8997 -10.9258 -0.442 -0.789 0.427 130 146 144
-72.9458 95.9283 -10.8755 -0.419 -0.766 0.487 130 146 144
-72.8619 95.8994 -10.8219 -0.760 -0.552 0.343 130 147 142
-72.7276 95.9613 -10.7734 -0.761 -0.408 0.504 130 147 142
-72.6539 95.9139 -10.7187 -0.749 -0.422 0.511 131 147 143
-72.4044 95.8236 -10.5577 -0.340 -0.601 0.723 129 147 142
-107.2784 118.8761 -36.8242 -0.686 -0.133 0.716 87 121 118
-107.1629 118.8530 -36.7561 -0.319 -0.342 0.884 32 63 61
-101.3996 110.2598 -30.7723 -0.596 -0.481 -0.643 42 77 80
-93.3204 102.8658 -24.0017 -0.241 -0.862 0.446 85 107 96
-93.2243 102.8544 -23.9478 -0.306 -0.884 0.354 108 122 98
-90.2605 98.7254 -20.9715 -0.671 -0.498 0.549 126 119 65
-90.1771 98.6799 -20.9123 -0.670 -0.493 0.556 127 120 66
-89.1195 98.0127 -20.1305 -0.668 -0.744 0.006 118 108 59
-87.6403 95.2797 -18.4113 0.137 -0.700 -0.701 137 127 74
-87.4851 95.1942 -18.3009 0.077 -0.642 -0.763 136 126 73
-71.4410 102.3478 -12.4490 0.416 -0.862 0.289 106 112 90
-73.2947 95.8974 -11.1696 0.064 -0.780 0.623 133 155 145
-72.8149 95.8626 -10.9081 -0.759 -0.522 0.390 126 148 146
-72.7248 95.8449 -10.8551 -0.778 -0.392 0.491 126 148 146
-72.5733 95.7583 -10.7462 -0.788 -0.423 0.447 126 148 146
-72.4721 95.7606 -10.6944 -0.376 -0.497 0.782 126 148 146
-107.6723 118.6744 -37.1160 0.047 -0.926 0.374 103 137 131
-107.5541 118.6046 -37.0302 -0.522 -0.319 0.791 78 116 115
-107.2144 118.6279 -36.8619 -0.319 -0.342 0.884 87 125 128
-107.1021 118.6521 -36.8120 -0.319 -0.342 0.884 24 57 59
-106.8849 118.8417 -36.7656 0.605 -0.302 0.736 27 56 66
-93.2716 102.8525 -24.1017 -0.217 -0.879 0.424 93 112 101
-93.1730 102.8568 -24.0519 -0.186 -0.924 0.334 107 120 99
-90.3137 98.6754 -21.1041 -0.675 -0.564 0.476 125 118 64
-90.2307 98.6282 -21.0445 -0.676 -0.566 0.472 123 116 62
-90.1476 98.5815 -20.9850 -0.684 -0.543 0.487 122 115 61
-88.2396 96.8951 -19.4041 0.510 -0.854 0.101 122 115 61
-87.3593 96.0935 -18.6665 0.553 -0.797 0.244 133 123 73
-84.7628 95.3254 -17.0492 -0.793 -0.568 -0.218 130 124 67
-71.4436 102.2016 -12.5369 0.562 -0.734 0.381 104 108 89
-71.9599 96.5485 -10.8275 0.034 -0.710 0.703 125 159 169
-71.8268 96.6042 -10.7778 0.034 -0.710 0.703 122 158 166
-71.6897 94.9227 -10.1184 -0.794 -0.605 -0.060 122 151 154
-107.4937 118.4210 -37.0916 -0.508 -0.331 0.795 85 123 122
-107.1561 118.4681 -36.9329 -0.309 -0.348 0.885 88 126 130
-93.2263 102.8157 -24.1953 -0.186 -0.924 0.334 100 124 108
-93.1285 102.8145 -24.1442 -0.186 -0.924 0.334 101 120 99
-90.1804 98.6248 -21.1397 -0.649 -0.757 -0.076 124 117 65
-90.0959 98.5846 -21.0817 -0.641 -0.763 -0.085 118 111 59
-88.7317 97.6566 -20.0472 -0.265 -0.644 -0.717 116 103 58
-88.6440 97.6361 -19.9944 -0.858 -0.486 -0.165 115 105 56
-88.3145 97.1146 -19.6399 -0.306 -0.892 -0.333 115 105 55
-88.2525 96.9990 -19.5670 0.303 -0.890 0.340 115 105 55
-87.5444 95.8971 -18.8118 0.110 -0.885 -0.453 117 106 61
-87.3043 96.1031 -18.7597 0.553 -0.797 0.244 117 106 61
-86.7690 95.7468 -18.3565 0.076 -0.604 -0.793 126 115 71
-84.7184 95.2957 -17.1335 -0.793 -0.568 -0.218 134 124 74
-71.4885 102.1870 -12.6925 0.373 -0.846 0.380 100 104 75
-71.2652 101.9801 -12.5038 -0.046 -0.811 0.583 110 118 106
-71.5805 96.0264 -10.5723 -0.756 -0.438 0.487 121 164 173
-107.7959 118.5686 -37.4577 0.066 -0.921 0.385 102 124 111
-107.5699 118.5863 -37.3468 0.047 -0.926 0.374 111 142 136
-93.1829 102.7666 -24.2857 -0.223 -0.909 0.352 99 124 105
-93.0835 102.7756 -24.2373 -0.216 -0.913 0.347 100 120 99
-90.3179 98.6164 -21.3308 -0.724 -0.641 -0.253 132 125 73
-90.1630 98.4716 -21.1992 -0.670 -0.733 -0.117 125 118 66
-90.0495 98.5628 -21.1726 -0.904 -0.413 0.112 118 111 59
-89.9299 98.6798 -21.1520 -0.831 -0.549 -0.086 115 108 56
-88.5467 97.4485 -19.9988 -0.811 -0.533 -0.242 115 105 56
-88.4088 97.2636 -19.8618 -0.831 -0.464 -0.308 115 105 56
-88.3409 97.1686 -19.7930 -0.800 -0.461 -0.384 115 105 56
-87.4752 95.9590 -18.9158 0.110 -0.885 -0.453 117 106 61
-87.3559 96.0588 -18.8893 0.553 -0.795 0.249 117 106 61
-87.2493 96.1127 -18.8531 0.553 -0.797 0.244 117 106 61
-87.1203 96.2441 -18.8327 0.360 -0.914 0.188 120 109 64
-86.3545 97.9300 -19.0324 0.146 -0.658 -0.738 120 109 64
-86.6677 95.9111 -18.4801 0.052 -0.624 -0.780 121 109 67
-86.6008 95.8288 -18.4163 0.046 -0.622 -0.782 121 109 67
-86.5250 95.7764 -18.3585 0.065 -0.602 -0.796 123 111 69
-86.2695 96.3215 -18.4189 0.223 -0.722 -0.655 123 111 69
-84.7840 94.6709 -17.0642 -0.903 -0.401 -0.153 129 119 70
-84.4518 94.8444 -16.9534 -0.636 -0.741 0.215 135 125 76
-84.3598 94.8468 -16.9065 -0.637 -0.767 0.074 134 124 75
-83.8474 95.0029 -16.6960 0.004 -0.804 -0.594 138 128 77
-71.3415 101.9053 -12.6542 0.202 -0.547 0.813 104 111 96
-73.1849 95.7307 -11.4243 -0.138 -0.884 0.447 118 145 139
-72.7367 95.9987 -11.2868 0.388 -0.626 0.677 131 162 173
-72.4467 95.9784 -11.1292 0.074 -0.249 0.966 131 161 170
-71.0429 94.6106 -9.9169 -0.647 -0.761 0.053 129 158 165
-70.7136 94.0129 -9.5346 -0.941 -0.074 0.331 131 149 145
-107.6328 118.5497 -37.5241 0.051 -0.919 0.392 101 130 119
-107.5191 118.5494 -37.4650 0.039 -0.923 0.383 104 135 130
-107.3362 117.4702 -36.9860 0.364 -0.868 0.337 102 140 138
-107.1302 117.7739 -36.9874 0.603 -0.408 0.685 104 148 151
-93.2407 102.6966 -24.4210 -0.436 -0.842 0.319 119 145 127
-93.1390 102.7205 -24.3769 -0.223 -0.909 0.352 100 125 106
-93.0372 102.7450 -24.3328 -0.218 -0.914 0.343 101 120 99
-90.2506 98.6910 -21.4453 -0.375 -0.823 -0.428 132 125 73
-87.1654 96.2230 -18.9677 0.373 -0.906 0.202 117 106 61
-86.0141 96.6815 -18.5343 0.105 -0.616 -0.781 117 105 63
-85.9469 96.5964 -18.4693 0.080 -0.613 -0.786 117 105 62
-84.4452 94.7060 -17.0179 -0.670 -0.721 -0.176 128 118 69
-84.0885 94.9433 -16.9176 0.099 -0.700 0.707 130 120 69
-83.9635 95.0381 -16.8865 0.106 -0.708 0.699 131 121 70
-83.8451 95.1130 -16.8519 0.082 -0.707 0.702 130 120 69
-83.7429 95.1413 -16.8090 0.060 -0.709 0.703 137 127 76
-83.6631 94.8500 -16.6639 0.012 -0.800 -0.599 137 127 76
-83.5322 94.9584 -16.6347 0.011 -0.524 0.852 137 127 75
-71.3362 101.7758 -12.7426 0.202 -0.547 0.813 104 112 93
-73.0213 96.4562 -11.7215 -0.181 -0.343 0.922 116 133 119
-70.4405 97.0423 -10.5928 -0.880 -0.252 0.403 137 168 171
-70.3876 96.9563 -10.5348 -0.878 -0.235 0.417 135 168 170
-71.0698 94.6168 -10.0552 -0.638 -0.769 0.029 134 161 167
-71.0027 94.5631 -10.0013 -0.638 -0.769 0.029 134 162 167
-70.9367 94.5078 -9.9474 -0.908 -0.407 -0.101 131 160 167
-70.8954 94.4121 -9.8920 -0.910 -0.402 -0.100 123 153 159
-70.8562 94.3136 -9.8366 -0.941 -0.328 -0.086 122 153 159
-107.5819 118.5104 -37.6415 0.081 -0.927 0.367 101 130 120
-107.4677 118.5039 -37.5800 0.039 -0.923 0.383 101 132 129
-107.2846 117.4109 -37.0937 0.316 -0.906 0.283 105 143 142
-107.1817 117.5614 -37.0943 0.591 -0.399 0.701 9 52 52
-107.0783 117.7131 -37.0952 0.591 -0.399 0.701 102 147 150
-91.8274 116.9702 -28.9324 -0.657 -0.456 0.600 116 173 190
-86.0505 97.3113 -18.8994 0.086 -0.607 -0.790 112 100 58
-85.9846 97.2176 -18.8317 0.147 -0.612 -0.777 114 102 60
-85.9083 97.1592 -18.7713 0.147 -0.612 -0.777 114 102 60
-85.3824 97.3368 -18.5626 0.096 -0.595 -0.798 115 104 58
-85.8626 95.5034 -18.1545 0.166 -0.690 0.704 115 104 58
-85.5790 95.8205 -18.1213 0.094 -0.703 0.705 116 105 59
-85.3723 95.3196 -17.8348 0.435 -0.575 0.692 116 105 60
-84.6820 94.3881 -17.1437 -0.456 -0.809 -0.371 122 112 63
-84.5249 94.5812 -17.1316 -0.676 -0.649 -0.350 122 112 63
-84.4101 94.6501 -17.0968 -0.665 -0.726 -0.174 123 113 64
-84.0747 94.8263 -16.9863 0.214 -0.855 -0.472 125 115 64
-83.9281 94.9822 -16.9662 0.075 -0.715 0.696 125 115 64
-83.6009 95.1254 -16.8481 -0.070 -0.611 0.788 133 123 72
-83.5177 94.8451 -16.7046 0.011 -0.524 0.852 135 125 73
-83.3925 94.9364 -16.6725 -0.023 -0.513 0.858 135 125 71
-70.5057 96.9864 -10.7342 -0.917 -0.376 0.130 143 172 175
-70.4596 96.8888 -10.6753 -0.897 -0.414 0.151 141 173 178
-70.3906 96.8305 -10.6187 -0.927 -0.370 0.066 139 173 180
-70.1672 96.3400 -10.3274 -0.929 -0.363 0.066 141 172 174
-68.7500 97.9973 -10.1872 -0.081 -0.955 0.287 142 170 173
-68.6395 98.0044 -10.1326 -0.081 -0.955 0.287 138 167 170
-68.5223 98.0225 -10.0783 -0.179 -0.939 0.292 137 168 171
-70.5569 94.2040 -9.7640 -0.913 -0.316 -0.257 138 168 170
-69.4395 94.8728 -9.4250 -0.464 -0.845 -0.264 122 151 155
-69.3707 94.8218 -9.3711 -0.475 -0.826 -0.303 124 151 155
-107.2394 117.4529 -37.2412 -0.385 -0.881 0.274 107 144 143
-107.1258 117.4340 -37.1757 0.475 -0.297 0.828 10 51 52
-107.0227 117.5905 -37.1787 0.475 -0.297 0.828 101 143 147
-106.9191 117.7477 -37.1818 0.475 -0.297 0.828 106 145 149
-106.8150 117.9056 -37.1848 0.475 -0.297 0.828 44 76 79
-89.7732 98.6888 -21.4439 -0.787 -0.554 -0.273 112 105 53
-84.9285 95.6679 -17.8489 -0.245 -0.968 0.060 113 102 57
-84.5524 95.4127 -17.5624 -0.629 -0.722 -0.289 114 104 55
-84.4921 94.7832 -17.3043 -0.595 -0.760 0.262 114 104 55
-84.4151 94.7418 -17.2496 -0.595 -0.760 0.262 114 104 55
-84.3382 94.7005 -17.1949 -0.595 -0.760 0.262 114 104 55
-75.3193 93.0496 -11.9338 -0.144 -0.893 -0.427 113 124 89
-75.2630 92.9786 -11.8792 -0.152 -0.845 -0.513 114 124 96
-75.2197 92.8840 -11.8227 -0.163 -0.840 -0.517 117 128 103
-71.7104 97.2855 -11.5929 0.197 -0.363 0.911 115 135 114
-70.4727 96.9217 -10.8214 -0.932 -0.338 0.130 126 155 155
-70.4059 96.8594 -10.7644 -0.939 -0.313 0.144 124 154 158
-68.6994 97.9594 -10.2778 -0.074 -0.955 0.287 144 172 174
-68.5885 97.9672 -10.2232 -0.074 -0.955 0.287 139 169 171
-68.4745 97.9797 -10.1688 -0.178 -0.942 0.284 138 168 170
-68.3494 98.0102 -10.1150 -0.090 -0.931 0.354 138 168 170
-70.5624 94.0830 -9.8451 -0.957 -0.270 0.102 134 169 176
-69.3830 94.8498 -9.5112 -0.470 -0.842 -0.266 132 166 174
-69.2650 94.7173 -9.4024 -0.647 -0.682 -0.342 129 156 167
-65.2873 100.4514 -9.4103 0.387 -0.713 0.585 125 149 161
-65.0978 100.5716 -9.3556 0.409 -0.700 0.586 122 146 158
-64.6880 100.8572 -9.2465 0.438 -0.738 0.513 122 146 156
-64.4433 101.0599 -9.1929 0.378 -0.709 0.595 126 150 154
-64.2207 101.2274 -9.1381 0.379 -0.705 0.600 128 153 151
-63.9892 101.4073 -9.0831 0.397 -0.697 0.597 128 153 147
-107.0758 117.4026 -37.2946 0.471 -0.292 0.832 14 54 54
-106.9666 117.4584 -37.2583 0.475 -0.297 0.828 101 141 144
-106.8630 117.6151 -37.2616 0.475 -0.297 0.828 106 143 146
-106.7589 117.7726 -37.2648 0.475 -0.297 0.828 47 78 79
-91.8544 116.7548 -29.1906 -0.141 -0.737 0.661 107 164 182
-91.7280 116.7957 -29.1401 0.147 -0.773 0.617 102 158 175
-89.7264 98.6673 -21.5355 -0.787 -0.554 -0.273 112 105 53
-83.9123 94.9748 -17.1916 0.226 -0.854 -0.469 114 104 53
-83.8450 94.3927 -16.9458 0.201 -0.551 0.810 112 102 51
-83.3553 94.7334 -16.8162 -0.044 -0.508 0.860 133 123 69
-72.9843 98.6370 -12.8692 0.055 -0.969 -0.239 114 118 81
-72.8145 98.5625 -12.7544 -0.164 -0.948 -0.271 95 105 66
-71.0353 97.8048 -11.5600 0.424 -0.627 0.654 125 139 111
-70.1366 96.3255 -10.5593 -0.818 -0.574 -0.013 122 152 155
-70.0129 96.1896 -10.4461 -0.768 -0.637 -0.070 135 165 171
-70.5694 94.1202 -9.9839 -0.962 -0.257 0.098 136 168 176
-70.5807 93.9417 -9.9250 -0.959 -0.263 0.104 131 168 181
-66.1408 99.8631 -9.7756 -0.079 -0.044 0.996 136 173 185
-65.5768 100.0509 -9.5520 0.438 -0.680 0.588 138 162 178
-65.2545 100.3791 -9.5044 0.375 -0.715 0.589 132 156 174
-64.8404 100.6725 -9.3966 0.405 -0.679 0.613 131 152 168
-64.6095 100.8546 -9.3432 0.397 -0.692 0.602 133 153 166
-64.3846 101.0263 -9.2892 0.377 -0.688 0.620 131 152 161
-64.1578 101.1997 -9.2348 0.377 -0.688 0.620 129 152 154
-64.2346 100.5619 -9.0433 -0.131 -0.410 0.903 129 153 150
-68.6641 93.6755 -8.8377 -0.151 -0.902 -0.404 129 153 150
-68.5541 93.6908 -8.7864 -0.659 -0.737 -0.148 129 152 151
-68.4934 93.6318 -8.7336 -0.650 -0.745 -0.150 129 152 149
-107.0191 117.2591 -37.3692 0.588 -0.383 0.713 18 57 56
-106.8057 117.4600 -37.3322 0.566 -0.373 0.735 102 139 139
-106.6972 117.5383 -37.3047 0.612 -0.406 0.679 56 87 84
-92.4227 116.5459 -29.5691 -0.328 -0.195 0.924 121 176 198
-92.2885 116.6491 -29.5374 -0.452 -0.166 0.877 123 176 193
-83.3635 94.5594 -16.8750 -0.581 -0.807 -0.104 133 123 69
-83.2878 94.5157 -16.8200 -0.577 -0.808 -0.120 133 124 69
-72.6292 98.5832 -12.7966 -0.010 -0.983 -0.183 98 109 67
-72.5098 98.4148 -12.6735 0.373 -0.850 0.372 105 113 74
-69.7958 97.4725 -10.9281 0.285 -0.558 0.779 116 141 140
-69.3413 97.0091 -10.5244 -0.440 -0.803 0.401 115 144 147
-66.2438 99.4041 -9.7972 -0.052 -0.061 0.997 135 167 179
-65.9474 99.6961 -9.7506 -0.059 -0.062 0.996 138 167 179
-65.5954 100.0732 -9.7062 -0.059 -0.062 0.996 139 167 180
-65.0523 100.3955 -9.5431 -0.121 -0.056 0.991 143 170 184
-64.4049 100.1813 -9.1306 -0.310 -0.653 0.691 127 157 161
-68.4706 93.4091 -8.7623 -0.612 -0.766 -0.195 127 155 158
-68.4115 93.3485 -8.7097 -0.612 -0.766 -0.195 126 152 154
-68.3461 93.2975 -8.6574 -0.195 -0.929 -0.316 127 153 154
-107.2609 118.3040 -38.0333 0.015 -0.937 0.349 103 125 117
-106.7516 117.3603 -37.4245 0.566 -0.373 0.735 101 137 135
-106.6438 117.4512 -37.4022 0.612 -0.407 0.678 61 93 87
-92.3629 116.5329 -29.6940 -0.319 -0.168 0.933 124 176 198
-92.1870 116.9361 -29.7511 -0.325 -0.156 0.933 123 172 186
-92.0170 116.4317 -29.4784 -0.446 -0.168 0.879 111 159 170
-89.9142 98.6267 -21.8653 -0.568 -0.789 -0.235 127 120 68
-89.5820 97.2394 -21.1853 -0.718 -0.616 -0.324 113 100 56
-83.4593 94.9010 -17.1676 -0.591 -0.798 -0.120 117 107 56
-72.3612 95.5830 -11.6890 -0.067 -0.293 0.954 113 121 93
-72.0177 95.8329 -11.6033 0.314 -0.587 0.746 112 123 94
-71.4643 96.4447 -11.5420 0.399 -0.560 0.726 114 123 98
-71.4284 96.3295 -11.4812 -0.009 -0.455 0.891 113 123 105
-71.2638 96.4375 -11.4358 -0.010 -0.449 0.894 113 123 105
-70.7778 97.0989 -11.4275 -0.066 -0.819 0.571 113 123 102
-68.3603 97.8039 -10.4381 -0.171 -0.770 0.615 118 146 144
-67.2352 98.0642 -9.9527 -0.084 -0.046 0.995 134 168 172
-65.9706 99.3652 -9.7769 -0.060 -0.066 0.996 136 167 173
-64.9950 100.1877 -9.5749 -0.165 -0.043 0.985 132 167 172
-64.2291 100.8430 -9.4198 -0.123 -0.055 0.991 131 170 176
-64.0691 100.3970 -9.1737 0.078 -0.438 0.895 131 170 178
-63.9157 100.4577 -9.1168 0.254 -0.530 0.809 131 170 178
-63.6839 100.6354 -9.0623 0.212 -0.571 0.793 131 170 177
-62.6330 101.0073 -8.6562 0.613 -0.751 0.244 124 155 157
-107.2109 118.2832 -38.1584 -0.002 -0.953 0.303 103 125 116
-106.5940 117.4298 -37.5256 0.620 -0.392 0.680 62 94 88
-106.4935 117.6688 -37.5619 0.537 -0.392 0.747 4 32 27
-92.3319 116.3110 -29.7570 -0.471 -0.222 0.854 128 175 191
-89.5292 97.2470 -21.2820 -0.793 -0.588 0.161 109 100 58
-89.2700 96.7953 -20.9818 -0.054 -0.937 -0.346 113 104 61
-83.3710 94.9904 -17.2737 -0.573 -0.790 -0.220 117 106 60
-71.1269 98.1930 -12.1393 -0.803 -0.072 0.591 103 117 91
-68.5693 99.2866 -11.2234 -0.592 -0.059 0.803 123 127 99
-68.7663 98.7757 -11.1367 -0.704 -0.053 0.708 125 129 101
-67.4211 99.3824 -10.6666 0.263 -0.444 0.856 120 139 132
-67.1702 99.6115 -10.6216 0.229 -0.449 0.864 120 140 134
-64.6742 100.0414 -9.4928 -0.271 -0.033 0.962 130 169 176
-63.9518 100.2819 -9.2089 0.225 -0.511 0.830 129 170 178
-62.4669 101.1295 -8.7556 0.613 -0.756 0.232 128 159 167
-60.9202 102.3602 -8.4116 0.601 -0.798 -0.046 125 144 154
-107.1599 118.2455 -38.2769 -0.002 -0.953 0.303 101 125 113
-106.9505 116.6427 -37.5746 0.587 -0.419 0.693 126 158 150
-106.6446 117.1781 -37.6155 0.686 -0.401 0.607 102 138 135
-106.5407 117.3442 -37.6236 0.620 -0.392 0.680 63 95 91
-106.4380 117.5414 -37.6437 0.492 -0.792 0.360 3 32 29
-92.2803 116.2395 -29.8644 -0.528 -0.198 0.826 122 167 180
-92.1122 116.5838 -29.9055 0.256 -0.695 0.671 118 161 162
-88.9475 96.7792 -20.9301 -0.093 -0.936 -0.340 109 100 61
-88.8462 96.8167 -20.8918 0.030 -0.995 -0.094 109 100 61
-88.4427 97.3132 -20.8680 -0.614 -0.773 -0.157 111 102 63
-88.0260 95.7565 -20.0759 -0.644 -0.152 0.750 109 99 62
-87.8274 95.8175 -19.9962 -0.287 -0.324 0.901 117 105 65
-87.6027 95.9697 -19.9368 -0.159 -0.751 0.641 117 105 65
-83.0568 94.6872 -17.1184 -0.769 -0.623 -0.140 130 123 71
-71.0899 97.9457 -12.1594 -0.773 -0.099 0.627 92 103 80
-68.6763 98.9821 -11.2998 -0.597 -0.066 0.800 114 121 95
-68.7129 98.7407 -11.2292 -0.670 -0.016 0.743 117 124 96
-68.7115 98.5638 -11.1629 -0.685 -0.033 0.728 119 126 99
-67.4709 99.1779 -10.7512 0.264 -0.441 0.858 121 131 113
-65.4295 99.2766 -9.7357 -0.265 -0.038 0.964 128 158 158
-64.3171 99.9505 -9.4123 0.070 -0.571 0.818 136 172 180
-64.1656 100.0091 -9.3560 0.171 -0.690 0.704 133 170 175
-63.9689 100.1351 -9.3013 0.305 -0.594 0.745 132 170 175
-63.5278 100.4556 -9.1929 0.354 -0.691 0.630 134 170 174
-58.3496 105.0456 -8.2264 -0.322 -0.558 0.765 129 150 157
-58.2099 105.0677 -8.1626 -0.327 -0.556 0.764 129 151 152
-106.8942 116.4990 -37.6475 0.540 -0.321 0.778 120 152 145
-106.5902 117.0705 -37.7042 0.616 -0.366 0.697 107 143 140
-106.4875 117.2587 -37.7215 0.620 -0.392 0.680 79 111 107
-106.3868 117.4993 -37.7593 0.508 -0.779 0.368 8 36 33
-101.0026 106.8205 -31.0039 -0.814 -0.575 -0.078 40 72 87
-89.6504 99.1055 -22.2805 -0.921 -0.354 -0.166 128 118 69
-88.7564 96.9685 -21.0231 0.171 -0.829 0.532 86 77 38
-88.0422 95.8418 -20.2351 -0.156 -0.974 0.164 102 92 56
-87.9611 95.8049 -20.1796 -0.893 -0.397 0.211 102 92 55
-87.8869 95.7434 -20.1184 -0.884 -0.431 0.181 108 96 57
-87.4742 95.9153 -19.9699 0.365 -0.838 0.405 111 99 59
-86.9961 96.3026 -19.8682 -0.334 -0.831 0.445 112 100 58
-86.8972 96.3249 -19.8256 -0.239 -0.787 0.569 112 100 58
-86.8032 96.3300 -19.7791 -0.239 -0.787 0.569 112 100 58
-86.7123 96.3243 -19.7302 -0.247 -0.781 0.574 112 100 58
-86.6183 96.3289 -19.6835 -0.247 -0.781 0.574 112 100 58
-83.0104 94.6614 -17.2036 -0.777 -0.620 -0.112 130 123 71
-70.7884 96.1886 -11.4793 -0.000 -0.085 0.996 100 112 92
-68.2131 99.0871 -11.2341 -0.124 0.020 0.992 111 123 99
-68.1781 98.4336 -10.9724 -0.368 -0.271 0.889 121 123 97
-68.4374 96.4784 -10.3767 0.068 -0.363 0.929 108 132 126
-63.7293 100.2031 -9.3414 0.138 -0.576 0.806 131 166 169
-58.3040 104.4587 -8.1346 0.513 -0.723 0.464 129 158 160
-58.2562 104.1807 -8.0063 0.501 -0.675 0.541 124 155 158
-107.0398 116.0133 -37.6958 0.174 -0.695 0.697 98 119 101
-106.8397 116.3851 -37.7323 0.540 -0.321 0.778 114 147 138
-106.7469 116.7161 -37.8087 0.616 -0.376 0.692 52 87 82
-106.6413 116.8325 -37.7980 0.615 -0.379 0.692 53 92 90
-106.5377 116.9966 -37.8063 0.613 -0.379 0.694 114 150 147
-106.4344 117.1748 -37.8199 0.561 -0.344 0.753 94 126 121
-106.3366 117.4741 -37.8819 0.508 -0.779 0.368 12 38 35
-106.2303 117.6221 -37.8827 0.491 -0.662 0.567 18 46 48
-91.3799 120.8673 -31.4585 0.454 -0.659 0.600 111 154 154
-89.1345 97.0977 -21.3875 -0.270 -0.783 -0.560 105 96 55
-89.0636 97.0102 -21.3182 -0.263 -0.779 -0.568 104 95 54
-88.9997 96.8959 -21.2424 -0.325 -0.925 -0.196 95 86 47
-88.9324 96.7963 -21.1705 0.190 -0.803 0.565 94 85 46
-87.9861 95.8576 -20.3315 -0.126 -0.980 0.154 98 88 52
-87.9168 95.7775 -20.2658 -0.121 -0.993 0.001 98 88 51
-87.1788 96.1241 -20.0160 -0.386 -0.781 0.491 109 97 57
-85.9881 95.7878 -19.2771 -0.521 -0.833 0.185 111 97 60
-85.8078 95.4798 -19.0689 -0.418 -0.876 0.239 111 97 59
-82.9653 94.6317 -17.2881 -0.806 -0.585 -0.093 130 123 71
-70.8676 95.7626 -11.4873 0.231 -0.283 0.931 85 105 90
-62.7965 100.7878 -9.2190 0.109 -0.471 0.876 124 159 165
-62.1434 101.2371 -9.0515 0.572 -0.668 0.475 137 169 175
-60.6813 102.5041 -8.7744 0.551 -0.821 0.152 133 170 175
-54.8084 107.9497 -7.7950 0.265 -0.354 0.897 124 153 159
-106.6928 116.6094 -37.8968 0.566 -0.346 0.748 54 88 84
-106.5893 116.7660 -37.9027 0.566 -0.346 0.748 53 91 88
-106.4846 116.9101 -37.9032 0.562 -0.344 0.752 114 149 146
-106.3801 117.0680 -37.9091 0.561 -0.344 0.753 94 126 120
-106.2847 117.4175 -37.9918 0.501 -0.786 0.363 13 39 34
-106.1789 117.5774 -37.9978 0.310 -0.441 0.842 18 47 47
-100.9076 106.8922 -31.2570 -0.706 -0.708 -0.022 36 69 83
-89.2528 97.1597 -21.5934 -0.609 -0.663 -0.436 93 84 43
-89.0743 97.1332 -21.4916 -0.423 -0.778 -0.465 93 84 43
-89.0015 97.0530 -21.4240 -0.432 -0.773 -0.464 94 85 44
-88.9477 96.8978 -21.3378 -0.325 -0.925 -0.196 101 92 53
-88.8931 96.7476 -21.2530 0.190 -0.803 0.565 101 92 53
-87.7813 95.7503 -20.3052 0.278 -0.880 -0.386 95 83 44
-87.6723 95.8140 -20.2732 0.223 -0.922 -0.318 96 84 44
-87.5638 95.8752 -20.2405 0.233 -0.913 -0.335 95 83 43
-87.2814 96.5539 -20.3513 -0.886 -0.393 0.246 94 82 42
-87.2845 96.2149 -20.2251 0.451 -0.829 0.329 85 73 33
-87.2143 96.1377 -20.1598 -0.342 -0.831 0.439 90 78 38
-85.9550 95.7208 -19.3551 -0.402 -0.911 0.091 95 81 44
-85.8347 95.5158 -19.2159 -0.605 -0.790 0.100 108 94 57
-85.6747 95.4393 -19.1048 -0.410 -0.866 0.287 102 89 48
-85.0513 95.3720 -18.7588 -0.380 -0.534 0.756 110 97 55
-84.9171 94.4018 -18.3239 -0.704 -0.667 -0.244 115 104 59
-82.9281 94.5810 -17.3688 -0.837 -0.516 -0.179 129 122 70
-70.7748 95.9729 -11.6452 0.262 -0.931 -0.254 81 106 97
-66.9592 98.7560 -10.7332 -0.020 -0.971 0.238 96 106 90
-66.2292 98.3626 -10.2094 -0.822 -0.026 0.569 115 130 118
-63.3548 100.1807 -9.4173 0.147 -0.714 0.684 106 134 137
-63.0530 100.4577 -9.3666 0.133 -0.442 0.887 103 135 140
-62.8192 100.6331 -9.3126 0.116 -0.431 0.895 102 135 140
-62.6497 100.7133 -9.2557 -0.034 -0.383 0.923 105 137 142
-62.5145 100.7428 -9.1973 -0.108 -0.372 0.922 118 149 153
-62.1025 101.1749 -9.1485 0.252 -0.435 0.864 117 148 153
-61.8008 101.4443 -9.0950 0.300 -0.452 0.840 115 149 153
-60.8408 102.3217 -8.9324 0.577 -0.742 0.342 130 173 173
-58.8574 103.9461 -8.5253 0.352 -0.759 0.548 127 171 176
-58.5565 104.1973 -8.4653 0.225 -0.724 0.652 128 169 178
-106.5356 116.6677 -37.9945 0.561 -0.342 0.754 53 89 88
-106.4305 116.8041 -37.9922 0.562 -0.344 0.752 115 149 148
-106.3259 116.9614 -37.9981 0.561 -0.344 0.753 95 126 122
-91.4451 120.3808 -31.6502 0.405 -0.433 0.805 99 149 147
-91.2720 120.7020 -31.6831 0.354 -0.435 0.828 112 155 154
-91.1217 120.8584 -31.6652 0.354 -0.435 0.828 116 158 157
-89.0852 97.2557 -21.6657 -0.233 -0.814 -0.532 93 84 43
-89.0106 97.1821 -21.5994 -0.408 -0.776 -0.481 93 84 43
-88.9433 97.0794 -21.5259 -0.506 -0.724 -0.468 92 83 42
-88.8962 96.8973 -21.4326 -0.326 -0.922 -0.208 81 72 33
-88.8538 96.6988 -21.3355 0.190 -0.803 0.565 81 72 33
-87.9127 95.7469 -20.4910 0.325 -0.878 -0.353 86 76 40
-87.7097 95.8209 -20.4148 0.278 -0.880 -0.386 95 83 44
-87.6232 95.8032 -20.3636 0.255 -0.916 -0.311 96 84 44
-87.5042 95.9014 -20.3397 0.249 -0.916 -0.316 95 83 43
-87.2579 96.4492 -20.4210 -0.884 -0.396 0.249 95 83 43
-87.1934 96.3499 -20.3502 -0.884 -0.396 0.249 91 79 39
-85.0331 95.2618 -18.8276 -0.380 -0.534 0.756 106 93 51
-84.7913 94.8839 -18.5600 -0.105 -0.217 0.971 110 99 54
-84.5830 94.9561 -18.4803 -0.209 -0.182 0.961 117 106 61
-84.3988 94.4263 -18.1847 -0.127 -0.893 0.431 113 100 56
-84.2979 94.4536 -18.1433 -0.132 -0.891 0.435 113 100 56
-69.4811 101.8419 -13.3338 -0.623 -0.614 -0.485 126 135 125
-67.0350 98.8610 -10.9463 -0.795 -0.307 0.523 89 102 86
-66.3744 98.8665 -10.6090 0.272 -0.961 0.052 106 113 93
-63.1067 100.2580 -9.4581 0.133 -0.442 0.887 115 146 150
-62.1836 100.9353 -9.2408 0.222 -0.394 0.892 111 140 146
-61.7916 101.3356 -9.1912 0.312 -0.434 0.845 107 140 145
-60.6226 102.3411 -8.9721 0.240 -0.457 0.856 111 160 160
-58.9486 103.8643 -8.6898 0.490 -0.690 0.533 133 180 182
-107.0050 117.8287 -38.8349 0.065 -0.975 0.212 101 117 99
-106.4825 116.5787 -38.0899 0.561 -0.341 0.754 50 83 87
-106.3784 116.7358 -38.0964 0.561 -0.341 0.754 108 141 143
-106.2733 116.8856 -38.0995 0.564 -0.344 0.751 97 127 125
-105.4629 119.3615 -38.6280 0.631 -0.646 0.428 69 103 124
-105.0460 120.9904 -39.0353 0.401 -0.595 0.697 65 104 103
-94.9604 102.1082 -26.6551 0.536 -0.441 0.720 80 138 152
-91.3944 120.2774 -31.7554 0.405 -0.451 0.796 112 160 157
-88.9610 97.1732 -21.6929 -0.418 -0.816 -0.399 112 103 62
-88.8802 97.1249 -21.6329 -0.505 -0.726 -0.466 111 102 61
-88.3035 95.4554 -20.7000 0.449 -0.884 0.126 101 91 55
-87.2344 96.3447 -20.4905 -0.885 -0.393 0.249 95 83 43
-87.1702 96.2451 -20.4195 -0.885 -0.393 0.249 98 86 46
-85.8622 95.6728 -19.5297 -0.397 -0.911 0.109 84 70 33
-84.6970 94.7305 -18.5722 -0.105 -0.219 0.970 103 92 47
-84.6105 94.7154 -18.5220 -0.192 -0.204 0.960 103 92 47
-84.5966 94.4891 -18.4285 -0.476 -0.731 0.489 103 92 47
-84.5330 94.4085 -18.3651 -0.088 -0.915 0.393 103 92 47
-84.4307 94.4401 -18.3247 -0.084 -0.914 0.398 112 99 55
-84.3344 94.4541 -18.2806 -0.080 -0.916 0.392 112 99 55
-84.2331 94.4819 -18.2392 -0.099 -0.917 0.387 112 99 55
-82.9245 94.7843 -17.6828 0.073 -0.996 0.050 124 113 66
-82.9039 94.5919 -17.5988 -0.817 -0.524 -0.239 129 121 71
-69.3964 101.8578 -13.4365 -0.628 -0.611 -0.481 126 136 124
-67.1807 99.5616 -11.4231 -0.782 -0.478 0.400 74 102 96
-60.2919 102.3501 -8.9505 -0.260 0.090 0.961 97 142 137
-56.3978 105.7287 -8.2403 0.353 -0.605 0.714 131 175 182
-106.3240 116.6224 -38.1820 0.564 -0.344 0.751 101 131 138
-106.2193 116.7796 -38.1886 0.564 -0.344 0.751 98 128 129
-106.1163 116.9843 -38.2143 0.572 -0.388 0.723 27 56 54
-104.9912 120.9274 -39.1497 0.404 -0.601 0.690 54 94 95
-104.7537 121.0154 -39.0617 0.284 -0.540 0.792 58 101 91
-104.6434 121.3867 -39.1475 0.417 -0.645 0.640 66 107 94
-88.8891 97.2540 -21.8094 -0.508 -0.729 -0.459 104 94 53
-88.8497 97.0392 -21.7068 -0.493 -0.870 -0.030 105 95 52
-88.7577 97.0365 -21.6586 -0.517 -0.855 -0.036 109 100 58
-88.5566 96.7347 -21.4397 0.175 -0.824 0.539 108 99 58
-88.4427 96.8177 -21.4131 0.145 -0.833 0.535 98 89 48
-87.8976 97.1220 -21.2502 0.320 -0.940 -0.120 111 101 61
-88.2829 95.3410 -20.7646 0.643 -0.708 0.293 106 96 56
-87.1831 96.3383 -20.5831 0.410 -0.879 -0.245 98 86 44
-84.8105 95.0489 -18.8715 -0.389 -0.305 0.870 101 90 45
-84.7242 95.0314 -18.8205 -0.663 -0.359 0.657 101 90 45
-84.6429 94.9991 -18.7664 -0.811 -0.254 0.527 101 90 45
-84.7126 94.5250 -18.6203 -0.105 -0.219 0.970 88 77 32
-84.5501 94.4656 -18.5142 -0.483 -0.720 0.499 88 77 32
-84.4773 94.4117 -18.4562 -0.513 -0.712 0.479 88 77 32
-83.8959 94.5016 -18.1924 -0.204 -0.528 0.824 105 92 48
-83.8005 94.5110 -18.1471 -0.234 -0.510 0.828 105 92 48
-83.7070 94.5153 -18.1008 -0.216 -0.519 0.827 105 92 48
-83.6070 94.5372 -18.0579 -0.831 -0.092 0.549 109 98 52
-82.8712 94.7758 -17.7720 0.065 -0.997 0.052 124 113 66
-69.2676 101.7512 -13.4699 -0.742 -0.538 -0.401 123 139 127
-69.2350 101.6091 -13.3987 -0.659 -0.609 -0.442 60 84 71
-70.6755 96.1295 -12.0356 -0.265 -0.798 0.541 87 118 110
-70.5718 96.1308 -11.9829 -0.265 -0.798 0.541 86 117 110
-70.4540 96.1555 -11.9320 -0.030 -0.724 0.689 82 113 107
-70.3213 96.2050 -11.8829 -0.044 -0.720 0.692 78 109 103
-67.3300 95.0526 -9.9065 -0.102 0.008 0.995 100 109 90
-63.0183 100.1468 -9.6490 0.178 -0.656 0.733 108 120 101
-60.3785 101.7692 -8.9172 -0.211 0.052 0.976 107 142 128
-59.7974 102.2520 -8.8044 -0.220 0.079 0.972 105 147 139
-53.9033 107.7601 -7.8939 0.227 -0.427 0.875 131 173 180
-62.6606 94.9777 -7.4826 0.065 -0.378 0.924 115 161 174
-106.1669 116.7079 -38.2915 0.610 -0.418 0.674 98 128 128
-106.0626 116.8873 -38.3073 0.575 -0.410 0.708 27 58 53
-88.6137 97.0327 -21.7057 -0.475 -0.826 -0.303 111 100 56
-88.5385 96.9635 -21.6405 -0.471 -0.832 -0.294 111 100 56
-88.5199 96.6754 -21.5198 0.202 -0.814 0.545 111 100 56
-88.4165 96.7178 -21.4831 0.212 -0.812 0.544 112 101 57
-88.3267 96.7072 -21.4330 0.349 -0.599 0.721 112 101 57
-87.9494 95.7105 -20.8552 0.449 -0.888 0.097 112 99 56
-87.8209 95.5145 -20.7138 0.542 -0.840 0.031 112 99 56
-85.7976 94.9531 -19.4602 -0.556 -0.824 -0.112 97 85 44
-84.8071 94.8966 -18.9307 -0.495 -0.401 0.771 103 90 48
-84.1855 94.3055 -18.3841 -0.391 -0.603 0.696 103 92 46
-84.0844 94.3326 -18.3428 -0.369 -0.565 0.738 103 92 46
-83.6721 94.4584 -18.1800 -0.799 -0.130 0.587 87 76 30
-83.5875 94.4378 -18.1287 -0.793 -0.158 0.588 92 81 35
-82.6906 94.8576 -17.8309 0.137 -0.956 0.259 132 122 70
-69.2403 101.8650 -13.6402 -0.750 -0.537 -0.385 125 136 119
-69.2012 101.7339 -13.5696 -0.742 -0.538 -0.401 122 138 125
-69.1440 101.6356 -13.5023 -0.684 -0.720 -0.112 48 72 61
-66.4928 105.0752 -13.4703 0.349 -0.905 0.245 78 106 102
-70.6629 96.0313 -12.1191 -0.413 -0.741 0.530 85 115 105
-70.5746 96.0068 -12.0644 -0.398 -0.747 0.533 83 113 103
-70.4949 95.9680 -12.0086 -0.307 -0.802 0.513 77 107 97
-70.3820 95.9847 -11.9572 -0.296 -0.775 0.558 72 102 93
-70.2106 96.0986 -11.9132 -0.137 -0.754 0.643 76 102 98
-53.2754 108.1159 -7.8688 0.242 -0.444 0.863 131 175 183
-106.1141 116.6259 -38.3902 0.610 -0.418 0.674 99 129 129
-106.0093 116.7969 -38.4029 0.575 -0.410 0.708 27 58 53
-87.1108 95.8973 -20.6183 -0.812 -0.581 -0.057 112 101 56
-86.4437 95.6588 -20.1841 0.020 -0.569 0.822 112 99 54
-86.2213 95.7828 -20.1183 -0.720 -0.687 0.101 112 99 54
-85.7386 94.9697 -19.5557 -0.448 -0.360 0.818 102 90 48
-84.6338 94.7044 -18.8870 -0.807 -0.250 0.535 97 84 42
-84.4952 94.3088 -18.6626 -0.677 -0.576 0.458 95 82 40
-84.4114 94.2872 -18.6113 -0.674 -0.578 0.459 95 82 39
-84.3412 94.2266 -18.5519 -0.721 -0.527 0.451 106 95 49
-84.2544 94.2137 -18.5024 -0.391 -0.603 0.696 106 95 49
-84.1643 94.2101 -18.4549 -0.391 -0.603 0.696 106 95 49
-84.0671 94.2265 -18.4114 -0.402 -0.415 0.816 106 95 49
-83.9685 94.2461 -18.3686 -0.218 -0.515 0.829 106 95 49
-82.9774 94.6866 -18.0319 0.214 -0.882 0.420 113 102 56
-82.6323 94.8614 -17.9229 0.176 -0.891 0.419 132 122 70
-77.6838 94.0813 -15.0861 -0.480 -0.874 -0.077 122 119 75
-69.1750 101.8453 -13.7400 -0.750 -0.537 -0.385 126 137 119
-69.1386 101.7096 -13.6687 -0.741 -0.534 -0.406 121 137 123
-69.0888 101.5984 -13.6000 -0.684 -0.720 -0.112 48 72 62
-70.6269 95.9726 -12.2057 -0.150 -0.714 0.683 81 111 101
-70.5278 95.9663 -12.1525 -0.135 -0.728 0.672 77 107 97
-70.4145 95.9837 -12.1012 -0.132 -0.768 0.627 71 101 91
-70.3023 95.9989 -12.0497 -0.137 -0.754 0.643 66 96 86
-70.1858 96.0212 -11.9986 -0.137 -0.754 0.643 71 96 92
-106.0604 116.5249 -38.4809 0.600 -0.411 0.686 101 132 132
-105.9557 116.6992 -38.4953 0.548 -0.326 0.770 35 66 61
-86.0177 95.6679 -20.0904 -0.404 -0.906 0.128 116 104 62
-85.9343 95.6383 -20.0362 -0.404 -0.906 0.128 116 104 62
-85.8510 95.6088 -19.9820 -0.404 -0.906 0.128 116 104 62
-85.5100 95.5160 -19.7713 -0.414 -0.908 0.056 108 96 54
-84.6169 94.5939 -18.9547 -0.787 -0.249 0.564 104 91 49
-84.5632 94.4833 -18.8841 -0.807 -0.250 0.535 97 84 42
-83.9542 94.1322 -18.4355 -0.218 -0.515 0.829 83 72 26
-83.8538 94.1570 -18.3938 -0.218 -0.515 0.829 83 72 26
-83.7258 94.2575 -18.3675 -0.051 -0.984 -0.168 83 72 26
-83.6409 94.2383 -18.3166 -0.064 -0.984 -0.169 83 72 26
-83.5543 94.2241 -18.2667 -0.064 -0.984 -0.169 100 89 43
-83.3678 94.2312 -18.1741 -0.084 -0.982 -0.170 112 101 55
-83.2876 94.1993 -18.1206 -0.227 -0.933 0.280 116 105 59
-83.2024 94.1808 -18.0698 0.012 -0.932 0.363 109 98 52
-82.8156 94.7194 -18.0819 0.212 -0.885 0.415 120 109 63
-82.5821 94.8435 -18.0108 0.171 -0.893 0.417 132 122 70
-77.6323 94.0597 -15.1723 -0.487 -0.871 -0.071 122 119 75
-69.0211 101.5829 -13.6999 -0.742 -0.538 -0.401 49 73 62
-70.6807 95.9358 -12.3467 -0.378 -0.562 0.735 84 114 104
-70.3635 95.9500 -12.1899 -0.371 -0.571 0.732 65 95 85
-70.2793 95.9186 -12.1346 -0.420 -0.618 0.665 61 91 81
-64.5880 95.3583 -9.0038 -0.274 0.114 0.955 110 113 106
-64.3980 95.4753 -8.9522 -0.283 0.114 0.952 114 118 113
-64.3951 95.3316 -8.8947 -0.252 0.060 0.966 114 121 115
-60.5470 100.5173 -8.9480 -0.140 0.015 0.990 114 122 117
-106.4326 115.9652 -38.6093 0.373 -0.808 0.456 110 132 133
-106.2190 116.1646 -38.5783 0.561 -0.327 0.760 41 68 82
-106.1138 116.3068 -38.5802 0.551 -0.332 0.765 85 115 125
-106.0076 116.4399 -38.5781 0.600 -0.411 0.686 106 137 137
-105.9020 116.5965 -38.5855 0.548 -0.330 0.769 51 82 76
-105.6912 116.9585 -38.6197 0.495 -0.588 0.640 26 57 62
-89.3305 98.0485 -22.8389 -0.711 -0.681 -0.178 123 113 60
-85.4640 95.4897 -19.8585 -0.414 -0.908 0.056 112 100 58
-85.1737 96.1018 -19.9501 -0.669 -0.706 0.233 112 100 58
-84.9824 95.2617 -19.5228 -0.464 -0.880 -0.100 102 88 49
-84.6562 94.5876 -19.0917 -0.168 -0.892 0.420 119 106 64
-84.5099 94.4794 -18.9744 -0.736 -0.639 -0.226 109 96 54
-84.3586 94.3870 -18.8608 -0.569 -0.748 -0.342 109 96 54
-84.2942 94.3091 -18.7974 -0.569 -0.748 -0.342 109 96 53
-84.2439 94.1919 -18.7257 -0.272 -0.922 -0.274 105 94 49
-84.0947 94.0969 -18.6122 -0.328 -0.670 0.666 105 94 48
-83.1380 94.2034 -18.1648 -0.046 -0.967 -0.250 109 98 52
-82.7698 94.6902 -18.1674 0.212 -0.885 0.415 120 109 63
-82.6528 94.7531 -18.1322 0.177 -0.889 0.423 124 113 66
-82.5243 94.8455 -18.1027 0.182 -0.885 0.429 132 122 70
-77.7430 93.8993 -15.2870 -0.559 -0.792 -0.245 119 116 76
-70.4516 95.8561 -12.3263 -0.348 -0.717 0.604 75 105 95
-70.3551 95.8454 -12.2727 -0.371 -0.714 0.594 72 102 92
-64.9913 93.9661 -8.7932 -0.289 -0.792 -0.538 110 111 104
-64.9032 93.9448 -8.7398 -0.219 -0.821 -0.527 116 118 110
-64.8427 93.8857 -8.6857 -0.230 -0.818 -0.528 115 117 108
-106.1662 116.0764 -38.6735 0.564 -0.330 0.757 41 68 81
-106.0616 116.2345 -38.6824 0.564 -0.330 0.757 84 114 124
-105.9557 116.3756 -38.6839 0.565 -0.330 0.757 106 137 136
-105.6393 116.9030 -38.7302 0.496 -0.593 0.634 26 57 62
-89.4326 98.1940 -23.0734 -0.682 -0.723 -0.110 132 122 69
-89.2824 98.0308 -22.9323 -0.682 -0.723 -0.110 124 114 61
-84.9329 95.2458 -19.6120 -0.464 -0.880 -0.100 112 98 59
-84.8877 95.1037 -19.5329 -0.483 -0.873 0.067 112 98 59
-84.9256 94.7154 -19.3992 -0.750 -0.586 0.307 112 98 59
-84.8466 94.6773 -19.3438 -0.752 -0.588 0.297 112 98 59
-84.7852 94.5873 -19.2770 -0.736 -0.605 0.303 111 98 56
-84.7050 94.5535 -19.2226 -0.191 -0.893 0.408 111 98 56
-84.6184 94.5384 -19.1724 -0.173 -0.897 0.407 111 98 56
-83.5484 94.1875 -18.4874 -0.103 -0.984 -0.145 108 97 51
-83.4624 94.1711 -18.4370 -0.103 -0.984 -0.145 109 98 52
-82.6040 94.7316 -18.2195 0.156 -0.881 0.446 125 114 67
-82.4781 94.8168 -18.1888 0.175 -0.879 0.443 133 123 71
-70.5500 95.7450 -12.4607 -0.340 -0.686 0.643 76 106 96
-70.4313 95.7714 -12.4105 -0.368 -0.717 0.592 77 107 97
-70.3331 95.7636 -12.3573 -0.371 -0.714 0.594 77 107 97
-64.8560 93.7632 -8.7703 -0.067 -0.839 -0.540 98 105 89
-64.7935 93.7073 -8.7163 -0.068 -0.841 -0.537 97 106 90
-64.7242 93.6609 -8.6626 -0.185 -0.817 -0.546 97 110 95
-64.5817 93.7137 -8.6107 -0.151 -0.842 -0.518 103 120 108
-106.0090 116.1524 -38.7804 0.553 -0.310 0.774 83 113 122
-105.9031 116.2970 -38.7837 0.564 -0.314 0.764 106 137 138
-105.3766 117.2890 -38.9082 0.387 -0.576 0.720 35 62 80
-105.0831 118.7948 -39.3553 0.479 -0.545 0.687 41 75 95
-104.9696 118.9063 -39.3415 0.450 -0.647 0.616 84 121 138
-104.8559 119.0251 -39.3306 0.480 -0.550 0.684 71 111 124
-88.9152 98.1599 -22.9212 0.023 -0.923 -0.384 113 99 54
-83.4904 94.1937 -18.5795 -0.133 -0.990 0.042 108 97 51
-83.2840 94.2537 -18.4979 -0.066 -0.986 -0.156 109 98 52
-83.1593 94.3406 -18.4687 -0.011 -0.902 -0.431 109 98 52
-82.6838 94.6174 -18.3357 0.284 -0.945 0.163 121 110 64
-82.5604 94.6965 -18.3041 0.156 -0.881 0.446 125 114 67
-82.4367 94.7754 -18.2722 0.172 -0.881 0.440 133 123 71
-77.7455 94.0340 -15.5835 0.367 -0.910 0.195 108 104 66
-77.7203 93.6907 -15.4345 -0.495 -0.840 -0.222 120 116 77
-68.7714 101.6180 -14.0090 -0.559 -0.732 -0.389 45 69 58
-64.2636 93.7592 -8.5923 -0.604 -0.796 -0.025 90 109 95
-64.1980 93.7077 -8.5384 -0.604 -0.796 -0.025 91 109 95
-105.9563 116.0694 -38.8779 0.546 -0.301 0.782 77 107 118
-105.8499 116.2029 -38.8768 0.567 -0.315 0.761 108 137 142
-105.7443 116.3661 -38.8880 0.567 -0.315 0.761 60 90 91
-105.3232 117.2020 -39.0064 0.387 -0.576 0.720 34 62 77
-104.9159 118.8420 -39.4523 0.477 -0.555 0.681 83 120 137
-104.8016 118.9435 -39.4345 0.480 -0.550 0.684 71 110 123
-82.9757 94.4332 -18.5319 0.110 -0.898 0.427 109 98 52
-82.8760 94.4512 -18.4883 0.127 -0.895 0.427 110 99 53
-82.7351 94.5779 -18.4669 0.257 -0.947 0.193 114 103 57
