ply
format ascii 1.0
element vertex 891
property float x
property float y
property float z
property float nx
property float ny
property float nz
property uchar diffuse_red
property uchar diffuse_green
property uchar diffuse_blue
end_header
32.4746 72.6877 -2.1660 -0.681 -0.548 -0.485 95 104 51
32.5342 72.3536 -2.1433 -0.899 -0.354 0.256 111 120 67
32.8138 72.9393 -2.2537 -0.757 -0.522 -0.393 123 132 79
-25.5965 98.0115 5.8187 0.007 -0.489 0.872 82 93 37
-25.2425 97.8690 5.7683 0.013 -0.506 0.863 79 89 35
-25.0839 97.8313 5.7430 -0.046 -0.466 0.883 65 73 34
-24.7640 97.7500 5.6926 -0.078 -0.559 0.825 12 18 9
-24.6019 97.7047 5.6675 -0.055 -0.581 0.812 13 18 8
-24.4312 97.6427 5.6425 -0.210 -0.622 0.755 12 19 4
-24.2440 97.5493 5.6177 -0.210 -0.622 0.755 66 75 45
-5.8980 81.8776 3.8537 0.781 -0.597 0.184 34 42 18
-5.7082 81.6480 3.8423 0.869 -0.457 0.188 33 42 18
-10.4460 97.5036 3.0878 -0.486 -0.640 0.595 33 43 21
-9.0739 98.6919 2.7140 -0.219 -0.576 0.787 44 51 32
-8.9085 98.6036 2.6927 -0.453 -0.557 0.696 43 50 33
-8.7233 98.4521 2.6742 -0.446 -0.554 0.703 44 50 34
-8.4524 98.0290 2.6678 -0.561 -0.702 0.440 42 51 34
-8.3742 98.2115 2.6347 -0.057 -0.717 0.695 42 51 33
-8.3133 98.4509 2.5990 0.677 -0.408 0.612 41 48 31
-6.1415 97.5403 2.2934 0.717 -0.557 -0.418 41 52 25
-5.9459 97.7975 2.2311 0.166 -0.984 -0.072 47 57 31
-5.6832 97.8231 2.1802 -0.564 -0.780 -0.270 61 70 41
-5.5347 97.7746 2.1579 -0.660 -0.725 -0.196 69 78 47
-5.3713 97.6722 2.1384 -0.556 -0.778 -0.293 79 88 55
-5.2143 97.5913 2.1178 -0.467 -0.839 -0.278 89 96 60
-5.0595 97.5173 2.0970 -0.282 -0.852 -0.442 88 97 57
-2.7139 96.1755 1.8036 0.287 -0.195 0.938 107 118 71
-2.5967 96.2339 1.7761 0.402 -0.171 0.900 105 118 67
-2.4887 96.3307 1.7463 0.402 -0.171 0.900 103 115 65
-2.3672 96.3731 1.7197 0.315 -0.169 0.934 102 115 65
-2.2570 96.4630 1.6902 0.309 -0.174 0.935 101 113 65
0.5195 96.4210 1.1845 -0.657 -0.716 -0.237 85 96 56
0.6798 96.2789 1.1696 -0.657 -0.716 -0.237 82 93 53
0.8168 96.2498 1.1475 -0.338 -0.848 -0.409 79 90 50
0.9654 96.1623 1.1291 -0.321 -0.848 -0.422 75 86 46
4.2260 96.2071 0.5256 -0.064 -0.505 0.861 74 86 50
25.4706 83.3477 -2.0590 -0.369 -0.578 0.728 79 85 48
26.1868 82.6379 -2.1179 -0.632 -0.773 0.052 79 83 48
26.2700 82.5205 -2.1211 -0.614 -0.789 -0.004 90 94 61
26.3930 82.6340 -2.1553 0.465 -0.809 0.359 95 98 67
28.1583 80.7198 -2.2834 -0.930 -0.305 0.206 199 202 159
28.3390 80.6313 -2.3076 -0.927 -0.297 0.227 143 147 97
28.8024 80.0323 -2.3313 0.464 -0.881 0.090 127 131 80
28.9283 80.1540 -2.3669 -0.002 -0.899 0.438 130 134 83
29.3408 78.9816 -2.3225 -0.129 -0.326 0.936 118 126 68
29.4092 78.8638 -2.3230 -0.122 -0.335 0.934 125 132 77
29.6144 79.3162 -2.4071 -0.285 -0.363 0.887 125 132 79
29.5493 78.6465 -2.3265 -0.522 -0.551 0.651 120 127 73
30.0745 77.6992 -2.3259 -0.763 -0.508 -0.399 104 112 54
30.5816 76.4413 -2.2901 -0.639 -0.681 0.358 160 167 119
30.6487 76.3497 -2.2931 -0.662 -0.649 0.375 133 139 94
30.8767 76.8462 -2.3858 -0.174 -0.331 0.927 106 114 68
30.9579 76.8049 -2.3965 -0.152 -0.328 0.932 91 99 53
31.0367 76.7551 -2.4059 -0.148 -0.346 0.927 73 82 32
31.1140 76.7008 -2.4145 -0.161 -0.344 0.925 62 70 21
31.0501 76.1448 -2.3458 -0.390 -0.382 0.838 46 54 6
31.1160 76.0543 -2.3486 -0.395 -0.384 0.835 35 42 2
31.1757 75.9434 -2.3482 -0.435 -0.422 0.795 36 40 6
31.2434 75.8617 -2.3523 -0.829 -0.444 0.340 40 43 12
31.3680 75.6641 -2.3549 -0.799 -0.516 0.309 51 54 23
31.8410 74.8354 -2.3569 -0.753 -0.238 0.613 92 98 59
31.8864 74.6921 -2.3506 -0.728 -0.352 0.588 89 95 56
32.1625 75.3044 -2.4640 -0.858 -0.512 -0.043 76 83 42
32.3406 75.0112 -2.4667 -0.906 -0.401 0.134 71 79 33
32.3749 74.8354 -2.4550 -0.899 -0.429 0.089 91 99 50
32.4514 74.5147 -2.4362 -0.634 -0.544 -0.550 133 142 89
32.5005 74.3912 -2.4325 -0.610 -0.549 -0.571 131 140 89
32.3872 72.9558 -2.2646 -0.675 -0.551 -0.490 95 104 49
32.4492 72.8833 -2.2686 -0.675 -0.551 -0.490 91 100 45
32.5057 72.7945 -2.2699 -0.679 -0.549 -0.488 89 98 45
32.8855 72.9090 -2.3514 -0.757 -0.522 -0.393 78 87 34
33.0012 72.4942 -2.3301 -0.864 -0.369 0.344 124 134 81
-25.7151 98.1422 5.6906 -0.409 -0.491 0.769 83 93 38
-25.1947 97.6927 5.6419 -0.049 -0.466 0.883 78 88 33
-24.9982 97.5841 5.6171 -0.046 -0.466 0.883 62 69 32
-24.7076 97.5563 5.5667 -0.078 -0.559 0.825 11 16 11
-24.5432 97.5064 5.5417 -0.070 -0.579 0.812 7 12 4
-24.3893 97.4758 5.5166 -0.210 -0.622 0.755 15 22 6
-24.2026 97.3827 5.4920 -0.210 -0.622 0.755 70 80 49
-9.1347 85.1027 4.0053 -0.224 -0.548 0.806 217 225 184
-8.9872 85.0160 3.9872 -0.224 -0.548 0.806 191 200 157
-8.4997 86.4370 3.7496 -0.222 -0.186 0.957 17 21 8
-10.6989 97.7332 2.9762 -0.233 -0.945 -0.227 43 57 42
-10.3268 97.4409 2.9383 -0.704 -0.693 0.157 45 57 43
-10.1972 97.4574 2.9128 -0.464 -0.626 0.627 46 58 44
-9.7035 98.8249 2.6796 0.730 -0.651 -0.207 42 54 36
-9.6190 98.9860 2.6473 0.701 -0.675 -0.230 38 48 26
-9.3746 98.6595 2.6365 -0.656 -0.704 -0.271 41 49 25
-8.3472 98.0106 2.5155 0.187 -0.763 0.619 41 52 24
-8.2739 98.2095 2.4813 0.693 -0.391 0.605 41 49 24
-5.7769 98.0321 2.0413 -0.662 -0.724 -0.194 91 103 67
-5.5987 97.8797 2.0245 -0.656 -0.728 -0.197 97 107 70
-5.4317 97.7652 2.0058 -0.556 -0.778 -0.293 95 106 65
-2.7449 95.6444 1.7335 0.269 -0.191 0.944 100 110 57
-2.6480 95.7805 1.7015 0.278 -0.184 0.943 102 115 59
-2.4754 95.6122 1.6873 0.399 -0.113 0.910 98 112 54
-2.2965 95.9509 1.6192 0.315 -0.169 0.934 98 111 56
-1.9629 96.2029 1.5317 0.222 -0.251 0.942 100 112 62
-1.7948 96.0483 1.5169 0.831 -0.481 0.278 101 113 63
-1.3652 95.8935 1.4542 0.813 -0.202 0.547 96 108 57
-1.2627 96.0179 1.4224 0.790 -0.173 0.588 94 106 55
-1.1628 96.1553 1.3897 0.787 -0.177 0.591 98 110 59
5.7443 103.8306 -0.6783 0.978 -0.149 0.145 70 76 42
5.8600 104.0617 -0.7236 0.977 -0.194 0.085 47 51 26
26.1608 82.5469 -2.2088 -0.713 -0.673 0.197 73 79 45
26.3499 82.4465 -2.2331 -0.607 -0.794 -0.029 60 66 32
26.4518 82.4394 -2.2510 0.251 -0.944 0.215 57 62 30
27.8983 81.4501 -2.4135 -0.487 -0.835 -0.256 147 150 124
28.3384 80.6691 -2.4129 -0.890 -0.431 0.149 226 227 189
29.2449 79.0173 -2.4072 0.024 -0.299 0.954 118 125 73
29.3918 78.8224 -2.4139 -0.108 -0.375 0.921 116 123 70
29.5759 79.1872 -2.4857 -0.274 -0.355 0.894 113 120 69
29.6964 79.2845 -2.5179 -0.357 -0.374 0.856 115 122 69
29.7800 79.2291 -2.5275 -0.540 -0.287 0.791 117 125 69
30.1369 78.3430 -2.5007 -0.527 -0.222 0.820 102 109 53
30.1711 78.1036 -2.4820 -0.658 -0.285 0.697 105 112 58
30.2318 77.9702 -2.4793 -0.659 -0.286 0.696 98 105 53
30.2961 77.8526 -2.4788 -0.756 -0.378 0.535 92 99 47
30.3655 77.7560 -2.4815 -0.772 -0.400 0.494 97 104 52
30.6972 76.2136 -2.3817 -0.588 -0.568 0.575 158 165 112
31.0529 76.5032 -2.4772 0.024 -0.278 0.960 135 142 89
31.1357 76.4699 -2.4889 0.024 -0.278 0.960 121 128 75
31.2059 76.3929 -2.4938 -0.027 -0.260 0.965 113 119 72
31.3033 76.4123 -2.5136 -0.014 -0.253 0.967 83 89 48
31.3829 76.3692 -2.5238 -0.014 -0.253 0.967 72 78 42
31.4583 76.3121 -2.5317 -0.187 -0.296 0.937 57 63 28
31.5275 76.2344 -2.5363 -0.209 -0.308 0.928 43 49 13
31.5922 76.1420 -2.5385 -0.281 -0.359 0.890 30 36 1
31.7396 74.8108 -2.4268 -0.866 -0.409 0.288 71 77 41
31.7941 74.6967 -2.4250 -0.866 -0.409 0.288 75 81 44
31.8483 74.5831 -2.4231 -0.865 -0.410 0.290 79 85 47
32.1276 74.0592 -2.4198 -0.593 -0.338 0.730 81 87 47
32.1908 73.9813 -2.4232 -0.584 -0.304 0.752 67 74 32
32.2345 73.8427 -2.4168 -0.580 -0.312 0.752 66 73 30
32.2908 73.7452 -2.4170 -0.605 -0.319 0.730 74 81 36
32.4490 72.8948 -2.3574 -0.675 -0.549 -0.493 124 133 80
33.4399 70.8951 -2.3310 -0.808 -0.512 -0.291 134 145 89
-25.5854 97.8160 5.5647 -0.412 -0.472 0.779 82 93 35
-25.1277 97.4812 5.5161 -0.030 -0.459 0.888 76 87 31
-24.9254 97.3614 5.4917 -0.037 -0.468 0.883 58 66 29
-24.6612 97.3817 5.4411 -0.072 -0.570 0.818 9 14 12
-24.4930 97.3243 5.4163 -0.070 -0.579 0.812 5 10 5
-24.3416 97.2979 5.3913 -0.193 -0.625 0.756 15 22 7
-24.1587 97.2120 5.3668 -0.193 -0.625 0.756 74 83 53
-8.9658 84.8765 3.8857 -0.422 -0.533 0.734 193 202 160
-8.6451 84.6339 3.8525 -0.001 -0.460 0.888 79 86 46
-10.9482 97.9487 2.8644 -0.081 -0.663 0.744 40 59 50
-10.7469 97.7623 2.8472 -0.303 -0.940 -0.158 41 60 51
-10.7460 98.1512 2.8058 -0.041 -0.974 -0.222 42 60 53
-10.3692 97.4550 2.8104 -0.704 -0.693 0.157 40 57 50
-9.8896 96.8433 2.7872 0.971 -0.237 -0.014 34 51 40
-9.5831 98.3477 2.5716 0.913 -0.371 -0.168 24 38 16
-9.4373 98.3199 2.5477 0.246 -0.833 -0.495 35 48 20
-9.4847 98.8818 2.4969 -0.651 -0.704 -0.284 42 52 20
-8.8711 98.2579 2.4504 -0.695 -0.683 -0.225 51 59 24
-8.7056 98.1671 2.4297 -0.705 -0.668 -0.238 51 59 24
-8.3380 97.8666 2.3940 0.184 -0.758 0.626 48 60 25
-8.2595 98.0480 2.3604 0.693 -0.391 0.605 53 64 31
-6.0887 98.0530 1.9615 0.115 -0.982 -0.151 74 90 53
-3.9906 97.7955 1.6037 0.707 -0.656 0.265 100 110 58
-2.4917 95.0244 1.6223 0.419 -0.095 0.903 103 117 58
-2.2884 95.2529 1.5608 0.399 -0.113 0.910 98 112 52
-1.9419 95.9813 1.4200 0.265 -0.269 0.926 101 113 64
3.8800 84.0157 1.6194 -0.823 -0.366 0.435 80 89 46
2.2979 95.0034 0.7455 0.254 -0.819 -0.514 79 88 45
5.7319 103.6941 -0.8056 0.978 -0.151 0.143 72 78 45
5.8426 103.9646 -0.8545 0.971 -0.167 0.172 52 55 32
5.8825 104.8380 -0.9544 -0.663 -0.462 0.590 57 60 40
26.1709 82.6675 -2.3286 -0.709 -0.701 0.076 68 74 41
26.3845 82.7045 -2.3717 -0.050 -0.940 0.338 75 81 48
26.4870 82.6980 -2.3898 -0.132 -0.913 0.387 76 82 49
26.6890 82.6690 -2.4238 -0.663 -0.701 0.261 84 90 57
26.7691 82.5397 -2.4248 -0.642 -0.661 0.389 80 86 53
27.4866 81.4624 -2.4423 0.410 -0.815 -0.410 120 126 90
27.8965 81.4860 -2.5201 -0.587 -0.799 -0.128 229 231 207
28.1335 80.6851 -2.4787 -0.930 -0.319 0.183 200 200 174
28.6218 79.7362 -2.4678 0.167 -0.836 -0.523 182 185 142
28.9091 80.1410 -2.5634 0.251 -0.732 0.633 226 229 182
29.5649 79.1725 -2.5811 -0.362 -0.925 0.112 97 104 51
30.0043 77.8478 -2.5214 -0.664 -0.279 0.694 102 109 56
30.0553 77.6769 -2.5126 -0.668 -0.280 0.689 100 107 53
30.1022 77.4926 -2.5017 -0.668 -0.342 0.661 102 109 55
30.2747 77.7958 -2.5655 -0.604 -0.431 0.670 105 112 58
30.3475 77.7125 -2.5700 -0.772 -0.390 0.502 106 113 59
30.9303 76.4145 -2.5395 -0.366 -0.520 0.772 147 154 103
31.0048 76.3517 -2.5465 -0.366 -0.520 0.772 147 154 102
31.0726 76.2657 -2.5498 0.024 -0.309 0.951 148 155 102
30.9841 75.6276 -2.4659 -0.071 -0.309 0.948 149 155 105
31.0616 75.5813 -2.4753 -0.071 -0.309 0.948 146 154 107
31.1435 75.5509 -2.4871 -0.115 -0.314 0.942 138 145 101
31.2215 75.5075 -2.4968 -0.230 -0.305 0.924 126 134 89
31.2917 75.4378 -2.5023 -0.230 -0.305 0.924 119 126 80
31.3651 75.3798 -2.5096 -0.266 -0.322 0.909 100 107 63
32.3659 74.8360 -2.6357 -0.871 -0.407 0.275 79 84 50
32.2287 73.8381 -2.5047 -0.651 -0.443 0.616 77 83 47
32.6186 74.2368 -2.6185 -0.837 -0.499 -0.226 69 77 30
33.4716 71.2211 -2.4555 -0.839 -0.476 -0.264 134 145 89
-28.9401 95.0343 6.3433 -0.696 -0.477 0.537 68 80 35
-25.4346 97.4515 5.4400 -0.388 -0.488 0.782 80 91 33
-25.0595 97.2678 5.3909 0.002 -0.491 0.871 76 86 30
-24.8718 97.1746 5.3665 0.004 -0.494 0.869 52 60 22
-24.6153 97.2085 5.3158 -0.050 -0.611 0.790 12 17 11
-24.4426 97.1421 5.2913 -0.062 -0.617 0.784 13 18 12
-24.2858 97.1054 5.2665 -0.181 -0.626 0.758 13 19 5
-24.1129 97.0377 5.2421 -0.182 -0.622 0.762 83 91 64
-8.6006 84.4348 3.7540 -0.012 -0.464 0.886 64 71 30
-11.2662 97.9692 2.7852 0.479 -0.814 -0.328 24 50 48
-11.1114 97.9170 2.7624 -0.157 -0.766 0.623 20 48 44
-10.7677 98.1042 2.6792 -0.336 -0.927 -0.167 16 49 38
-10.4014 97.4397 2.6836 -0.698 -0.699 0.157 19 51 39
-9.6320 98.3827 2.4409 0.915 -0.368 -0.164 78 94 70
-8.3422 97.7651 2.2708 0.205 -0.836 0.510 63 74 40
-7.2974 98.3436 2.0169 -0.117 -0.879 0.462 63 83 48
-6.0082 98.1234 1.8041 0.537 -0.795 -0.282 87 100 58
-2.3046 94.6648 1.4972 0.508 -0.054 0.860 101 115 56
-2.1963 94.7493 1.4682 0.485 -0.065 0.872 87 101 44
-2.1380 95.0399 1.4263 0.422 -0.089 0.902 86 99 46
-2.0624 95.2631 1.3883 0.363 -0.163 0.917 95 107 58
-1.1527 94.7069 1.2814 -0.285 -0.858 -0.428 98 111 57
3.5724 84.9123 1.4696 -0.844 -0.512 0.160 82 93 51
2.2827 92.2343 0.9175 0.728 -0.245 0.640 83 92 49
2.3750 92.4029 0.8824 0.678 -0.196 0.708 83 92 49
2.4859 92.4747 0.8543 0.658 -0.147 0.738 83 92 49
2.5953 92.5562 0.8255 0.662 -0.148 0.735 82 91 48
2.7038 92.6441 0.7961 0.428 -0.236 0.872 82 91 48
3.3480 93.9768 0.5344 0.226 -0.153 0.962 79 92 48
3.4800 93.9473 0.5134 0.227 -0.160 0.961 79 92 48
3.4593 95.5946 0.3398 0.570 -0.815 -0.105 79 92 49
4.0994 94.0412 0.3897 -0.040 -0.745 0.666 77 89 51
4.0904 96.5380 0.1224 -0.063 -0.385 0.921 74 86 48
5.7295 103.4770 -0.9257 0.955 -0.105 0.276 72 78 45
5.8084 104.0066 -0.9972 0.955 -0.105 0.276 51 55 32
5.8567 104.8084 -1.0924 -0.667 -0.432 0.608 61 64 46
24.8618 88.3708 -2.8082 0.424 0.014 0.906 180 189 132
26.1278 82.4767 -2.4056 -0.033 -0.426 0.904 35 40 14
26.2195 82.4091 -2.4151 -0.057 -0.436 0.898 42 47 19
26.6836 82.6960 -2.5312 -0.679 -0.615 0.401 64 68 43
26.7544 82.5146 -2.5246 -0.652 -0.652 0.387 65 69 45
27.4757 81.4548 -2.5428 -0.117 -0.943 -0.313 58 62 30
27.9024 81.5601 -2.6324 -0.583 -0.800 -0.139 68 71 42
28.1256 80.6895 -2.5796 -0.925 -0.327 0.194 162 165 134
28.9194 80.2229 -2.6749 -0.111 -0.892 -0.438 119 121 79
29.6052 78.9686 -2.6656 0.092 -0.810 -0.580 130 137 85
29.9898 78.5741 -2.6937 -0.676 -0.266 0.687 90 97 45
29.9692 77.7363 -2.5997 -0.664 -0.279 0.694 104 111 60
30.0251 77.5849 -2.5936 -0.667 -0.280 0.690 108 115 61
30.2444 78.0717 -2.6863 0.132 -0.937 -0.323 112 120 63
30.3449 78.0930 -2.7070 0.132 -0.937 -0.323 114 122 64
30.4424 78.1024 -2.7259 -0.057 -0.937 -0.344 108 116 59
30.5249 78.0545 -2.7359 -0.667 -0.674 -0.318 100 107 52
30.6730 77.8969 -2.7461 -0.904 -0.331 0.270 100 107 53
30.8882 76.2839 -2.6118 -0.320 -0.326 0.889 106 113 61
30.9392 76.1373 -2.6054 -0.033 -0.292 0.956 113 120 68
31.0116 76.0689 -2.6113 0.028 -0.304 0.952 121 128 76
31.0830 75.9979 -2.6168 0.040 -0.284 0.958 125 132 80
31.0094 75.4172 -2.5407 -0.147 -0.272 0.951 133 142 90
31.0887 75.3786 -2.5511 -0.115 -0.314 0.942 137 146 92
31.1673 75.3381 -2.5612 -0.275 -0.322 0.906 144 153 99
31.6229 75.6613 -2.6796 -0.260 -0.194 0.946 130 138 85
31.9244 75.4585 -2.7130 0.076 -0.336 0.939 73 80 37
31.9864 75.3650 -2.7143 0.036 -0.380 0.924 61 68 27
32.0497 75.2769 -2.7164 -0.194 -0.442 0.876 50 56 19
32.1247 75.2282 -2.7250 -0.354 -0.421 0.835 38 44 7
32.1935 75.1599 -2.7302 -0.354 -0.421 0.835 35 41 2
32.0900 73.9679 -2.5829 -0.526 -0.560 0.640 71 75 50
32.1406 73.8501 -2.5795 -0.559 -0.666 0.494 68 72 48
32.2087 73.7887 -2.5853 -0.559 -0.666 0.494 65 71 39
32.2572 73.6665 -2.5811 -0.904 -0.408 0.125 66 72 36
32.6284 74.2807 -2.7153 -0.790 -0.524 -0.320 87 94 50
32.6995 74.2280 -2.7227 -0.830 -0.502 -0.245 83 91 42
32.5560 72.9844 -2.5624 -0.883 -0.454 -0.121 65 73 26
32.5872 72.8184 -2.5502 -0.881 -0.459 -0.114 61 69 23
33.4584 71.1923 -2.5349 -0.841 -0.474 -0.260 116 127 72
-25.3484 97.2064 5.3152 -0.372 -0.488 0.790 80 90 35
-25.0742 97.2078 5.2648 -0.486 -0.602 0.633 74 84 28
-24.8232 96.9975 5.2418 0.577 -0.339 0.743 51 59 18
-24.5957 97.0847 5.1905 -0.136 -0.699 0.702 10 16 8
-24.4230 97.0181 5.1661 -0.145 -0.697 0.702 11 17 8
-24.2631 96.9752 5.1415 -0.176 -0.693 0.699 15 22 7
-24.0897 96.9065 5.1172 -0.176 -0.693 0.699 84 93 64
-9.0940 84.7454 3.6988 -0.420 -0.550 0.722 225 232 190
-8.7270 84.3858 3.6709 -0.420 -0.547 0.724 225 231 188
-8.5825 84.3037 3.6534 0.012 -0.548 0.837 61 68 27
-10.5409 94.3545 2.9123 0.451 -0.630 -0.632 16 36 32
-11.3133 97.9937 2.6556 0.479 -0.814 -0.328 28 58 59
-11.1667 97.9652 2.6319 0.479 -0.786 -0.391 30 64 61
-10.4511 97.4745 2.5544 -0.736 -0.676 0.035 40 78 67
-8.3537 97.6865 2.1466 0.205 -0.836 0.510 62 73 39
-1.8775 94.9051 1.2636 0.880 -0.288 0.378 84 95 52
2.5845 92.4644 0.7127 0.314 -0.237 0.919 85 94 51
3.4095 93.4577 0.4527 0.231 -0.169 0.958 82 95 51
3.5267 93.5106 0.4254 0.223 -0.168 0.960 82 95 51
5.7327 103.2156 -1.0413 0.956 -0.104 0.275 70 75 42
5.8121 103.7364 -1.1129 0.955 -0.103 0.279 51 55 30
25.7458 82.7354 -2.4692 -0.301 -0.520 0.800 45 50 27
25.8434 82.6969 -2.4828 0.169 -0.522 0.836 48 53 30
25.9424 82.6680 -2.4978 0.157 -0.526 0.836 45 50 27
26.6544 82.0167 -2.5571 -0.304 -0.186 0.934 43 46 25
27.1487 81.9210 -2.6373 -0.914 -0.267 0.306 50 54 17
27.3188 81.7421 -2.6489 -0.918 -0.364 0.155 73 77 42
27.4557 81.4003 -2.6365 0.467 -0.796 -0.385 71 75 42
27.5736 81.4845 -2.6674 0.467 -0.796 -0.385 70 74 38
28.0992 80.6052 -2.6675 -0.785 -0.220 0.580 45 49 13
28.5855 80.0933 -2.7007 0.151 -0.730 -0.667 160 162 124
28.9230 80.2753 -2.7824 -0.111 -0.892 -0.438 243 245 206
29.1651 79.6089 -2.7539 -0.908 -0.363 0.207 156 162 116
30.1196 77.9822 -2.7509 -0.012 -0.950 -0.311 86 93 43
30.1963 77.9109 -2.7571 0.276 -0.761 -0.588 88 95 43
30.6078 78.0335 -2.8460 -0.907 -0.334 0.257 106 114 58
30.6579 77.8642 -2.8366 -0.904 -0.331 0.270 100 107 53
30.8705 76.5745 -2.7345 -0.818 -0.519 -0.247 93 100 48
30.9919 76.6794 -2.7682 -0.532 -0.641 -0.553 95 102 50
31.0889 76.6953 -2.7877 -0.733 -0.570 -0.373 98 105 53
31.0265 75.1799 -2.6104 -0.146 -0.274 0.951 110 119 64
31.1138 75.1708 -2.6254 -0.262 -0.304 0.916 117 126 71
31.1932 75.1342 -2.6360 -0.265 -0.468 0.843 122 131 76
31.2683 75.0836 -2.6442 -0.269 -0.466 0.843 131 140 85
31.3340 75.0011 -2.6472 -0.275 -0.454 0.848 135 144 89
31.6227 75.3715 -2.7407 -0.253 -0.190 0.949 143 152 99
31.7038 75.3409 -2.7522 -0.259 -0.209 0.943 138 146 96
31.7860 75.3145 -2.7644 -0.161 -0.251 0.954 127 135 87
31.8639 75.2740 -2.7743 0.076 -0.336 0.939 117 124 79
31.9414 75.2327 -2.7840 0.076 -0.350 0.934 107 114 71
32.0076 75.1547 -2.7876 -0.194 -0.442 0.876 100 107 61
31.7919 74.1554 -2.6386 -0.004 -0.391 0.920 90 97 51
31.8664 74.1112 -2.6474 -0.023 -0.397 0.917 81 88 42
31.9193 73.9978 -2.6447 -0.750 -0.452 0.483 67 74 29
32.0591 73.8836 -2.6579 -0.624 -0.708 0.331 45 50 18
32.1271 73.8212 -2.6635 -0.467 -0.641 0.609 46 50 21
32.1804 73.7131 -2.6615 -0.540 -0.660 0.522 46 51 19
32.5236 74.5193 -2.8126 -0.381 -0.555 0.740 46 52 14
32.6419 74.3361 -2.8143 -0.859 -0.480 -0.176 61 68 25
32.6978 74.2357 -2.8135 -0.859 -0.480 -0.176 66 74 28
32.8565 73.3852 -2.7495 -0.776 -0.567 -0.277 78 85 42
32.9162 73.3045 -2.7516 -0.776 -0.567 -0.277 74 81 40
33.4738 71.2437 -2.6283 -0.840 -0.474 -0.263 89 100 44
-25.1616 96.7772 5.1932 -0.451 -0.547 0.705 80 90 35
-25.0037 96.7384 5.1685 -0.255 -0.547 0.797 76 87 26
-24.8631 96.7315 5.1436 0.767 -0.359 0.531 71 81 27
-24.7784 96.8278 5.1173 0.774 -0.369 0.514 49 58 17
-24.5383 96.8904 5.0663 0.106 -0.693 0.713 8 14 6
-24.3940 96.8767 5.0414 -0.110 -0.728 0.677 9 14 6
-24.2433 96.8507 5.0167 -0.141 -0.702 0.698 19 26 10
-24.0829 96.8063 4.9922 -0.135 -0.694 0.707 86 95 66
-9.0886 84.6474 3.5964 -0.539 -0.619 0.571 210 219 176
-8.9093 84.4791 3.5822 -0.593 -0.599 0.539 221 228 185
-8.7113 84.2615 3.5701 -0.551 -0.622 0.556 204 211 167
-8.5702 84.1877 3.5525 -0.393 -0.688 0.611 45 52 10
-11.3313 97.9363 2.5296 0.478 -0.813 -0.331 66 103 104
-11.3093 98.2599 2.4896 -0.219 -0.957 -0.192 64 104 102
-10.5807 96.5801 2.5429 0.192 -0.930 0.314 58 101 94
-10.4954 97.4934 2.4257 -0.727 -0.687 0.010 50 95 85
-6.2379 97.2715 1.6701 0.173 -0.948 0.265 66 90 54
-1.8648 94.7225 1.1521 0.881 -0.463 -0.094 70 81 39
5.7809 103.7534 -1.2534 0.979 -0.147 0.144 50 54 26
23.7461 81.8729 -2.1127 0.762 -0.057 0.645 100 109 58
24.2691 84.2053 -2.4679 0.424 0.014 0.906 174 183 125
25.5004 83.2246 -2.5845 -0.685 -0.233 0.690 34 40 14
25.6733 82.9968 -2.5908 -0.570 -0.269 0.777 40 45 23
25.7380 82.7536 -2.5757 -0.342 -0.525 0.779 46 51 29
25.8115 82.5690 -2.5686 0.007 -0.662 0.750 54 59 38
25.9113 82.5455 -2.5843 -0.031 -0.631 0.775 54 59 39
26.0108 82.5215 -2.5998 -0.031 -0.631 0.775 57 60 39
26.5320 81.9625 -2.6332 -0.209 -0.138 0.968 49 52 32
26.6370 81.9763 -2.6540 0.391 -0.591 0.705 56 59 38
26.7500 82.0340 -2.6811 0.386 -0.596 0.704 48 51 30
26.8535 82.0385 -2.7006 0.642 -0.584 0.496 33 35 12
26.9793 82.1637 -2.7375 -0.357 -0.558 0.749 35 38 11
27.6029 81.6802 -2.7981 -0.388 -0.279 0.878 49 53 18
28.7421 80.3916 -2.8635 0.302 -0.707 -0.639 46 47 13
28.8301 80.3407 -2.8740 0.289 -0.714 -0.638 48 52 19
28.9492 80.4286 -2.9056 -0.320 -0.899 -0.299 77 81 48
30.2304 78.0702 -2.8782 -0.058 -0.904 -0.424 158 165 112
30.3261 78.0722 -2.8959 0.228 -0.771 -0.594 129 136 83
30.4176 78.0581 -2.9111 0.030 -0.900 -0.435 107 114 61
30.4844 77.9500 -2.9113 -0.051 -0.932 -0.358 82 89 37
30.6231 77.7576 -2.9154 -0.887 -0.299 0.353 84 92 35
30.7141 77.3922 -2.8914 -0.889 -0.302 0.343 83 90 38
30.7436 77.1540 -2.8703 -0.912 -0.371 0.174 89 96 44
30.7779 76.9363 -2.8524 -0.711 -0.664 -0.231 94 101 49
30.8522 76.8677 -2.8584 -0.720 -0.614 -0.323 99 106 54
30.9371 76.8381 -2.8707 -0.737 -0.605 -0.301 100 107 55
31.1318 75.5681 -2.7651 -0.876 -0.459 -0.147 95 104 51
31.1813 75.4247 -2.7582 -0.868 -0.467 -0.171 97 106 53
31.1858 75.1274 -2.7260 -0.385 -0.504 0.773 97 106 53
31.2580 75.0665 -2.7325 -0.378 -0.509 0.773 103 112 59
31.3296 75.0043 -2.7387 -0.387 -0.552 0.738 107 116 63
31.5396 75.1080 -2.7887 -0.196 -0.119 0.973 115 124 71
31.6450 75.1606 -2.8139 -0.255 -0.201 0.946 126 134 83
31.7341 75.1578 -2.8299 -0.170 -0.263 0.950 131 139 89
31.8147 75.1270 -2.8412 -0.021 -0.405 0.914 134 142 93
31.8807 75.0483 -2.8446 0.045 -0.383 0.922 138 146 97
31.9657 75.0329 -2.8584 -0.194 -0.442 0.876 144 152 101
32.0407 74.9852 -2.8669 -0.231 -0.382 0.895 141 150 98
31.8157 73.9618 -2.7118 -0.644 -0.577 0.502 125 133 83
31.8865 73.9066 -2.7187 -0.681 -0.586 0.440 107 115 66
31.9620 73.8675 -2.7282 -0.753 -0.452 0.478 94 102 53
32.0390 73.8335 -2.7385 -0.658 -0.699 0.282 83 91 42
32.0963 73.7375 -2.7383 -0.655 -0.641 0.400 75 83 36
32.4381 74.5434 -2.8906 -0.307 -0.541 0.783 64 70 30
32.5158 74.5089 -2.9010 -0.305 -0.536 0.787 56 63 20
32.5769 74.4226 -2.9026 -0.422 -0.498 0.757 49 56 14
32.6220 74.2873 -2.8958 -0.489 -0.506 0.711 49 56 14
32.4282 73.4128 -2.7630 -0.476 -0.380 0.793 50 57 15
32.5596 73.0196 -2.7434 -0.889 -0.446 -0.105 58 65 26
32.9555 73.4341 -2.8620 -0.823 -0.489 -0.291 76 82 43
33.0214 73.3721 -2.8672 -0.825 -0.486 -0.289 76 82 45
33.0758 73.2763 -2.8665 -0.825 -0.487 -0.287 73 79 42
32.7860 72.1618 -2.6895 -0.763 -0.504 -0.405 71 78 37
32.8336 72.0527 -2.6861 -0.681 -0.541 -0.493 66 75 30
32.8655 71.8990 -2.6748 -0.711 -0.554 -0.434 55 65 17
32.8939 71.7366 -2.6620 -0.768 -0.525 -0.367 59 69 17
33.2163 72.4300 -2.7982 -0.659 -0.513 -0.550 74 84 31
33.2378 72.2467 -2.7817 -0.593 -0.568 -0.571 92 102 49
33.2695 72.0945 -2.7706 -0.729 -0.552 -0.405 111 121 68
33.3012 71.9438 -2.7597 -0.879 -0.409 -0.246 116 126 73
33.3464 71.8333 -2.7557 -0.877 -0.410 -0.249 115 125 72
33.3939 71.7301 -2.7529 -0.877 -0.410 -0.249 108 119 64
33.4368 71.6152 -2.7480 -0.875 -0.413 -0.253 100 111 55
33.4717 71.4789 -2.7392 -0.738 -0.505 -0.447 96 107 51
-24.5178 96.7652 4.9417 0.106 -0.693 0.713 7 12 5
-24.3540 96.7148 4.9174 -0.062 -0.723 0.688 7 12 6
-24.2033 96.6885 4.8927 -0.074 -0.728 0.681 21 28 13
-24.0520 96.6609 4.8681 -0.152 -0.704 0.694 88 97 70
-9.3847 84.4556 3.5600 -0.771 -0.518 0.370 89 100 58
-9.2514 84.6883 3.5093 -0.466 -0.667 0.581 180 188 147
-8.9044 84.3824 3.4802 -0.593 -0.599 0.539 227 234 192
-8.5834 84.1375 3.4491 -0.359 -0.827 0.433 44 50 10
-11.2371 97.9476 2.3753 0.371 -0.871 -0.321 49 94 92
-10.5795 96.4700 2.4217 0.127 -0.941 0.312 53 101 96
-9.9933 97.9023 2.1526 0.931 -0.313 -0.186 74 110 95
-9.5348 98.1638 2.0390 0.725 -0.368 0.582 74 100 67
-6.3415 97.9720 1.4757 0.050 -0.767 0.639 69 90 53
-5.9142 97.4285 1.4589 -0.105 -0.882 0.459 90 105 63
-2.2285 92.9626 1.2882 0.925 -0.335 -0.180 98 111 58
-1.9016 94.7443 1.0270 0.879 -0.466 -0.098 65 75 38
-1.5807 95.0293 0.9360 -0.316 -0.751 -0.580 82 93 53
-1.4292 94.9374 0.9187 -0.289 -0.759 -0.583 88 100 54
-1.1346 94.7854 0.8819 -0.140 -0.732 -0.666 95 107 61
-1.0901 95.1549 0.8320 0.769 -0.545 0.333 94 106 60
4.2815 93.9775 -0.0190 0.390 -0.274 0.879 85 97 59
5.7375 102.7081 -1.2719 0.984 -0.019 0.178 63 69 34
5.7729 103.5806 -1.3770 0.975 -0.144 0.171 48 53 23
6.0033 104.0575 -1.4730 -0.563 -0.546 0.621 123 126 105
25.4660 83.0774 -2.6685 -0.685 -0.233 0.690 115 121 92
25.7809 83.0827 -2.7267 0.322 -0.560 0.763 61 66 41
25.9980 83.1300 -2.7719 0.350 -0.564 0.748 35 41 19
26.6241 81.9607 -2.7545 0.319 -0.619 0.718 56 58 34
26.7180 81.9128 -2.7662 0.386 -0.596 0.704 55 57 34
26.8256 81.9410 -2.7892 0.651 -0.576 0.494 54 56 32
27.5933 81.6791 -2.9002 0.315 -0.363 0.877 56 59 30
28.0834 81.0959 -2.9241 -0.788 -0.250 0.562 60 65 27
28.8799 80.6013 -3.0142 -0.831 -0.473 0.292 99 100 69
30.2436 78.1482 -2.9869 -0.013 -0.903 -0.430 133 140 85
30.3526 78.2007 -3.0128 0.233 -0.775 -0.587 165 173 116
30.4182 78.0861 -3.0118 0.028 -0.901 -0.433 193 201 143
30.4953 78.0172 -3.0182 -0.051 -0.925 -0.376 204 212 156
30.6509 77.8868 -3.0320 -0.906 -0.422 -0.024 160 168 111
30.5340 76.7447 -2.8815 -0.893 -0.447 0.044 105 112 58
30.5813 76.5760 -2.8711 -0.893 -0.448 0.049 88 95 43
30.6190 76.3744 -2.8553 -0.895 -0.439 0.084 80 87 35
30.8320 76.8160 -2.9442 -0.350 -0.613 -0.708 71 78 26
30.9642 76.9586 -2.9845 -0.329 -0.620 -0.712 70 77 25
31.0512 76.9365 -2.9979 -0.574 -0.599 -0.559 83 90 38
31.1355 76.9048 -3.0098 -0.750 -0.556 -0.357 89 96 44
31.2048 76.8199 -3.0129 -0.911 -0.409 0.045 91 98 46
31.2576 76.0285 -2.9332 -0.888 -0.446 -0.110 90 99 46
31.1583 75.3639 -2.8399 -0.854 -0.484 -0.192 88 97 45
31.2169 75.2538 -2.8382 -0.870 -0.471 -0.146 87 95 44
31.9568 75.0199 -2.9473 0.149 -0.440 0.886 123 131 80
32.0142 74.9141 -2.9459 -0.264 -0.432 0.862 127 135 84
32.0174 73.7790 -2.8183 -0.414 -0.621 0.666 134 145 80
32.0789 73.6961 -2.8202 -0.388 -0.604 0.696 128 139 75
32.1494 73.6428 -2.8271 -0.388 -0.604 0.696 119 128 74
32.2197 73.5896 -2.8339 -0.388 -0.604 0.696 114 122 73
32.2868 73.5267 -2.8391 -0.463 -0.429 0.776 94 102 55
32.3381 73.4156 -2.8360 -0.472 -0.379 0.796 84 91 48
32.3913 73.3111 -2.8339 -0.476 -0.380 0.793 69 76 35
32.4341 73.1760 -2.8265 -0.599 -0.523 0.606 58 64 27
32.4962 73.1014 -2.8294 -0.599 -0.523 0.606 49 55 19
32.5484 72.9974 -2.8272 -0.880 -0.457 -0.127 51 57 21
32.6394 72.7524 -2.8163 -0.862 -0.458 -0.216 60 66 28
32.9908 73.5520 -2.9709 -0.824 -0.487 -0.291 57 63 27
33.0507 73.4710 -2.9728 -0.823 -0.486 -0.294 54 60 25
33.0946 73.3435 -2.9664 -0.829 -0.483 -0.282 60 66 32
32.8466 72.1016 -2.7807 -0.694 -0.550 -0.464 65 72 31
32.8940 71.9930 -2.7771 -0.723 -0.548 -0.420 73 82 37
32.9327 71.8601 -2.7692 -0.761 -0.507 -0.404 77 87 37
33.2554 72.5536 -2.9066 -0.602 -0.521 -0.605 73 83 32
33.3041 72.4483 -2.9037 -0.599 -0.521 -0.607 65 75 24
33.3048 72.2056 -2.8764 -0.666 -0.551 -0.503 61 71 20
33.5013 71.5703 -2.8406 -0.713 -0.512 -0.479 122 133 79
33.5378 71.4392 -2.8325 -0.653 -0.509 -0.561 115 125 73
33.6198 71.2055 -2.8211 -0.832 -0.446 -0.331 104 115 61
33.2481 69.9520 -2.6114 -0.901 -0.412 -0.135 91 101 48
33.2481 69.7305 -2.5864 -0.872 -0.448 -0.199 87 97 46
33.2153 69.4216 -2.5455 -0.897 -0.424 -0.125 79 89 38
33.2128 69.1978 -2.5198 -0.873 -0.428 -0.233 75 86 31
33.3066 68.6008 -2.4695 -0.922 -0.377 -0.086 121 132 74
33.3410 68.4839 -2.4626 -0.881 -0.432 -0.193 134 145 87
-27.6565 94.1376 5.6828 -0.724 -0.690 -0.014 86 96 44
-25.9681 96.0918 5.1495 -0.472 -0.301 0.829 79 89 39
-24.3462 96.3593 4.8218 0.623 -0.277 0.731 13 18 14
-24.3038 96.5342 4.7940 0.018 -0.650 0.759 6 11 6
-24.1608 96.5219 4.7692 0.028 -0.644 0.764 20 26 14
-23.9806 96.4397 4.7457 -0.281 -0.584 0.761 82 91 65
-9.0817 84.4617 3.3917 -0.514 -0.672 0.533 206 214 173
-8.8995 84.2860 3.3784 -0.593 -0.599 0.539 231 240 197
-8.7152 84.1034 3.3656 -0.582 -0.634 0.509 170 179 135
-8.6074 84.1148 3.3446 -0.465 -0.784 0.410 41 49 11
-10.7509 96.0937 2.3630 0.493 -0.847 -0.200 78 124 120
-10.6764 98.1908 2.1088 0.656 -0.400 0.641 54 100 97
-10.4509 98.3323 2.0513 0.694 -0.307 0.651 59 106 101
-9.7096 98.5782 1.8873 0.456 -0.307 0.835 74 100 67
-9.9575 99.7467 1.7987 0.229 -0.182 0.956 76 101 63
-9.9378 100.1121 1.7531 0.756 -0.323 0.570 75 95 57
-6.0300 96.3207 1.4725 0.687 -0.217 0.694 69 91 55
-1.9615 94.8615 0.8950 0.942 -0.278 -0.186 69 79 44
-1.1966 94.9187 0.7484 -0.140 -0.732 -0.666 85 96 53
-1.0457 94.8266 0.7313 -0.310 -0.767 -0.562 91 102 59
-0.4934 94.0980 0.7138 -0.650 -0.539 -0.536 97 108 66
-0.1581 93.7414 0.6933 -0.279 -0.767 0.578 92 104 59
4.3002 93.6888 -0.1170 0.294 -0.246 0.924 85 97 59
5.7534 102.3483 -1.3764 0.979 -0.014 0.202 59 65 30
5.7757 103.3207 -1.4920 0.953 -0.178 0.244 54 59 27
5.9130 103.3684 -1.5227 0.112 -0.475 0.873 63 67 38
5.9900 103.9250 -1.6006 -0.562 -0.551 0.617 124 128 102
25.4691 83.1672 -2.7861 -0.684 -0.191 0.704 144 151 116
26.3046 82.5444 -2.8676 -0.652 -0.293 0.699 90 95 67
27.3483 81.5160 -2.9408 0.026 -0.187 0.982 57 59 37
28.8675 80.5827 -3.1119 -0.830 -0.478 0.286 58 59 27
28.9118 80.3355 -3.0916 -0.840 -0.417 0.348 70 71 39
30.5298 78.1742 -3.1400 0.027 -0.929 -0.368 89 97 42
30.6199 78.1542 -3.1542 -0.906 -0.422 -0.032 99 106 53
30.8884 77.0447 -3.0761 -0.349 -0.616 -0.706 135 142 89
30.9949 77.0921 -3.1010 -0.336 -0.621 -0.708 119 126 72
31.0686 77.0210 -3.1064 -0.574 -0.599 -0.559 94 103 50
31.1344 76.9219 -3.1070 -0.750 -0.553 -0.363 75 84 31
31.2010 76.8272 -3.1084 -0.915 -0.396 0.082 66 75 22
31.2436 76.6489 -3.0957 -0.918 -0.384 0.098 71 80 27
31.0851 75.4434 -2.9284 -0.816 -0.505 -0.281 77 85 34
31.3134 75.9237 -3.0253 -0.767 -0.560 -0.312 81 89 40
31.3734 75.8148 -3.0238 -0.760 -0.566 -0.321 84 92 43
31.4344 75.7109 -3.0230 -0.757 -0.569 -0.321 87 95 46
31.5912 75.6254 -3.0419 -0.771 -0.552 -0.318 87 95 45
32.0065 74.9048 -3.0353 -0.294 -0.397 0.869 101 110 56
31.7667 73.8327 -2.8684 -0.360 -0.550 0.754 104 113 59
31.9461 73.8457 -2.9028 -0.673 -0.581 0.457 110 120 59
31.9930 73.7152 -2.8964 -0.407 -0.606 0.683 124 135 66
32.0633 73.6606 -2.9030 -0.407 -0.606 0.683 130 141 72
32.1334 73.6060 -2.9096 -0.407 -0.606 0.683 138 148 88
32.2032 73.5512 -2.9161 -0.389 -0.577 0.718 143 152 99
32.2598 73.4554 -2.9154 -0.455 -0.472 0.755 135 143 93
32.3112 73.3447 -2.9122 -0.447 -0.397 0.801 126 134 89
32.3735 73.2689 -2.9149 -0.447 -0.397 0.801 112 119 77
32.5219 72.9286 -2.9030 -0.769 -0.556 -0.317 81 88 49
32.5811 72.8475 -2.9045 -0.769 -0.556 -0.317 70 77 37
32.6327 72.7439 -2.9021 -0.820 -0.524 -0.230 59 65 26
32.8914 72.2443 -2.8922 -0.879 -0.435 -0.195 61 68 28
32.9210 72.0826 -2.8790 -0.880 -0.435 -0.192 68 75 33
32.9568 71.9404 -2.8693 -0.883 -0.429 -0.188 66 75 31
33.3054 72.7089 -3.0213 -0.605 -0.519 -0.605 69 76 33
33.5543 71.4937 -2.9274 -0.662 -0.506 -0.553 83 92 47
33.5983 71.3843 -2.9229 -0.661 -0.507 -0.553 100 109 63
33.6248 71.2273 -2.9098 -0.856 -0.437 -0.276 109 118 71
33.2199 69.8817 -2.6813 -0.906 -0.407 -0.116 112 121 76
33.2524 69.7498 -2.6721 -0.869 -0.450 -0.206 111 120 76
33.2507 69.5256 -2.6461 -0.898 -0.426 -0.113 106 115 70
33.2153 69.2116 -2.6036 -0.875 -0.429 -0.223 100 110 62
33.3270 68.6613 -2.5609 -0.856 -0.430 -0.287 79 90 34
33.3635 68.5498 -2.5548 -0.843 -0.440 -0.311 79 90 34
33.4079 68.4601 -2.5527 -0.845 -0.438 -0.306 89 100 44
33.4319 68.3176 -2.5407 -0.853 -0.442 -0.279 107 118 62
34.0944 69.4341 -2.7901 -0.932 -0.344 -0.113 140 152 91
34.0832 69.1988 -2.7610 -0.942 -0.327 -0.076 139 151 89
34.0965 69.0284 -2.7439 -0.942 -0.331 -0.061 139 151 89
-27.8728 94.6408 5.5330 -0.623 -0.640 -0.451 83 93 41
-29.1554 98.4285 5.3265 0.284 0.013 0.959 77 86 39
-24.0981 94.0927 4.9059 0.675 0.128 0.727 79 93 35
-23.8888 94.6805 4.7992 0.564 0.077 0.822 60 71 33
-24.2569 96.3600 4.6709 0.067 -0.594 0.802 7 12 7
-24.1228 96.3640 4.6459 0.077 -0.591 0.803 24 29 19
-23.8443 96.0968 4.6261 -0.485 -0.535 0.692 82 90 66
-8.6273 84.0816 3.2405 -0.472 -0.781 0.409 43 51 14
-11.1587 97.5111 2.1397 -0.139 -0.813 -0.566 81 127 120
-10.8476 98.1793 2.0050 0.681 -0.382 0.625 64 107 100
-10.7985 98.4331 1.9664 0.606 -0.393 0.692 59 102 97
-10.6220 98.3200 1.9473 0.300 -0.317 0.900 61 105 99
-10.3959 98.8674 1.8421 0.308 -0.332 0.892 74 108 97
-10.4877 99.5488 1.7796 -0.106 -0.591 -0.799 76 106 91
-9.4782 97.3604 1.8497 0.030 -0.618 -0.785 71 101 75
-9.8474 98.8799 1.7403 0.484 -0.294 0.824 73 100 67
-9.9320 99.9783 1.6279 0.802 -0.545 0.244 74 96 57
-9.6785 99.6312 1.6219 -0.128 -0.961 -0.243 66 84 46
-2.2095 93.1416 1.0108 0.958 -0.251 -0.137 102 114 65
-2.1724 93.5009 0.9621 0.958 -0.252 -0.137 91 102 60
-2.1178 93.7945 0.9180 0.961 -0.246 -0.128 91 102 60
-1.9751 95.3254 0.7135 -0.288 -0.757 -0.587 69 78 46
-1.8440 95.3233 0.6898 -0.264 -0.757 -0.597 64 74 40
-1.7060 95.2922 0.6681 -0.264 -0.757 -0.597 59 69 33
-1.5668 95.2556 0.6469 -0.251 -0.761 -0.599 61 72 31
-1.4313 95.2341 0.6247 -0.295 -0.759 -0.580 65 76 34
-0.6121 93.9217 0.6276 -0.550 -0.556 -0.623 88 99 57
-0.4534 93.7855 0.6144 -0.548 -0.557 -0.624 92 103 61
5.3364 100.9952 -1.2849 -0.789 -0.228 0.571 228 234 191
5.7704 103.1270 -1.6126 0.953 -0.178 0.244 57 63 30
5.9148 103.1148 -1.6376 0.123 -0.507 0.853 58 63 33
5.9764 103.7950 -1.7281 -0.563 -0.546 0.621 142 146 119
26.2818 82.4733 -2.9611 -0.647 -0.326 0.689 93 99 61
27.2961 81.8240 -3.0711 -0.429 -0.876 0.218 54 56 31
27.3890 81.7756 -3.0825 -0.429 -0.876 0.218 51 55 29
27.7631 81.0984 -3.0721 0.378 -0.187 0.907 52 55 29
28.7582 81.0344 -3.2467 -0.734 -0.100 0.672 48 50 18
28.7994 80.7647 -3.2228 -0.736 -0.102 0.669 50 52 20
29.3996 79.4881 -3.1840 -0.198 -0.971 -0.134 80 86 52
29.4980 79.4902 -3.2023 -0.184 -0.972 -0.145 81 87 53
29.8083 79.5586 -3.2670 -0.440 -0.479 0.760 78 84 48
29.8066 79.1513 -3.2193 -0.734 -0.679 -0.007 69 75 39
30.5699 78.3529 -3.2660 -0.897 -0.436 -0.069 186 193 148
30.6170 78.1680 -3.2531 -0.906 -0.422 -0.032 186 192 145
31.1445 76.9795 -3.2112 -0.503 -0.635 -0.586 170 179 126
31.6229 75.7512 -3.1557 -0.731 -0.577 -0.364 80 88 40
31.9371 73.8316 -2.9896 -0.668 -0.593 0.450 88 98 39
31.9635 73.6352 -2.9716 -0.294 -0.522 0.801 90 99 39
32.0234 73.5476 -2.9723 -0.290 -0.526 0.800 97 107 47
32.1000 73.5143 -2.9825 -0.310 -0.509 0.803 107 117 60
32.1681 73.4541 -2.9879 -0.378 -0.449 0.810 114 123 68
32.2326 73.3838 -2.9916 -0.453 -0.380 0.807 126 134 82
32.2812 73.2643 -2.9865 -0.454 -0.378 0.807 130 138 89
32.6045 72.9305 -3.0068 -0.772 -0.554 -0.313 117 124 78
33.2470 73.0497 -3.1383 -0.865 -0.450 -0.222 54 61 19
33.2952 72.9392 -3.1343 -0.854 -0.462 -0.239 52 59 17
33.5294 72.1413 -3.0842 -0.763 -0.488 -0.425 63 71 34
33.5702 71.7812 -3.0497 -0.631 -0.513 -0.581 69 76 40
33.5951 71.6162 -3.0350 -0.656 -0.508 -0.559 60 68 29
33.6300 71.4805 -3.0256 -0.666 -0.506 -0.547 54 63 21
33.6570 71.3244 -3.0124 -0.741 -0.503 -0.446 56 65 23
33.6591 71.1011 -2.9868 -0.848 -0.445 -0.289 69 77 37
33.2653 69.7926 -2.7623 -0.863 -0.453 -0.224 79 87 47
33.7160 70.8046 -2.9626 -0.859 -0.436 -0.268 100 108 67
33.7509 70.6760 -2.9541 -0.769 -0.479 -0.424 118 127 83
33.3369 68.6941 -2.6475 -0.871 -0.432 -0.232 91 100 47
34.1653 68.6049 -2.7887 -0.887 -0.410 -0.212 141 153 91
34.1800 68.4439 -2.7726 -0.852 -0.434 -0.292 140 152 90
-21.2224 81.0958 5.7859 -0.022 -0.138 0.990 83 91 52
-27.3231 93.8639 5.3924 -0.325 -0.672 -0.665 81 91 39
-28.5827 97.3664 5.2087 0.260 0.024 0.965 75 84 37
-24.3633 95.9666 4.6023 0.647 -0.258 0.718 10 17 1
-24.2497 96.2601 4.5469 0.047 -0.594 0.803 10 15 9
-24.0925 96.2207 4.5228 -0.323 -0.588 0.742 32 38 25
-23.8791 96.0756 4.5009 -0.323 -0.588 0.742 84 93 67
-23.6522 95.9043 4.4796 -0.311 -0.564 0.765 88 98 60
-9.9545 85.0535 3.2567 -0.469 -0.515 0.717 88 99 56
-8.6428 84.0371 3.1369 -0.455 -0.783 0.423 54 64 28
-8.4603 83.8571 3.1248 0.827 -0.541 0.153 71 81 47
-11.4710 99.0612 1.8781 -0.006 -0.874 0.487 84 122 116
-11.3652 99.1554 1.8476 0.724 -0.626 0.292 83 123 115
-10.7729 97.8552 1.8929 0.644 -0.352 0.679 82 122 114
-10.4113 98.3958 1.7629 0.582 -0.602 0.547 77 115 107
-9.8104 99.4929 1.5233 -0.158 -0.684 -0.712 71 93 54
-2.1969 93.4733 0.8422 0.958 -0.252 -0.137 88 101 56
-2.1104 95.7538 0.5567 -0.448 -0.727 -0.521 70 82 46
-1.9704 95.7182 0.5353 -0.445 -0.729 -0.520 65 77 40
-1.8049 95.5750 0.5220 -0.408 -0.772 -0.487 66 78 39
-1.6509 95.4782 0.5053 -0.403 -0.772 -0.492 66 77 35
-1.5025 95.4038 0.4869 -0.371 -0.786 -0.495 61 72 32
5.3607 100.5937 -1.3821 -0.803 -0.246 0.542 227 233 191
5.7874 102.7541 -1.7156 0.958 -0.149 0.246 53 58 26
5.8997 103.0010 -1.7653 0.166 -0.527 0.834 59 64 34
5.9988 103.3652 -1.8265 0.274 -0.611 0.743 172 176 149
6.1576 104.4655 -1.9857 0.959 -0.197 0.203 150 156 124
25.7690 83.8637 -3.1375 -0.696 -0.245 0.675 98 108 56
25.8185 83.5152 -3.1054 -0.700 -0.336 0.630 97 107 54
25.7879 82.6870 -3.0019 0.244 -0.460 0.854 100 110 57
26.1605 83.0426 -3.1121 0.544 -0.251 0.800 122 131 85
26.2997 83.2444 -3.1614 0.502 -0.235 0.833 146 155 111
26.2907 82.5847 -3.0818 -0.571 -0.394 0.720 92 101 59
27.2811 81.7960 -3.1697 -0.294 -0.840 -0.456 102 107 76
27.4671 81.7005 -3.1924 -0.185 -0.961 -0.207 96 102 70
27.3430 79.5505 -2.9156 0.626 -0.090 0.775 82 89 50
27.8689 81.1663 -3.2028 0.683 -0.718 -0.133 57 61 30
28.1332 80.9793 -3.2290 0.703 -0.709 0.046 29 33 8
29.1797 79.4185 -3.2359 -0.791 -0.317 0.523 28 34 3
29.7859 79.4972 -3.3561 -0.446 -0.472 0.760 67 74 40
29.8574 79.3890 -3.3564 -0.727 -0.685 -0.058 71 78 44
30.3279 78.5568 -3.3441 -0.038 -0.861 -0.507 47 53 19
30.4596 78.6945 -3.3845 -0.021 -0.866 -0.499 35 41 9
30.6235 78.2177 -3.3581 -0.908 -0.416 0.052 61 67 29
30.3800 76.9372 -3.1622 -0.040 -0.914 -0.404 87 93 55
32.0041 74.9289 -3.2218 -0.761 -0.580 -0.289 82 91 35
32.0621 74.8259 -3.2203 -0.790 -0.551 -0.268 81 90 34
32.1383 74.7827 -3.2291 -0.867 -0.496 -0.056 88 97 40
32.2636 74.6116 -3.2318 -0.904 -0.415 0.101 86 94 43
32.3711 74.3879 -3.2250 -0.904 -0.416 0.098 88 97 42
32.2160 73.6190 -3.1057 -0.903 -0.382 0.196 89 98 43
32.2502 73.1808 -3.0602 -0.462 -0.377 0.803 104 113 60
32.3197 73.1277 -3.0666 -0.468 -0.468 0.750 107 116 64
32.5489 73.0355 -3.0976 -0.772 -0.553 -0.314 128 137 84
32.6139 72.9710 -3.1019 -0.772 -0.554 -0.313 129 138 84
33.4168 72.8035 -3.2290 -0.854 -0.505 0.127 58 64 23
33.5248 72.1373 -3.1700 -0.772 -0.485 -0.412 54 62 22
33.7028 71.4592 -3.1224 -0.744 -0.502 -0.442 73 81 40
33.7566 70.9230 -3.0688 -0.954 -0.268 0.134 56 64 24
33.7805 70.7637 -3.0544 -0.856 -0.429 -0.290 52 61 16
33.3405 68.7099 -2.7311 -0.865 -0.436 -0.246 111 120 67
34.1006 69.4611 -2.9589 -0.931 -0.346 -0.119 80 91 33
34.3819 67.2267 -2.7462 -0.936 -0.278 0.215 143 154 96
-27.8776 95.3898 5.1801 0.618 -0.784 -0.066 78 88 36
-27.8712 95.6080 5.1527 0.653 -0.756 -0.037 79 89 37
-27.7919 95.7037 5.1267 0.206 -0.050 0.977 79 89 39
-27.5835 95.5802 5.1034 0.190 -0.053 0.980 70 79 32
-21.2976 87.1219 4.9690 0.889 -0.097 0.447 81 91 39
-24.1696 95.2746 4.5159 0.709 -0.531 0.463 32 40 17
-24.3369 95.8320 4.4796 0.618 -0.253 0.744 17 24 7
-23.6069 95.7328 4.3580 0.205 -0.586 0.784 88 99 57
-11.5467 99.1653 1.7410 0.112 -0.840 0.530 88 124 115
-11.3758 99.0748 1.7206 0.763 -0.622 0.174 86 125 116
-10.5898 98.4041 1.6574 -0.076 -0.620 -0.781 82 119 111
-10.4140 98.2927 1.6386 -0.369 -0.575 -0.730 80 116 108
-9.5747 98.6622 1.4408 -0.049 -0.678 -0.733 69 91 52
-2.0693 95.9973 0.3882 -0.451 -0.823 -0.344 77 89 50
-1.3614 94.6691 0.4181 -0.573 -0.721 -0.390 66 77 37
4.0785 93.7678 -0.4684 -0.637 -0.467 0.613 87 99 60
5.6104 101.6778 -1.6976 0.989 0.015 0.146 79 84 52
5.8150 102.2970 -1.8093 0.952 -0.125 0.279 54 59 28
5.9018 102.7461 -1.8790 -0.234 -0.666 0.708 62 66 38
5.9885 103.2097 -1.9505 0.274 -0.611 0.743 186 190 163
6.1234 104.5083 -2.1310 0.974 -0.107 0.200 176 181 149
30.1398 78.6017 -3.4139 -0.802 -0.595 -0.053 62 69 35
30.1973 78.4488 -3.4061 -0.779 -0.627 -0.013 71 78 44
30.5747 78.7925 -3.5163 -0.198 -0.978 -0.060 70 76 46
30.3855 76.9821 -3.2645 -0.040 -0.914 -0.404 61 66 36
30.4827 76.9959 -3.2839 -0.049 -0.915 -0.399 49 54 22
31.2318 77.3363 -3.4617 -0.532 -0.603 -0.594 164 172 124
31.4314 74.8294 -3.1974 -0.155 -0.719 -0.678 141 149 102
31.4943 74.7393 -3.1981 0.068 -0.647 -0.759 127 135 85
31.5950 74.7768 -3.2210 0.065 -0.646 -0.760 110 119 66
31.6722 74.7360 -3.2303 -0.816 -0.527 -0.236 90 99 44
32.1945 74.6911 -3.3204 -0.885 -0.426 -0.186 84 92 40
32.4105 74.2465 -3.3065 -0.874 -0.444 -0.197 82 91 38
32.6128 74.0509 -3.3200 -0.719 -0.573 -0.393 84 93 38
33.0587 73.5409 -3.3404 -0.861 -0.486 0.151 124 134 73
33.4676 72.7128 -3.3158 -0.857 -0.500 0.122 87 96 43
33.6505 72.0240 -3.2666 -0.942 -0.212 0.258 51 60 16
33.9028 70.4373 -3.1223 -0.757 -0.451 -0.473 68 76 25
33.3612 68.7716 -2.8234 -0.845 -0.438 -0.305 78 86 36
33.4063 68.6820 -2.8209 -0.844 -0.440 -0.307 95 103 53
33.4359 68.5521 -2.8108 -0.844 -0.438 -0.310 101 109 59
34.1053 69.4788 -3.0444 -0.928 -0.350 -0.129 104 115 59
34.1052 69.2714 -3.0195 -0.940 -0.331 -0.087 98 109 54
34.1180 69.0991 -3.0011 -0.925 -0.361 -0.117 91 102 47
34.1907 68.6791 -2.9640 -0.887 -0.411 -0.212 88 99 43
34.2104 68.5299 -2.9497 -0.853 -0.433 -0.290 104 115 60
34.2166 68.3478 -2.9290 -0.921 -0.387 0.048 121 132 76
34.2673 68.2796 -2.9301 -0.921 -0.382 0.075 137 148 90
-27.4937 94.4355 5.0926 0.221 -0.206 0.953 76 86 34
-26.8803 93.8505 5.0517 0.083 -0.118 0.990 76 86 33
-23.9331 95.0013 4.3729 0.628 0.056 0.776 7 13 0
-23.8495 95.0946 4.3463 0.339 -0.411 0.846 11 16 10
-23.6701 95.2605 4.2933 0.369 -0.562 0.740 44 52 32
-23.6506 95.7286 4.2328 0.374 -0.653 0.658 82 94 48
-9.3261 83.6180 3.0892 -0.152 -0.544 0.825 98 109 69
-11.3296 98.8329 1.6030 0.814 -0.576 0.076 87 124 116
-10.7205 97.8786 1.6079 0.596 -0.408 0.692 85 125 114
-10.8450 98.6334 1.5387 -0.090 -0.622 -0.778 83 123 114
-10.2520 98.5135 1.4450 -0.255 -0.586 -0.769 83 111 98
-9.8419 98.5231 1.3688 -0.055 -0.650 -0.758 81 107 67
-9.5515 98.4780 1.3213 -0.105 -0.619 -0.778 70 91 53
-9.7204 99.8387 1.1865 -0.199 -0.925 -0.323 63 80 44
-2.4379 96.2935 0.2871 0.847 -0.395 0.355 81 96 53
-2.0252 95.1385 0.3523 -0.153 -0.973 0.175 80 93 50
-1.8969 95.1481 0.3277 -0.248 -0.968 0.038 77 90 47
-1.7554 95.1021 0.3074 -0.202 -0.979 0.020 75 88 45
-1.4505 94.9151 0.2745 -0.649 -0.737 -0.187 71 81 43
0.3532 94.3752 0.0106 -0.728 -0.570 -0.379 89 104 65
0.5284 94.1550 0.0054 -0.728 -0.570 -0.379 89 101 63
5.6118 101.4417 -1.8108 0.989 0.016 0.148 74 80 53
5.9162 102.3926 -1.9822 -0.384 -0.672 0.633 64 69 44
5.9958 102.9089 -2.0596 0.284 -0.654 0.701 185 191 165
6.1047 104.4186 -2.2633 0.973 -0.104 0.207 179 186 153
28.5870 80.8283 -3.5002 -0.731 -0.124 0.672 169 177 140
28.6249 80.5418 -3.4722 -0.739 -0.100 0.666 98 106 68
30.3755 78.7965 -3.5797 -0.069 -0.993 0.095 50 54 30
30.4844 78.8438 -3.6053 -0.148 -0.987 0.064 58 62 38
30.5561 78.7469 -3.6067 -0.267 -0.955 -0.128 59 63 40
30.3934 77.7538 -3.4560 -0.357 -0.925 -0.131 60 64 41
30.4004 77.4195 -3.4166 -0.260 -0.911 -0.319 66 70 48
30.4893 77.3989 -3.4303 -0.260 -0.911 -0.319 75 79 55
30.5781 77.3783 -3.4441 -0.260 -0.911 -0.319 79 84 56
31.2648 77.4764 -3.5815 -0.725 -0.580 -0.371 32 39 8
31.2057 76.2688 -3.4237 -0.820 -0.504 -0.273 117 125 87
31.3597 75.2164 -3.3237 -0.808 -0.502 -0.308 108 115 75
31.7160 74.8986 -3.3501 -0.619 -0.625 -0.476 142 150 98
32.2026 74.7321 -3.4188 -0.877 -0.441 -0.191 77 86 33
32.2479 74.5910 -3.4099 -0.885 -0.427 -0.183 74 83 29
32.3000 74.4729 -3.4050 -0.885 -0.427 -0.185 75 84 31
32.1354 73.6686 -3.2770 -0.821 -0.491 -0.291 77 85 33
32.1712 73.5054 -3.2637 -0.823 -0.488 -0.290 79 87 35
32.4573 74.1295 -3.3920 -0.856 -0.498 -0.141 82 91 38
32.6808 72.9364 -3.2876 -0.835 -0.533 -0.139 84 93 37
33.8262 70.9024 -3.2492 -0.909 -0.404 -0.097 58 67 22
34.0201 70.3217 -3.2140 -0.928 -0.367 -0.071 59 66 21
34.0240 70.1164 -3.1897 -0.938 -0.343 0.056 63 71 25
34.0896 69.6522 -3.1452 -0.935 -0.345 -0.086 105 113 65
34.1083 69.2847 -3.1039 -0.940 -0.331 -0.087 111 121 68
34.1223 69.1154 -3.0858 -0.925 -0.361 -0.117 108 118 65
34.1892 68.6798 -3.0450 -0.924 -0.375 0.079 89 99 46
34.2167 68.5504 -3.0343 -0.922 -0.378 0.084 93 103 51
34.2180 68.3559 -3.0108 -0.921 -0.386 0.047 96 106 54
34.2751 68.3034 -3.0149 -0.922 -0.381 0.071 98 109 54
34.3092 68.1938 -3.0078 -0.922 -0.379 0.078 110 121 65
34.3339 68.0616 -2.9962 -0.932 -0.307 0.191 126 137 79
34.3240 67.8446 -2.9680 -0.936 -0.313 0.161 137 148 90
-25.7334 90.7607 5.0929 -0.379 -0.853 -0.358 70 80 27
-23.5780 94.7548 4.2059 0.486 -0.238 0.841 2 8 2
-23.5909 95.5304 4.1124 0.555 -0.552 0.622 84 95 49
-10.1002 85.1599 2.9289 -0.780 -0.467 0.416 94 105 62
-9.5092 98.2364 1.2058 -0.055 -0.677 -0.734 71 92 53
-9.3778 98.2542 1.1796 -0.055 -0.677 -0.734 65 82 46
-7.5497 100.4121 0.5791 -0.038 -0.310 0.950 71 85 52
-5.1438 93.5968 0.9814 0.782 -0.387 0.488 89 101 62
-2.2884 96.0914 0.1517 0.522 -0.853 -0.011 78 93 52
-1.9295 95.1514 0.2022 -0.248 -0.968 0.038 75 90 49
-1.8055 95.1792 0.1761 -0.188 -0.982 -0.036 80 92 52
-1.6406 95.0353 0.1638 0.217 -0.973 -0.077 80 91 49
-1.4590 94.8180 0.1574 -0.005 -0.941 0.338 76 87 46
-0.6494 94.1130 0.0966 0.519 -0.685 0.511 63 75 35
0.2085 94.9146 -0.1591 -0.195 -0.448 0.873 89 101 63
0.4065 94.5912 -0.1553 -0.310 -0.693 0.651 88 100 62
0.6224 94.1769 -0.1436 -0.344 -0.902 -0.260 88 99 59
0.7638 94.1150 -0.1618 -0.324 -0.920 -0.222 88 99 59
4.1870 94.3374 -0.8146 0.558 -0.751 0.353 78 89 54
4.1598 96.1551 -1.0341 -0.167 -0.242 0.956 49 60 30
3.2384 104.8818 -1.9437 -0.819 -0.504 0.275 152 160 123
5.3999 99.6547 -1.6929 -0.726 -0.293 0.623 194 203 160
5.5551 99.5177 -1.7043 -0.493 -0.398 0.774 73 80 44
5.6073 101.2522 -1.9281 0.988 0.016 0.151 69 75 49
5.7066 101.5751 -1.9861 0.986 0.017 0.164 48 53 30
5.8905 102.3676 -2.1176 -0.375 -0.680 0.629 67 73 47
5.9837 102.7701 -2.1843 0.284 -0.654 0.701 188 194 167
6.0985 104.2226 -2.3847 0.974 -0.104 0.203 176 183 150
28.4478 81.1596 -3.6188 -0.875 -0.408 0.262 94 103 62
28.5989 80.9231 -3.6172 -0.898 -0.440 -0.010 87 95 55
28.7295 80.6008 -3.6013 -0.897 -0.422 0.132 107 116 74
29.2330 79.3279 -3.5361 -0.825 -0.514 0.233 47 55 20
29.2955 79.1775 -3.5289 -0.822 -0.513 0.247 47 53 18
29.4460 78.9902 -3.5332 -0.850 -0.406 0.336 45 50 17
29.5260 78.9183 -3.5390 -0.855 -0.407 0.320 50 57 25
29.5820 78.7485 -3.5282 -0.508 -0.634 0.583 46 52 24
29.6303 78.5494 -3.5125 -0.229 -0.531 0.816 45 51 25
29.7356 78.5855 -3.5362 -0.296 -0.601 0.742 43 49 23
29.8193 78.5336 -3.5450 -0.495 -0.652 0.575 44 50 23
29.8604 78.3117 -3.5252 -0.504 -0.495 0.708 43 49 21
29.9596 78.3239 -3.5448 -0.562 -0.470 0.681 42 48 22
30.0805 78.4224 -3.5790 -0.640 -0.496 0.587 40 45 22
30.1982 78.5070 -3.6110 -0.363 -0.382 0.850 46 49 28
30.4228 78.2590 -3.6214 -0.299 -0.090 0.950 32 35 16
31.2413 76.4147 -3.5431 -0.810 -0.508 -0.292 41 47 17
31.6672 75.0530 -3.4527 0.071 -0.647 -0.759 118 126 78
31.7629 75.0719 -3.4725 -0.042 -0.675 -0.736 107 115 66
31.8151 74.9463 -3.4666 -0.615 -0.603 -0.508 110 118 69
32.3819 74.4649 -3.5106 -0.705 -0.492 -0.511 85 93 42
32.4857 74.2323 -3.5009 -0.678 -0.585 -0.445 70 79 26
32.6229 73.8358 -3.4770 -0.726 -0.578 -0.373 74 82 31
32.8531 73.4699 -3.4738 -0.838 -0.541 0.062 76 84 40
33.1191 73.2253 -3.4922 -0.827 -0.556 0.082 87 95 48
33.1863 73.1679 -3.4974 -0.844 -0.532 0.066 91 99 48
33.2501 73.1012 -3.5008 -0.845 -0.531 0.058 97 106 51
33.2988 72.9910 -3.4961 -0.847 -0.528 0.062 101 110 53
33.3597 72.9171 -3.4981 -0.844 -0.533 0.055 107 116 60
33.4043 72.7971 -3.4914 -0.846 -0.528 0.071 111 120 64
33.4590 72.7074 -3.4903 -0.856 -0.503 0.116 122 131 75
33.6064 67.7887 -2.9097 -0.949 -0.316 -0.010 101 111 61
33.7988 66.7304 -2.8142 -0.944 -0.328 -0.033 86 97 39
34.3241 67.8485 -3.0482 -0.936 -0.312 0.162 94 105 45
34.3569 67.7390 -3.0407 -0.895 -0.444 -0.035 102 113 53
34.3572 67.5501 -3.0174 -0.895 -0.446 0.004 118 129 69
34.3726 67.4001 -3.0017 -0.912 -0.379 0.156 135 146 88
34.4101 67.3050 -2.9968 -0.912 -0.383 0.150 140 151 93
34.4550 67.2290 -2.9956 -0.912 -0.381 0.154 134 147 91
34.4841 67.1153 -2.9869 -0.912 -0.379 0.155 137 150 94
-23.5389 95.3471 3.9922 0.539 -0.557 0.632 89 101 52
-9.3225 83.4454 2.8874 -0.354 -0.497 0.792 95 106 66
-9.4368 84.0033 2.8384 0.398 -0.398 0.827 78 88 51
-2.6633 95.3436 0.1809 0.470 -0.533 -0.704 77 93 54
-2.6486 95.8121 0.1195 0.764 -0.603 -0.229 81 97 58
-2.5769 96.0561 0.0759 0.719 -0.695 0.020 81 97 59
-2.5008 96.2861 0.0332 0.733 -0.678 0.055 80 96 57
-2.3952 96.3978 -0.0001 0.609 -0.792 -0.039 78 93 54
-2.2159 96.2060 -0.0088 0.660 -0.748 -0.066 75 90 51
-2.0387 96.0199 -0.0179 -0.555 -0.832 0.000 82 96 56
