ply
format ascii 1.0
element vertex 891
property float x
property float y
property float z
property float nx
property float ny
property float nz
property uchar diffuse_red
property uchar diffuse_green
property uchar diffuse_blue
end_header
-26.9933 66.9500 -38.4592 0.474 -0.760 0.444 62 66 31
43.3243 16.7005 -31.4288 -0.492 -0.844 -0.213 117 122 65
-27.1893 66.1154 -38.3209 0.483 -0.684 0.547 52 55 25
-26.9731 66.2193 -38.4169 0.471 -0.687 0.553 59 62 30
43.2063 16.8494 -31.6094 -0.457 -0.868 -0.196 114 123 60
-27.1015 66.2503 -38.6884 0.645 -0.753 -0.134 59 62 30
-27.1208 66.7792 -38.9267 0.633 -0.772 -0.064 62 66 31
-27.1604 66.1565 -38.9187 0.633 -0.759 -0.150 57 61 29
-27.2209 66.7587 -39.1827 0.613 -0.787 -0.066 61 65 30
-27.1767 67.6768 -39.6156 0.329 -0.944 0.008 70 75 36
-27.3624 66.3182 -39.2357 0.647 -0.752 -0.126 52 56 25
-27.2865 66.6761 -39.4181 0.672 -0.740 -0.044 58 62 28
-26.9605 66.5855 -39.4487 0.609 -0.792 -0.037 65 69 34
-27.3486 66.0938 -39.4225 0.363 -0.687 0.629 52 55 25
-27.1949 66.3116 -39.5577 0.430 -0.712 0.555 58 62 29
-26.9751 66.4115 -39.6529 0.771 -0.550 0.321 65 69 34
-27.4706 66.1118 -39.6920 0.207 -0.494 0.845 53 56 26
-27.1641 66.0566 -39.7339 0.225 -0.505 0.833 58 62 29
-27.1999 65.9209 -39.9508 0.209 -0.490 0.846 58 62 29
-27.1981 65.7180 -40.1444 0.233 -0.503 0.832 58 62 29
-4.8630 94.9472 -60.1269 0.659 -0.554 0.509 67 75 36
22.7514 45.3433 -42.3670 0.738 -0.619 0.268 69 76 34
38.8629 48.7490 -47.4854 0.034 0.183 0.983 100 108 57
-9.0542 108.8850 -66.9835 0.289 -0.947 -0.138 60 68 29
31.2387 69.6699 -56.6178 -0.059 -0.111 0.992 75 83 36
-9.4305 108.7568 -67.2067 0.423 -0.894 0.147 63 71 32
-8.5743 109.1012 -67.5572 0.562 -0.797 0.222 64 72 33
-8.3009 109.2567 -67.6912 0.562 -0.797 0.222 69 77 38
31.0403 69.0373 -56.5256 -0.059 -0.252 0.966 79 87 40
-9.7624 108.4816 -67.3681 0.409 -0.884 0.225 71 79 40
-9.5053 108.6889 -67.5242 0.415 -0.888 0.198 64 72 33
-9.2179 108.7977 -67.6385 0.415 -0.888 0.198 57 65 26
-8.9342 108.9189 -67.7581 0.422 -0.886 0.190 59 67 28
-8.6501 109.0390 -67.8773 0.785 -0.412 0.463 64 72 33
-8.3287 109.0339 -67.9432 0.782 -0.414 0.467 69 77 38
31.0122 68.9036 -56.7115 0.123 -0.591 0.797 80 87 41
-9.5709 108.5904 -67.8291 0.415 -0.888 0.198 64 72 33
-9.2833 108.6992 -67.9435 0.415 -0.888 0.198 57 65 26
-9.0000 108.8220 -68.0638 0.422 -0.886 0.190 59 67 28
-8.3349 108.7392 -68.1643 0.782 -0.436 0.446 69 77 38
30.7767 68.7579 -56.8476 0.022 -0.646 0.763 77 84 40
30.9630 69.0395 -57.0253 0.049 -0.678 0.733 77 84 40
-9.6440 108.5163 -68.1448 0.226 -0.972 0.061 61 69 30
-9.0413 108.6443 -68.3353 0.226 -0.972 0.061 60 68 29
-8.7589 108.4559 -68.6697 0.300 -0.954 0.001 68 76 39
-10.0956 108.3132 -68.6862 0.005 -0.748 0.664 69 77 40
-9.7608 108.2713 -68.7357 0.005 -0.748 0.664 60 68 31
-9.4267 108.2295 -68.7851 0.005 -0.748 0.664 53 61 24
-10.0962 108.0041 -68.9014 0.026 -0.738 0.675 69 77 40
34.0742 24.6266 -36.5631 0.796 -0.294 -0.528 74 83 40
-10.1217 107.7751 -69.1510 0.026 -0.738 0.675 67 75 38
-8.3793 100.3013 -66.8335 0.933 0.214 0.289 69 75 37
-8.4581 105.2857 -69.7091 0.764 -0.517 0.386 69 77 40
-8.8152 105.1073 -69.9109 0.705 -0.683 0.191 66 72 36
-8.3614 104.6619 -69.7762 0.733 -0.580 0.356 70 76 40
-10.0611 104.7178 -69.8235 0.805 -0.413 0.426 68 74 36
-8.7891 104.7154 -70.0818 0.719 -0.667 0.195 65 71 35
-8.3946 104.4626 -70.0326 0.733 -0.580 0.356 70 76 40
-10.0745 104.4553 -70.0530 0.805 -0.413 0.426 68 74 36
-8.7742 104.3604 -70.2685 0.680 -0.699 0.222 66 72 36
-8.3353 103.9625 -70.1528 0.759 -0.651 -0.001 70 76 40
-10.5300 104.5789 -70.3922 0.432 -0.084 0.898 69 75 37
-8.8498 104.2976 -70.5871 0.754 -0.653 0.071 66 72 36
-10.5707 104.4018 -70.6609 0.696 -0.228 0.681 65 71 33
-8.9125 104.1928 -70.8871 0.754 -0.653 0.071 65 71 35
30.0497 70.3593 -61.4530 0.696 -0.489 0.526 51 55 28
29.4899 70.8949 -62.1608 0.756 -0.457 0.468 54 58 31
-9.9737 102.3245 -71.1646 -0.307 -0.919 -0.248 59 65 27
-7.5106 98.4978 -69.6357 -0.140 -0.847 -0.514 70 75 42
41.2921 26.4561 -41.3368 -0.321 -0.778 0.539 80 85 51
-17.7813 48.5887 -41.5267 0.770 0.115 0.627 51 49 26
-16.6585 53.7641 -44.4900 0.392 -0.209 0.896 47 45 22
-16.7087 54.3361 -44.7830 0.155 -0.229 0.961 47 45 22
-16.7699 54.9336 -45.0872 0.164 -0.234 0.958 47 45 22
-16.7347 55.3499 -45.3147 0.169 -0.306 0.937 47 45 22
42.2789 25.1985 -41.2037 -0.576 -0.264 0.774 108 119 49
42.3998 24.8495 -41.0420 -0.584 -0.269 0.766 109 121 48
-22.7713 54.3319 -44.1346 0.877 -0.425 0.224 48 45 25
42.3815 24.7709 -41.1631 -0.575 -0.254 0.778 103 113 49
42.5061 24.6355 -41.1153 -0.575 -0.254 0.778 107 116 52
36.7544 36.6757 -46.6075 0.827 -0.371 -0.424 34 41 25
42.4865 24.4964 -41.2034 -0.584 -0.262 0.768 109 117 56
42.6087 24.2904 -41.1169 -0.573 -0.264 0.776 108 117 54
-21.8214 33.8386 -33.8518 0.980 0.111 0.164 67 69 32
-21.8434 34.8502 -34.3917 0.662 -0.260 0.703 57 58 27
-21.6951 34.9660 -34.4829 0.647 -0.278 0.710 46 46 20
-21.5345 35.0644 -34.5672 0.597 -0.323 0.734 40 38 13
42.5910 24.2319 -41.2479 -0.623 -0.300 0.723 108 116 57
-21.6990 33.1941 -33.7628 0.976 -0.030 0.214 69 69 32
-21.7355 33.5677 -33.9575 0.981 0.108 0.158 67 67 33
-21.7400 33.8978 -34.1349 0.986 0.077 0.150 64 65 33
-21.6705 34.1238 -34.2704 0.999 -0.027 -0.028 61 62 31
-21.6668 34.4456 -34.4449 0.999 -0.027 -0.028 52 52 24
-21.6256 34.7150 -34.5985 0.677 -0.200 0.708 44 42 17
-21.5257 34.9009 -34.7183 0.578 -0.326 0.748 39 37 14
42.5732 24.1689 -41.3765 -0.668 -0.376 0.642 93 100 57
42.6966 24.0336 -41.3274 -0.668 -0.376 0.642 101 109 61
42.8173 23.8213 -41.2363 -0.671 -0.377 0.639 103 112 59
-21.6001 32.5878 -33.6875 0.955 0.000 0.296 69 71 30
-21.7071 33.0579 -33.9217 0.965 -0.032 0.260 69 69 34
-21.6914 33.3567 -34.0868 0.981 0.108 0.158 67 66 32
-21.6992 33.6908 -34.2664 0.981 0.108 0.158 63 62 31
-21.7101 34.0312 -34.4488 0.978 0.067 0.199 60 58 29
-21.6968 34.3389 -34.6182 0.978 0.067 0.199 49 47 21
-21.5731 34.4890 -34.7236 0.685 -0.196 0.702 42 40 17
-21.4720 34.6725 -34.8426 0.649 -0.285 0.705 40 37 16
-9.0970 56.3666 -49.0001 0.268 -0.761 -0.591 52 51 24
-8.9162 56.5095 -49.1126 0.265 -0.764 -0.589 52 51 25
-8.7594 56.7076 -49.2503 0.119 -0.893 -0.434 49 49 24
-8.5720 56.8373 -49.3569 -0.077 -0.986 -0.147 49 49 25
36.0143 31.7645 -44.3918 -0.653 -0.622 0.432 31 32 25
42.5555 24.1081 -41.5065 -0.660 -0.367 0.655 47 51 28
42.6789 23.9711 -41.4560 -0.661 -0.368 0.654 81 86 55
42.8011 23.8143 -41.3947 -0.658 -0.362 0.660 100 107 69
-21.6050 32.4479 -33.8438 0.952 0.002 0.305 72 72 33
-21.6681 32.8554 -34.0534 0.980 0.067 0.189 72 68 34
-21.6473 33.1462 -34.2158 0.981 0.108 0.158 64 60 30
-21.6550 33.4793 -34.3956 0.981 0.108 0.158 55 51 21
-21.6736 33.8299 -34.5828 0.970 0.088 0.225 48 43 16
-21.6623 34.1396 -34.7536 0.970 0.088 0.225 42 36 12
-21.7079 34.5332 -34.9590 0.976 0.083 0.203 42 36 14
-11.4537 61.4467 -51.5850 0.357 -0.912 -0.203 45 39 20
-11.3051 62.2664 -52.0598 -0.154 -0.391 0.907 50 45 27
-0.2746 91.8508 -70.2892 -0.732 -0.597 0.327 94 100 63
41.9231 25.4870 -42.3016 -0.668 -0.402 0.627 14 14 14
42.5372 24.0225 -41.6228 -0.656 -0.359 0.664 13 15 2
42.6606 23.8881 -41.5735 -0.656 -0.359 0.664 18 21 4
42.7824 23.7119 -41.5011 -0.664 -0.372 0.648 41 45 19
-21.9005 32.7171 -34.1677 0.961 -0.160 0.227 69 70 31
-21.8236 32.9276 -34.2975 0.958 -0.162 0.235 69 64 33
-21.7912 33.2024 -34.4538 0.979 0.051 0.195 62 57 27
-21.6921 33.3836 -34.5719 0.989 0.042 0.144 52 47 18
-21.6587 33.6596 -34.7291 0.971 0.084 0.223 46 40 14
-21.6129 33.9194 -34.8799 0.970 0.088 0.225 42 36 12
-21.6626 34.3179 -35.0881 0.976 0.083 0.203 42 36 14
-17.0237 114.8232 -79.9688 -0.726 -0.586 0.361 51 55 30
-9.4326 103.8984 -75.4568 0.483 -0.793 -0.370 64 68 37
6.3570 93.6770 -72.9034 -0.005 -0.971 0.239 74 81 39
6.4561 94.4866 -73.3648 0.329 -0.944 -0.035 73 80 38
6.7197 94.5823 -73.4677 0.329 -0.944 -0.035 73 80 39
42.5178 23.8903 -41.7135 -0.656 -0.359 0.664 19 20 13
42.6412 23.7563 -41.6640 -0.656 -0.359 0.664 22 23 11
42.7622 23.5535 -41.5764 -0.658 -0.362 0.660 25 28 11
-22.0239 32.7433 -34.3932 0.955 -0.229 0.187 65 65 28
-21.8664 32.8405 -34.4767 0.959 -0.157 0.236 64 59 28
-21.7877 33.0494 -34.6063 0.976 0.040 0.212 57 52 23
-21.6717 33.2064 -34.7146 0.987 0.044 0.152 47 41 15
-21.6272 33.4660 -34.8655 0.978 0.064 0.197 42 36 12
-18.1272 116.7088 -81.1972 -0.727 -0.584 0.361 43 46 23
5.8108 96.9767 -74.9513 0.230 -0.956 0.181 76 83 40
42.5083 24.1965 -42.0464 -0.657 -0.369 0.657 18 18 18
42.6283 23.8958 -41.9044 -0.665 -0.365 0.651 18 19 14
42.7467 23.5729 -41.7499 -0.667 -0.372 0.646 22 23 14
-21.7034 32.4636 -34.5356 0.941 -0.091 0.326 60 55 26
-21.6234 32.6694 -34.6642 0.936 -0.090 0.341 53 47 21
-21.5942 32.9484 -34.8234 0.976 -0.140 0.167 43 37 13
-21.6378 33.3325 -35.0265 0.967 -0.242 0.074 39 33 11
-10.9723 106.0854 -77.1208 0.892 -0.260 -0.371 48 49 30
-10.5008 106.6621 -77.5282 0.403 -0.799 -0.445 46 47 28
-7.7434 102.9869 -76.0296 -0.751 -0.585 0.306 63 66 37
4.9035 83.1439 -67.5117 -0.728 -0.651 0.214 74 81 39
42.7290 23.5095 -41.8777 -0.666 -0.371 0.647 22 23 17
42.8510 23.3594 -41.8183 -0.664 -0.368 0.651 24 25 16
-21.6479 32.5567 -34.8325 0.949 -0.073 0.308 45 39 15
-21.5849 32.7874 -34.9720 0.949 -0.073 0.308 39 33 11
-21.6548 33.2080 -35.1913 0.968 -0.237 0.084 38 31 12
-10.6550 106.8354 -77.9790 0.403 -0.799 -0.445 36 37 21
-6.1805 100.6441 -75.4053 -0.630 -0.769 0.108 58 60 35
-3.5279 95.8406 -73.2532 -0.680 -0.286 0.675 62 66 37
42.8250 22.9852 -41.7725 -0.628 -0.288 0.723 23 24 16
42.9408 22.6573 -41.6132 -0.565 -0.157 0.810 26 28 16
-21.6624 32.4298 -34.9949 0.935 -0.078 0.347 43 37 15
0.8544 88.3800 -70.2975 -0.392 0.029 0.920 69 74 44
1.7676 87.1139 -69.7675 -0.399 0.024 0.917 70 75 42
4.4771 83.1688 -68.0902 -0.562 -0.113 0.820 69 75 40
7.8943 94.3809 -74.9577 -0.003 -0.981 0.196 78 86 36
8.7198 91.8905 -73.7317 -0.025 -0.999 0.035 71 79 31
-80.2040 95.4638 -59.3291 0.483 -0.782 -0.393 76 82 34
-21.8035 32.8004 -35.4105 0.938 -0.097 0.333 37 30 12
-15.9585 107.8283 -78.6989 0.901 -0.427 -0.075 37 36 16
44.0074 20.0362 -41.0013 -0.533 -0.584 0.612 36 39 21
-21.9185 31.8831 -35.5846 0.815 -0.294 0.499 37 32 13
43.9034 23.7456 -43.2317 -0.543 -0.834 -0.096 28 30 16
44.0285 23.7294 -43.2458 -0.549 -0.831 -0.089 32 34 18
43.6155 23.1861 -43.0297 -0.586 -0.810 -0.023 23 24 16
44.3338 22.5124 -42.7815 -0.617 -0.784 0.065 43 46 25
-45.6110 57.0623 -45.9887 0.950 0.089 -0.300 57 59 31
-46.8127 59.8298 -47.3386 0.922 0.020 -0.387 58 57 30
39.1683 27.3848 -44.7613 -0.000 -1.000 -0.001 35 35 27
44.3249 22.6288 -43.0111 -0.650 -0.607 0.457 44 47 26
-48.3608 62.4957 -48.8912 0.903 -0.027 -0.428 48 43 20
-32.4176 42.4306 -40.3804 0.991 -0.116 -0.067 52 47 25
-32.7099 43.1703 -40.7484 0.982 -0.138 -0.128 53 48 25
43.5900 23.3188 -43.4352 -0.589 -0.808 -0.020 25 26 18
44.0701 22.8034 -43.2295 -0.549 -0.347 0.760 38 41 23
-25.1515 16.3221 -27.0395 0.629 -0.290 -0.721 69 75 39
-25.3777 17.4905 -27.6666 0.636 -0.283 -0.718 75 81 45
-25.4448 17.7981 -27.8303 0.648 -0.266 -0.714 78 85 46
-25.8849 20.6999 -29.4101 0.814 -0.102 -0.572 74 80 37
-49.1754 63.7926 -49.8091 0.929 0.029 -0.370 42 35 16
16.7777 58.7599 -58.9809 -0.758 -0.610 0.231 40 43 21
-25.5897 16.6770 -27.3706 0.612 -0.300 -0.732 36 40 15
-25.5743 16.8895 -27.4955 0.612 -0.301 -0.732 37 41 18
-26.0625 20.2810 -29.3543 0.648 -0.263 -0.715 76 82 46
-26.7973 21.7324 -30.2747 0.692 -0.214 -0.689 62 68 33
-26.7478 19.3386 -29.1193 0.772 -0.132 -0.622 30 35 20
-27.9504 24.9993 -32.1779 0.714 -0.227 -0.663 56 64 28
-28.0055 25.3302 -32.3595 0.705 -0.202 -0.679 60 68 32
-28.0905 25.6982 -32.5571 0.705 -0.202 -0.679 71 78 43
-29.5195 28.9083 -34.8755 0.760 -0.155 -0.631 30 34 20
26.1298 67.8668 -67.8615 0.988 -0.144 -0.061 44 47 28
25.9525 67.1146 -67.6690 0.990 -0.138 -0.014 38 41 24
26.0684 67.9985 -68.2105 0.990 -0.138 -0.014 35 38 21
26.2060 68.7206 -68.6606 0.964 -0.198 -0.179 36 39 22
27.8689 72.5250 -72.3671 -0.486 -0.548 0.680 74 27 26
27.3267 72.9015 -72.7936 -0.516 -0.379 0.768 56 27 26
27.9518 71.2554 -71.9127 -0.501 -0.503 0.704 73 28 27
27.9261 71.0672 -72.0864 -0.488 -0.504 0.713 65 25 25
27.7559 72.3036 -73.0971 -0.409 -0.569 0.714 55 19 20
-15.4796 -1.8048 -21.0346 0.846 0.193 0.498 29 33 20
27.7018 72.3905 -73.4359 -0.483 -0.843 0.239 48 16 18
7.4995 104.0361 -89.6030 -0.015 -0.649 0.760 56 48 27
39.2018 25.2081 -47.0993 -0.677 -0.604 0.420 35 13 17
8.5015 88.7822 -81.5228 0.247 -0.850 0.465 55 49 23
8.0057 88.1552 -81.4034 0.633 -0.771 0.063 54 48 23
8.4618 88.6328 -81.7745 0.247 -0.850 0.465 51 45 21
8.7154 88.7604 -81.8955 0.005 -0.824 0.566 48 42 20
8.1317 88.5185 -82.0002 0.596 -0.779 0.195 48 42 20
8.4667 88.2845 -81.9102 0.195 -0.877 0.438 47 41 19
8.6794 88.5941 -82.1375 0.005 -0.824 0.566 40 34 12
32.2214 54.7210 -64.9975 -0.275 0.129 0.953 60 17 24
11.0604 74.1658 -73.8908 -0.189 -0.450 0.873 44 37 17
8.3391 88.5256 -82.3904 0.300 -0.511 0.806 37 30 11
8.5521 88.8372 -82.6196 0.337 -0.486 0.807 39 33 11
8.9392 88.3649 -82.3889 -0.023 -0.793 0.609 41 35 11
7.9321 88.7466 -82.8143 -0.077 -0.821 0.566 34 27 9
8.5619 88.4650 -82.7413 0.315 -0.500 0.807 40 34 11
8.3136 87.9870 -82.7535 0.302 -0.520 0.799 42 36 15
8.5503 88.1895 -82.9191 0.315 -0.506 0.803 44 38 15
34.5031 47.3862 -61.5343 -0.399 -0.051 0.915 72 26 29
8.5187 86.4344 -82.5107 -0.020 -0.759 0.651 50 42 18
-19.7790 9.3182 -29.6014 0.984 0.075 0.159 23 31 11
-23.0166 20.4235 -36.1560 -0.282 -0.959 -0.037 35 33 18
-22.8455 20.4788 -36.2185 -0.160 -0.984 -0.079 40 37 18
6.3023 80.0931 -78.8207 -0.461 -0.881 -0.108 50 42 22
-19.8237 8.8374 -29.4853 0.990 0.055 0.126 41 49 27
-19.8906 8.8915 -29.9050 0.153 -0.917 -0.368 70 80 44
-19.9157 9.2225 -30.3133 -0.085 -0.912 -0.401 48 58 21
-19.8385 9.3337 -30.7972 0.406 -0.776 -0.482 56 66 32
8.2547 79.7223 -81.6041 -0.299 -0.944 -0.140 41 39 16
5.6699 86.4200 -92.9159 -0.043 -0.798 -0.601 49 43 23
42.8334 25.1368 -54.9028 -0.161 0.213 0.964 45 17 14
42.9680 25.0522 -54.8617 -0.161 0.213 0.964 48 20 17
43.1037 25.0182 -54.8562 -0.158 0.215 0.964 50 21 18
43.2399 25.0069 -54.8667 -0.159 0.213 0.964 52 22 20
42.5765 26.6985 -56.1619 -0.250 0.106 0.962 36 9 8
42.7018 26.0886 -55.7489 -0.203 0.149 0.968 38 11 7
42.8075 24.8158 -54.8659 -0.169 0.198 0.966 39 13 10
42.9419 24.7326 -54.8253 -0.169 0.198 0.966 43 18 14
43.0758 24.6496 -54.7849 -0.169 0.198 0.966 45 20 16
43.2092 24.5669 -54.7445 -0.169 0.198 0.966 49 22 19
5.1058 86.8698 -93.9063 0.140 -0.714 -0.686 50 45 17
42.6655 25.3263 -55.4004 -0.229 0.133 0.964 32 9 10
42.7840 24.5793 -54.8879 -0.147 0.210 0.967 33 11 11
42.9133 24.3205 -54.7221 -0.147 0.209 0.967 38 17 14
43.0534 24.4673 -54.8447 -0.156 0.203 0.967 42 19 15
43.1729 23.9403 -54.4879 -0.111 0.238 0.965 43 21 15
43.3043 23.8363 -54.4319 -0.111 0.238 0.965 47 23 19
43.4411 23.9041 -54.4982 -0.170 0.197 0.966 46 27 21
42.7547 24.1151 -54.7468 -0.150 0.209 0.966 29 7 10
42.8859 23.9484 -54.6459 -0.147 0.209 0.967 33 12 11
43.0256 24.0999 -54.7720 -0.156 0.203 0.967 35 14 11
43.1461 23.6160 -54.4446 -0.141 0.217 0.966 38 17 12
44.2530 18.8031 -51.1756 -0.124 -0.949 -0.289 45 43 23
4.8455 88.4519 -95.7526 0.311 -0.131 0.941 47 41 17
42.8576 23.5389 -54.5416 -0.147 0.209 0.967 28 8 10
42.9871 23.3539 -54.4269 -0.144 0.210 0.967 28 9 9
43.1200 23.3103 -54.4134 -0.155 0.203 0.967 30 11 9
43.2429 22.9649 -54.1837 -0.163 0.199 0.966 31 13 9
43.3735 22.8874 -54.1457 -0.163 0.199 0.966 35 20 15
44.3391 18.3067 -51.0108 -0.150 -0.918 -0.368 41 42 26
4.9382 88.9534 -96.5053 0.453 -0.117 0.884 41 36 17
5.3200 89.8363 -97.1864 0.633 -0.113 0.766 21 19 8
5.7052 90.7290 -97.8749 0.584 -0.129 0.801 22 25 10
42.9573 22.9063 -54.2930 -0.163 0.198 0.967 26 10 9
43.0845 22.6934 -54.1576 -0.163 0.198 0.967 28 12 9
43.2124 22.5282 -54.0563 -0.161 0.199 0.967 29 15 10
43.3425 22.4521 -54.0190 -0.161 0.199 0.967 32 21 15
43.4696 22.3033 -53.9293 -0.230 0.156 0.961 37 30 20
43.9998 19.3899 -51.9167 -0.319 -0.693 0.647 41 38 23
44.1089 19.0131 -51.6617 -0.455 -0.574 0.681 44 41 23
44.4466 18.2605 -51.1683 -0.299 -0.952 -0.066 26 29 20
43.9881 19.4601 -52.1453 -0.441 -0.697 0.565 40 38 26
44.1000 19.1375 -51.9285 -0.272 -0.576 0.771 42 40 28
5.5924 89.2862 -97.5983 -0.205 -0.604 0.770 18 18 10
5.9116 89.2022 -97.5792 -0.205 -0.604 0.770 19 20 10
43.9819 19.6560 -52.4656 -0.339 -0.940 -0.034 34 35 25
44.0827 19.0778 -52.0626 -0.244 -0.957 -0.158 34 34 27
4.7017 91.3661 -99.3713 -0.395 -0.848 -0.353 21 18 14
43.9537 19.3510 -52.4228 0.059 -0.816 -0.575 21 24 17
44.0682 19.0814 -52.2429 -0.092 -0.811 -0.578 21 23 18
43.9465 19.5277 -52.7306 0.053 -0.818 -0.573 12 17 11
44.0666 19.3734 -52.6341 -0.088 -0.810 -0.580 9 14 9
44.1842 19.1779 -52.5075 -0.051 -0.837 -0.545 8 13 6
43.8374 20.3322 -53.4831 -0.540 -0.674 0.504 19 24 17
43.9371 19.6558 -53.0041 -0.087 -0.809 -0.582 10 15 10
44.0610 19.5771 -52.9625 -0.086 -0.808 -0.582 8 9 10
44.1741 19.2756 -52.7577 -0.000 -0.808 -0.589 9 14 9
17.3731 57.9215 -77.7522 0.162 -0.959 -0.235 44 47 20
43.9351 19.9606 -53.4083 -0.233 -0.953 -0.193 13 15 10
44.0626 19.9473 -53.4147 0.010 -0.823 -0.568 13 15 11
44.0577 20.1736 -53.7628 -0.011 -0.838 -0.546 15 18 10
44.0530 20.4064 -54.1172 -0.236 -0.940 -0.246 17 20 11
44.0455 20.5803 -54.4295 -0.255 -0.953 -0.165 19 21 16
43.8797 20.0818 -54.2265 -0.225 -0.365 0.903 8 10 8
44.0195 20.3300 -54.4271 -0.402 -0.611 0.682 13 15 15
44.0062 20.3743 -54.6440 -0.408 -0.720 0.561 12 12 15
18.7341 52.9161 -76.0048 0.966 0.145 0.214 54 62 38
19.7522 53.3280 -76.4342 -0.703 -0.621 0.348 37 44 28
20.0930 52.6919 -76.0018 -0.403 -0.403 0.822 24 29 20
43.8432 19.9368 -54.4848 -0.379 -0.403 0.833 5 9 12
19.7146 53.2450 -76.6585 -0.703 -0.621 0.348 89 98 73
19.9532 53.1455 -76.6127 -0.614 -0.567 0.549 47 53 41
23.1256 33.5098 -62.5670 0.880 -0.476 -0.005 93 102 73
19.5948 53.5854 -77.1906 -0.484 -0.643 0.594 72 80 61
19.8663 53.3197 -77.0237 -0.544 -0.620 0.565 43 48 38
13.7583 105.3368 -115.2751 0.780 -0.555 0.288 98 110 63
21.6554 95.2592 -108.6615 0.755 -0.403 -0.517 13 15 14
19.7786 53.4969 -77.4385 -0.523 -0.606 0.599 16 21 15
20.0253 53.3584 -77.3634 -0.523 -0.606 0.599 14 19 15
34.1915 66.9847 -89.2768 0.798 -0.603 0.021 16 17 7
19.5603 53.2066 -77.4869 -0.493 -0.634 0.595 18 22 20
19.7541 53.3447 -77.6138 -0.523 -0.606 0.599 12 16 13
20.0008 53.2066 -77.5384 -0.523 -0.606 0.599 10 15 11
21.0518 36.6196 -65.3990 0.949 0.234 0.209 34 41 34
14.9701 85.1738 -101.4420 -0.269 -0.406 0.873 8 12 12
24.4317 31.1498 -62.1186 0.542 -0.367 0.756 8 13 7
24.5757 31.3180 -62.2632 0.608 -0.377 0.698 9 14 6
19.4314 48.4377 -75.0024 0.895 0.187 0.405 19 26 11
19.5029 49.1349 -75.5435 0.840 0.162 0.518 15 21 10
24.4454 30.8520 -62.1269 0.650 -0.571 0.502 10 15 8
24.5652 31.1475 -62.3664 0.481 -0.766 0.427 11 17 5
27.0803 29.5634 -61.4402 0.408 -0.203 0.890 1 6 4
27.2462 29.5832 -61.4742 0.423 -0.191 0.886 4 8 6
27.4058 29.6425 -61.5376 0.423 -0.191 0.886 10 15 9
35.6434 43.6660 -73.1907 -0.452 -0.752 0.480 11 11 12
36.8579 40.6362 -71.0121 0.161 -0.982 0.097 58 59 53
37.0464 40.3040 -70.7795 0.249 -0.962 0.110 43 44 38
37.2349 39.9313 -70.5160 0.144 -0.975 0.168 30 31 25
37.3993 40.2077 -70.7458 0.342 -0.809 0.478 15 16 10
3.0724 95.5895 -109.6132 -0.099 -0.456 0.884 42 40 21
19.6903 49.0036 -75.7490 0.936 -0.168 0.310 87 95 71
19.7780 49.6361 -76.2439 0.943 -0.155 0.295 80 88 68
24.2865 30.5432 -62.1063 0.437 -0.850 -0.294 6 12 4
24.4158 30.7840 -62.3055 0.442 -0.852 -0.280 13 20 5
25.1103 30.8078 -62.4018 0.624 -0.778 -0.068 86 96 59
25.2291 31.1174 -62.6526 0.550 -0.561 0.619 94 105 62
25.3715 31.2989 -62.8078 0.588 -0.272 0.762 97 109 61
25.5299 31.3918 -62.8968 0.588 -0.272 0.762 97 109 60
25.7304 31.2421 -62.8045 0.509 -0.357 0.783 91 103 56
26.0245 30.5402 -62.2992 -0.355 -0.374 0.857 91 102 59
26.2453 30.2539 -62.1045 -0.367 -0.377 0.850 89 100 60
26.4519 30.0449 -61.9673 -0.372 -0.385 0.845 71 80 47
26.6950 29.6079 -61.6595 -0.384 -0.533 0.754 35 43 21
26.9004 29.3894 -61.5150 -0.328 -0.494 0.805 13 19 6
27.0274 29.6516 -61.7304 0.346 -0.238 0.907 14 19 10
27.2263 29.4669 -61.6110 0.408 -0.211 0.888 27 33 20
27.3865 29.5222 -61.6715 0.408 -0.211 0.888 34 40 24
27.5467 29.5776 -61.7319 0.408 -0.211 0.888 29 36 19
28.0903 29.3203 -61.5956 -0.598 -0.608 0.523 10 15 12
35.5996 43.9101 -73.6294 -0.460 -0.747 0.480 8 9 12
19.2055 49.0148 -75.9887 0.993 -0.050 -0.102 93 102 73
19.2672 49.7656 -76.5733 0.996 -0.045 -0.077 96 105 78
19.5491 49.4390 -76.3534 0.900 -0.333 0.281 93 102 74
19.6475 50.0228 -76.8137 0.895 -0.338 0.292 92 100 73
19.9775 50.5413 -77.2495 0.066 -0.978 -0.196 63 70 54
20.1896 50.5639 -77.2905 0.066 -0.978 -0.196 27 33 19
24.2307 30.6117 -62.3867 0.437 -0.850 -0.294 8 15 1
24.3820 30.7380 -62.5008 0.426 -0.856 -0.295 19 26 7
24.5473 30.7906 -62.5597 0.442 -0.846 -0.299 47 55 32
24.9110 30.7158 -62.5426 0.434 -0.867 -0.246 100 109 82
25.0610 30.8502 -62.6628 0.477 -0.848 -0.232 96 106 72
25.2264 30.9011 -62.7204 0.622 -0.780 -0.061 98 109 65
25.3799 31.0182 -62.8276 0.551 -0.568 0.611 100 112 61
25.5345 31.1308 -62.9314 0.532 -0.259 0.806 96 109 56
25.7145 31.0983 -62.9265 0.517 -0.372 0.771 97 109 60
26.0203 30.3295 -62.3690 -0.550 -0.576 0.605 99 111 63
26.2341 30.0845 -62.2042 -0.387 -0.414 0.824 98 110 65
27.0487 29.2794 -61.6754 0.328 -0.600 0.729 11 17 3
27.2274 29.2187 -61.6487 0.455 -0.614 0.645 51 59 38
27.3909 29.2514 -61.6920 0.479 -0.589 0.651 84 92 67
27.5484 29.3216 -61.7636 0.475 -0.591 0.651 80 89 62
27.7170 29.3201 -61.7812 0.432 -0.607 0.667 58 66 40
27.8940 29.2620 -61.7562 0.197 -0.747 0.635 33 40 22
28.0534 29.3178 -61.8169 -0.514 -0.514 0.687 15 22 7
28.2364 29.2143 -61.7576 -0.514 -0.514 0.687 13 20 7
28.4626 28.8092 -61.4711 -0.601 -0.600 0.529 7 12 2
28.6695 28.5259 -61.2762 -0.604 -0.595 0.531 10 16 6
35.5600 44.0681 -74.0041 -0.499 -0.765 0.407 9 12 17
35.7428 44.0913 -74.0423 -0.492 -0.781 0.386 10 11 15
19.6593 50.7832 -77.6905 0.205 -0.889 -0.409 68 76 54
19.9150 50.5885 -77.5684 0.064 -0.980 -0.187 49 56 41
20.1276 50.6100 -77.6085 0.064 -0.980 -0.187 25 31 20
24.1747 30.6805 -62.6683 0.437 -0.850 -0.294 9 15 3
24.3283 30.7962 -62.7746 0.437 -0.850 -0.294 12 18 3
24.4915 30.8618 -62.8433 0.442 -0.846 -0.299 23 31 11
24.6836 30.7727 -62.7957 0.454 -0.845 -0.282 45 53 32
24.8366 30.8921 -62.9048 0.455 -0.846 -0.278 76 83 65
25.0113 30.8942 -62.9257 0.477 -0.848 -0.232 96 104 80
25.1851 30.8998 -62.9492 0.457 -0.864 -0.211 100 110 72
25.3396 31.0125 -63.0533 0.483 -0.856 -0.186 98 110 63
25.5118 31.0259 -63.0827 0.378 -0.893 0.244 97 109 61
25.6992 30.9510 -63.0456 0.261 -0.685 0.680 99 111 63
26.0012 30.2061 -62.5039 -0.550 -0.576 0.605 100 111 66
26.2295 29.8764 -62.2745 -0.386 -0.414 0.825 98 110 65
26.4228 29.7453 -62.1947 -0.388 -0.408 0.826 82 93 52
27.0321 29.1433 -61.7971 0.438 -0.669 0.601 21 29 8
27.2091 29.0929 -61.7778 0.641 -0.756 -0.133 59 67 41
27.3728 29.1238 -61.8197 0.605 -0.782 -0.148 93 103 69
27.5293 29.2002 -61.8960 0.494 -0.838 0.232 96 107 68
27.7015 29.1751 -61.8957 0.485 -0.843 0.233 98 108 68
27.8745 29.1430 -61.8900 0.197 -0.747 0.635 96 106 70
28.0541 29.0638 -61.8487 -0.524 -0.517 0.677 81 91 59
28.2371 28.9584 -61.7875 -0.524 -0.517 0.677 57 66 37
28.4586 28.5853 -61.5239 -0.598 -0.605 0.526 27 36 11
28.6660 28.2973 -61.3245 -0.593 -0.589 0.549 17 25 4
28.8668 28.0470 -61.1534 -0.573 -0.574 0.585 10 16 2
29.0961 27.5838 -60.8211 -0.569 -0.481 0.666 9 14 7
29.9682 27.1421 -60.5764 0.843 0.193 0.502 8 14 3
22.4932 100.9029 -116.7004 0.122 -0.964 0.238 11 15 16
22.8251 100.6487 -116.5408 0.012 -0.957 0.289 9 13 14
21.2598 32.4172 -63.9296 0.944 0.268 0.193 19 25 15
19.4643 50.4005 -77.6635 0.070 -0.984 -0.165 24 31 11
19.5882 50.8703 -78.0410 0.018 -0.992 -0.123 23 29 15
19.8046 50.8779 -78.0706 0.018 -0.992 -0.123 18 24 17
20.0675 50.6457 -77.9196 0.067 -0.981 -0.181 12 16 14
24.1664 30.5011 -62.7638 0.532 -0.532 0.659 5 10 7
24.3060 30.6889 -62.9245 0.472 -0.878 0.080 4 9 5
24.4362 30.9297 -63.1253 0.444 -0.844 -0.302 9 15 7
24.5896 31.0497 -63.2350 0.444 -0.844 -0.302 4 10 3
24.7830 30.9547 -63.1827 0.455 -0.846 -0.278 3 8 3
24.9614 30.9384 -63.1896 0.477 -0.848 -0.232 11 16 6
25.7073 30.6698 -63.0633 0.238 -0.723 0.648 85 95 60
25.9947 30.0100 -62.5836 -0.545 -0.565 0.620 91 100 67
26.2197 29.6996 -62.3678 -0.386 -0.414 0.825 96 106 74
26.4180 29.5386 -62.2648 -0.381 -0.423 0.822 85 94 63
26.6356 29.2563 -62.0700 -0.400 -0.546 0.736 47 56 29
26.9975 29.1179 -62.0024 0.799 -0.601 -0.016 16 24 4
27.1703 29.0947 -62.0034 0.614 -0.771 -0.171 51 59 33
27.3327 29.1353 -62.0526 0.622 -0.767 -0.159 87 98 60
27.4845 29.2435 -62.1530 0.586 -0.792 -0.168 96 107 62
27.6415 29.3192 -62.2289 0.605 -0.778 -0.171 93 105 55
27.8271 29.2073 -62.1626 0.427 -0.872 0.239 97 109 59
28.8015 28.2526 -61.5298 -0.574 -0.499 0.650 36 44 21
29.0373 27.7491 -61.1656 -0.611 -0.503 0.611 22 29 14
29.2978 27.0519 -60.6540 0.323 -0.344 0.882 13 19 11
29.4553 27.0866 -60.6982 0.323 -0.344 0.882 11 16 10
30.4653 28.0669 -61.5683 0.876 0.101 0.472 10 16 6
22.8239 100.1219 -116.5481 -0.012 -0.911 0.413 9 14 12
23.1975 99.4823 -116.0935 0.122 -0.958 0.261 11 13 9
19.5661 49.6265 -77.3637 0.918 -0.284 0.275 6 12 2
19.7769 50.7465 -78.2571 0.036 -0.996 0.081 7 11 12
24.5012 30.3604 -62.9261 0.763 -0.604 0.231 8 12 14
24.6150 30.6873 -63.1925 0.485 -0.823 -0.294 7 11 14
25.6118 29.9943 -62.7623 -0.122 -0.680 0.723 18 25 8
25.8165 29.8118 -62.6427 -0.106 -0.768 0.632 25 32 17
26.0339 29.5499 -62.4627 -0.362 -0.540 0.760 40 47 33
26.2283 29.4149 -62.3789 -0.382 -0.548 0.744 59 65 52
26.4119 29.3395 -62.3402 -0.382 -0.548 0.744 54 61 44
26.6455 28.9610 -62.0715 -0.381 -0.530 0.757 33 40 25
26.8392 28.8145 -61.9786 0.434 -0.703 0.564 13 19 7
26.9752 29.0168 -62.1506 0.793 -0.608 -0.015 18 24 9
27.1285 29.1148 -62.2434 0.614 -0.771 -0.171 46 54 31
27.2918 29.1511 -62.2894 0.622 -0.767 -0.159 86 95 63
27.4394 29.2873 -62.4113 0.603 -0.780 -0.167 97 108 65
27.6041 29.3148 -62.4506 0.621 -0.767 -0.160 95 107 57
27.7989 29.1449 -62.3397 0.427 -0.872 0.239 96 109 55
28.3713 28.6794 -62.0401 -0.587 -0.492 0.644 96 107 65
28.5724 28.4412 -61.8768 -0.587 -0.496 0.640 93 103 67
28.7845 28.1177 -61.6484 -0.574 -0.499 0.650 74 83 56
29.0195 27.6215 -61.2883 -0.611 -0.503 0.611 45 52 34
29.2622 27.0542 -60.8737 0.026 -0.554 0.832 12 18 8
29.4273 27.0355 -60.8771 0.301 -0.497 0.814 8 13 6
29.5743 27.1481 -60.9806 0.453 -0.539 0.710 21 26 20
22.2207 102.1612 -118.4825 0.123 -0.969 0.215 44 51 34
22.7090 100.5818 -117.3080 -0.354 -0.793 0.495 26 32 20
23.1118 99.6991 -116.6658 0.104 -0.946 0.306 12 14 9
19.8308 47.0036 -75.6362 0.866 0.140 0.480 8 12 9
19.9118 47.6483 -76.1477 0.866 0.148 0.477 7 12 9
26.2508 29.0505 -62.3283 -0.288 -0.230 0.930 14 18 18
26.9769 28.7685 -62.1866 0.433 -0.720 0.542 11 17 9
27.1421 28.7912 -62.2221 0.526 -0.838 0.146 32 39 24
27.2768 29.0045 -62.4029 0.652 -0.754 -0.080 67 75 51
27.7729 29.0680 -62.5059 0.527 -0.838 0.142 91 102 61
28.5702 28.2041 -61.9182 -0.590 -0.497 0.636 83 93 60
29.2464 26.9141 -60.9851 0.041 -0.552 0.833 15 21 11
29.4237 26.8061 -60.9199 0.655 -0.728 -0.201 9 14 7
29.5633 26.9716 -61.0640 0.655 -0.728 -0.201 29 34 25
29.8011 26.4040 -60.6470 0.444 -0.760 -0.475 67 74 57
29.9380 26.5858 -60.8035 0.523 -0.733 -0.434 88 97 69
30.0764 26.7600 -60.9543 0.680 -0.661 -0.317 88 99 60
22.6655 100.4217 -117.5956 -0.354 -0.793 0.495 38 46 21
23.0133 100.0247 -117.3235 0.063 -0.929 0.365 11 14 5
32.4593 23.8227 -58.9205 0.122 -0.339 0.933 14 16 10
26.2321 28.9276 -62.4608 0.370 -0.058 0.927 9 13 13
26.9720 28.5613 -62.2532 -0.202 -0.414 0.888 11 16 9
27.8314 28.4416 -62.2513 -0.153 -0.429 0.890 32 40 17
27.9881 28.5110 -62.3223 -0.169 -0.403 0.899 32 40 18
28.1652 28.4448 -62.2895 -0.256 -0.452 0.855 31 39 17
28.3482 28.3355 -62.2235 -0.589 -0.493 0.640 30 38 16
29.2324 26.7609 -61.0860 0.041 -0.552 0.833 9 14 8
29.3842 26.8376 -61.1622 0.655 -0.728 -0.201 9 14 8
29.5240 27.0033 -61.3068 0.655 -0.728 -0.201 23 29 19
29.7408 26.5968 -61.0120 0.444 -0.760 -0.475 50 57 40
29.8861 26.7187 -61.1229 0.441 -0.769 -0.463 73 81 54
30.0208 26.9243 -61.2981 0.440 -0.771 -0.460 83 93 57
22.1940 101.3170 -118.6633 0.434 -0.888 -0.154 90 102 55
22.6219 100.2615 -117.8833 -0.354 -0.793 0.495 47 57 24
22.9945 99.6504 -117.4449 0.052 -0.924 0.379 8 11 1
32.2818 23.7673 -59.0697 -0.397 -0.486 0.779 67 73 45
32.4435 23.6827 -59.0207 0.131 -0.329 0.935 47 52 31
32.6191 23.4578 -58.8635 0.001 -0.994 -0.109 23 27 13
32.9418 23.2646 -58.7468 0.090 -0.873 -0.480 8 14 4
20.3966 46.8163 -76.1153 0.951 -0.258 -0.169 7 11 11
24.4434 29.0842 -62.6252 -0.354 -0.499 0.791 7 11 10
25.3270 28.0435 -61.9018 0.463 0.175 0.869 7 10 15
25.4901 28.0822 -61.9495 0.465 0.172 0.869 7 11 16
26.2023 28.8691 -62.6425 0.368 -0.071 0.927 7 12 5
26.7829 28.4480 -62.3734 -0.205 -0.426 0.881 6 11 3
26.9595 28.4008 -62.3551 -0.205 -0.426 0.881 12 17 10
28.2588 27.5739 -61.8436 0.044 0.088 0.995 12 18 9
28.4263 27.5591 -61.8497 0.044 0.088 0.995 12 17 7
28.7789 27.4012 -61.7630 -0.098 0.012 0.995 15 20 12
29.3518 26.8177 -61.3657 0.617 -0.765 -0.184 7 11 12
29.4846 27.0351 -61.5504 0.655 -0.728 -0.201 8 13 8
29.6641 26.9100 -61.4712 0.439 -0.768 -0.467 18 24 12
29.8038 27.0800 -61.6194 0.439 -0.768 -0.467 31 39 19
29.9571 27.1493 -61.6900 0.455 -0.761 -0.463 52 60 35
30.1199 27.1444 -61.7034 0.552 -0.746 -0.372 75 84 54
30.2821 27.1434 -61.7198 0.611 -0.757 -0.229 88 97 65
21.7641 101.8218 -119.4353 -0.348 -0.737 0.580 92 103 61
22.1170 101.4346 -119.1688 -0.367 -0.639 0.676 89 101 54
22.5783 100.1013 -118.1711 -0.354 -0.793 0.495 55 65 31
22.9710 99.3178 -117.5976 0.043 -0.925 0.377 6 10 1
32.4564 23.2702 -58.9098 -0.081 -0.987 -0.136 89 97 59
32.6081 23.2725 -58.9277 0.173 -0.968 -0.182 75 81 52
32.7742 23.1300 -58.8334 0.337 -0.812 -0.477 48 54 29
32.9288 23.0963 -58.8233 0.401 -0.754 -0.521 22 31 8
27.2547 85.7553 -107.4054 0.883 -0.413 0.224 11 17 7
19.6188 45.2299 -75.0672 0.989 -0.148 0.015 8 16 3
20.2769 45.0722 -75.0122 0.934 -0.277 -0.224 11 20 1
25.7468 27.3791 -61.6525 0.901 0.068 0.429 20 24 11
25.8785 27.5855 -61.8289 0.920 0.063 0.387 24 28 11
26.9410 28.2776 -62.4854 -0.229 -0.470 0.852 14 16 12
27.8845 27.6106 -62.0591 0.021 0.080 0.997 9 13 16
28.0656 27.5116 -62.0001 0.026 0.080 0.996 9 12 19
28.2428 27.4352 -61.9585 0.026 0.077 0.997 9 12 17
28.4390 27.2267 -61.8149 0.034 0.084 0.996 7 12 10
28.6216 27.1039 -61.7374 0.045 0.092 0.995 6 11 6
28.8020 26.9915 -61.6678 0.050 0.097 0.994 7 12 10
29.6355 26.8632 -61.6542 0.581 -0.727 -0.366 12 17 10
29.7720 27.0581 -61.8220 0.461 -0.761 -0.457 13 18 9
29.9113 27.2351 -61.9760 0.461 -0.761 -0.457 10 15 6
30.0935 27.0827 -61.8751 0.530 -0.759 -0.378 16 22 10
30.2680 26.9850 -61.8165 0.554 -0.823 -0.125 32 39 21
21.7423 101.4749 -119.5836 -0.354 -0.583 0.732 86 95 62
22.0811 101.2043 -119.4061 -0.367 -0.639 0.676 91 102 63
22.5347 99.9411 -118.4589 -0.354 -0.793 0.495 58 67 37
22.9356 99.0893 -117.8301 0.054 -0.924 0.380 13 16 2
32.5778 23.2732 -59.1358 -0.074 -0.986 -0.146 90 101 59
32.8876 23.2120 -59.1200 0.402 -0.751 -0.523 68 78 41
19.7807 45.2035 -75.3434 0.964 -0.251 -0.090 54 64 35
19.8497 45.8826 -75.8871 0.923 -0.362 -0.128 58 69 37
20.0054 46.1488 -76.1136 0.921 -0.366 -0.135 50 62 25
25.9592 26.9116 -61.5334 0.867 -0.496 -0.052 72 80 44
26.0539 27.3230 -61.8683 0.936 -0.338 0.095 82 90 50
26.4479 27.9653 -62.4167 0.620 -0.763 0.182 82 90 53
26.5981 28.0751 -62.5192 0.618 -0.757 0.214 60 67 36
26.9316 28.0993 -62.5729 -0.223 -0.488 0.844 11 14 8
27.5019 27.6856 -62.3054 -0.350 -0.213 0.912 13 16 7
27.6798 27.6152 -62.2683 -0.344 -0.224 0.912 11 13 7
27.8751 27.4295 -62.1418 -0.070 -0.007 0.997 12 14 14
28.0468 27.3920 -62.1300 -0.070 -0.007 0.997 12 14 16
28.4240 27.0815 -61.9240 -0.346 -0.225 0.911 8 10 8
28.7853 26.8576 -61.7846 -0.349 -0.228 0.909 3 5 2
29.2371 25.9740 -61.1335 0.009 -0.480 0.877 10 12 10
29.7684 26.8235 -61.8599 0.686 -0.713 -0.145 8 13 8
29.8935 27.1066 -62.0966 0.528 -0.745 -0.408 11 16 10
30.1444 26.4231 -61.5826 0.549 -0.726 0.414 11 17 9
30.3225 26.2881 -61.4945 0.437 -0.776 0.455 11 17 7
30.5096 26.0768 -61.3470 0.365 -0.639 0.677 14 21 7
30.7487 25.4340 -60.8640 -0.009 -0.262 0.965 27 34 16
30.9794 24.8384 -60.4174 -0.179 -0.500 0.847 47 55 32
32.5307 23.4363 -59.4709 -0.042 -0.982 -0.182 86 97 56
27.4003 85.9711 -108.3461 -0.362 -0.879 -0.311 39 45 32
19.8251 45.7460 -76.0585 0.991 -0.087 0.106 102 115 71
19.8518 46.6426 -76.7720 0.973 -0.177 0.150 95 108 61
19.9503 47.2012 -77.2250 0.971 -0.179 0.156 88 101 60
20.1341 47.3440 -77.3570 0.991 -0.132 0.031 71 80 52
20.3609 47.2720 -77.3233 0.942 -0.331 -0.059 35 42 26
20.5534 47.3710 -77.4216 0.944 -0.302 -0.135 13 19 8
20.6125 48.1582 -78.0518 0.940 -0.302 -0.156 7 12 5
24.6243 28.3847 -62.7909 -0.437 -0.517 0.736 30 36 26
25.8778 27.1425 -61.9353 -0.138 -0.408 0.903 103 113 67
26.0372 27.1926 -61.9915 0.855 -0.501 0.133 103 113 61
26.9379 27.8261 -62.5864 -0.166 -0.848 0.503 10 12 4
27.1051 27.8314 -62.6079 -0.158 -0.833 0.530 20 22 18
27.5327 27.2539 -62.1941 -0.571 -0.728 0.379 52 56 40
27.7207 27.1162 -62.1043 -0.570 -0.731 0.375 39 43 27
28.1151 26.7046 -61.8187 -0.505 -0.707 0.495 9 12 1
28.2988 26.5774 -61.7368 -0.512 -0.726 0.458 11 14 4
28.5111 26.2543 -61.5026 -0.537 -0.685 0.493 14 17 10
29.0452 25.9372 -61.3063 0.170 -0.339 0.925 9 11 5
29.3456 26.1017 -61.4676 0.184 -0.339 0.923 8 10 9
29.5230 25.9872 -61.3952 0.203 -0.342 0.917 9 11 10
29.6877 25.9622 -61.3923 0.234 -0.382 0.894 8 10 8
29.8517 25.9393 -61.3910 0.234 -0.375 0.897 9 11 10
30.2595 25.2708 -60.9032 0.421 0.209 0.883 11 13 9
30.4166 25.2856 -60.9311 0.196 -0.024 0.980 12 14 9
30.5898 25.1709 -60.8580 0.200 -0.039 0.979 10 13 6
30.8005 24.7472 -60.5439 0.046 -0.039 0.998 7 11 0
30.9731 24.6214 -60.4619 -0.003 -0.468 0.884 12 16 5
31.5839 23.4048 -59.5605 -0.379 -0.431 0.819 17 23 11
31.7398 23.3866 -59.5621 -0.381 -0.425 0.821 13 20 4
32.0702 23.1727 -59.4266 -0.385 -0.434 0.815 68 76 54
32.2220 23.1820 -59.4496 -0.369 -0.433 0.823 80 89 57
32.3563 23.3530 -59.5990 -0.074 -0.987 -0.145 85 95 61
32.5065 23.3775 -59.6339 0.173 -0.971 -0.165 87 97 62
32.6401 23.5623 -59.7941 0.334 -0.829 -0.448 89 100 62
32.7845 23.6444 -59.8741 0.428 -0.791 -0.438 94 104 66
27.6435 85.7125 -108.5452 -0.379 -0.877 -0.295 13 19 8
27.8989 85.8843 -108.7078 -0.374 -0.876 -0.304 11 18 5
29.1263 87.4122 -110.0454 0.505 -0.642 -0.577 91 103 55
29.6894 87.1633 -109.9062 -0.345 -0.938 0.040 88 100 51
20.0968 47.2672 -77.5785 0.991 -0.130 0.001 71 80 52
20.3222 47.2026 -77.5501 0.942 -0.331 -0.059 37 44 28
24.5850 28.3705 -63.0083 -0.436 -0.522 0.733 22 28 19
25.8827 26.8929 -61.9657 0.824 -0.502 0.261 95 104 58
26.7486 27.7189 -62.7110 0.615 -0.773 0.158 43 49 24
26.9137 27.7380 -62.7431 -0.166 -0.848 0.503 12 15 6
27.0868 27.7078 -62.7367 -0.166 -0.848 0.503 19 21 15
27.5185 27.1057 -62.3020 -0.576 -0.723 0.381 84 90 63
27.7098 26.9469 -62.1952 -0.571 -0.727 0.380 92 98 69
27.9370 26.5518 -61.9042 -0.396 -0.894 -0.208 80 86 55
28.5529 25.7328 -61.3157 -0.380 -0.892 -0.245 25 29 12
29.8467 25.7194 -61.4372 0.413 0.183 0.892 8 9 11
30.0594 25.3233 -61.1439 0.371 0.169 0.913 9 11 10
30.4213 24.9863 -60.9128 0.421 0.209 0.883 9 11 8
30.6037 24.7964 -60.7804 0.428 0.215 0.878 9 11 8
30.7560 24.8401 -60.8307 0.077 -0.040 0.996 13 16 9
30.9654 24.4166 -60.5153 0.065 -0.089 0.994 13 15 9
31.1587 24.1120 -60.2928 0.044 -0.073 0.996 11 13 10
31.3829 23.5330 -59.8552 -0.267 -0.239 0.934 20 22 18
31.5748 23.2113 -59.6189 -0.375 -0.430 0.821 9 14 9
31.7385 23.1230 -59.5655 0.065 -0.214 0.975 8 13 6
31.8967 23.0795 -59.5470 -0.070 -0.320 0.945 16 22 13
32.0695 22.8994 -59.4214 -0.073 -0.034 0.997 29 35 26
32.2138 22.9738 -59.4953 -0.384 -0.433 0.816 36 43 25
28.7614 87.9051 -110.7821 0.509 -0.628 -0.588 91 102 64
29.6285 87.3014 -110.3906 -0.347 -0.937 0.044 89 101 52
24.4912 28.6379 -63.4455 -0.246 -0.462 0.852 12 17 12
24.7193 28.3507 -63.2394 -0.274 -0.486 0.830 20 25 18
25.6319 27.1241 -62.3530 -0.357 -0.861 0.362 85 92 60
25.7955 27.1533 -62.3928 0.522 -0.843 0.128 96 104 65
26.8803 27.7048 -62.9427 -0.159 -0.868 0.470 14 16 10
29.2063 25.4448 -61.3747 -0.382 -0.893 -0.240 11 13 8
29.3912 25.2750 -61.2579 -0.382 -0.919 0.093 8 10 8
29.9237 24.8898 -61.0044 0.480 0.169 0.861 7 9 10
30.1081 24.6984 -60.8704 0.394 0.163 0.905 7 10 6
30.2854 24.5539 -60.7730 0.439 0.196 0.877 8 11 4
30.4458 24.5350 -60.7742 0.440 0.199 0.875 7 10 3
30.6096 24.4866 -60.7522 0.433 0.191 0.881 7 10 4
30.7937 24.2723 -60.5998 0.084 -0.046 0.995 10 13 5
30.9952 23.9074 -60.3290 0.061 -0.070 0.996 15 19 7
31.1609 23.8250 -60.2800 0.047 -0.069 0.996 6 10 1
31.3738 23.3407 -59.9151 -0.263 -0.235 0.936 8 10 5
31.5679 23.0001 -59.6630 -0.388 -0.424 0.818 14 18 18
31.7311 22.9141 -59.6109 0.065 -0.214 0.975 12 15 18
31.8864 22.8940 -59.6106 -0.070 -0.320 0.945 8 12 14
32.0661 22.6511 -59.4350 -0.071 -0.031 0.997 10 14 13
32.2384 22.4660 -59.3047 0.035 0.034 0.999 14 19 15
28.2271 87.1455 -110.5064 0.617 -0.570 -0.543 27 33 19
29.5781 87.3025 -110.7684 -0.347 -0.937 0.044 86 97 58
24.5141 28.3001 -63.4119 -0.277 -0.437 0.856 9 13 13
24.6747 28.3642 -63.4793 -0.227 -0.451 0.863 11 15 12
24.8648 28.2722 -63.4247 -0.241 -0.463 0.853 9 17 7
25.0986 27.9438 -63.1853 -0.463 -0.563 0.684 11 17 5
25.5769 27.2029 -62.6401 -0.379 -0.875 0.300 25 29 13
25.7583 27.1363 -62.6050 -0.379 -0.875 0.300 46 51 31
29.7246 24.9297 -61.2360 -0.523 -0.813 0.254 18 19 20
30.5009 23.8481 -60.4480 0.401 -0.138 0.906 25 29 12
30.6907 23.5864 -60.2576 0.412 -0.113 0.904 21 25 8
30.8518 23.5440 -60.2398 -0.275 -0.310 0.910 19 24 7
31.0289 23.3681 -60.1167 -0.301 -0.317 0.899 22 27 6
31.2011 23.2260 -60.0202 -0.295 -0.323 0.899 19 25 1
31.3680 23.1211 -59.9530 -0.245 -0.234 0.941 14 18 2
31.5545 22.8442 -59.7500 -0.388 -0.424 0.818 7 12 9
31.7280 22.6692 -59.6273 -0.298 -0.450 0.842 8 11 16
31.8869 22.6151 -59.5999 -0.298 -0.450 0.842 14 18 21
32.2431 22.1436 -59.2582 0.049 0.006 0.999 5 8 8
32.3973 22.1139 -59.2499 0.081 0.016 0.997 11 15 12
32.5584 22.0167 -59.1882 0.416 0.115 0.902 13 18 13
28.0202 85.8194 -109.8078 0.758 -0.520 -0.395 6 10 10
28.1847 87.0352 -110.7976 0.726 -0.503 -0.469 7 12 7
29.2315 87.5966 -111.3519 -0.252 -0.924 -0.288 40 48 24
25.6566 26.5484 -62.3526 -0.268 -0.288 0.920 13 15 12
21.5723 52.3750 -82.6890 0.340 -0.125 0.932 18 21 12
21.9753 51.3348 -81.8936 0.183 -0.226 0.957 33 36 27
29.6905 24.9263 -61.4504 -0.514 -0.826 0.231 26 28 27
30.7074 23.1963 -60.1619 -0.652 -0.758 0.021 73 79 51
30.8794 23.0629 -60.0718 -0.632 -0.754 0.180 79 85 57
31.3782 22.7687 -59.8851 -0.182 -0.592 0.785 57 63 36
31.7156 22.5054 -59.7071 -0.302 -0.456 0.837 11 15 11
31.8700 22.4895 -59.7096 -0.300 -0.462 0.835 17 22 17
32.3838 21.9579 -59.3338 0.033 -0.401 0.916 10 15 7
32.5360 21.9445 -59.3380 0.267 -0.116 0.957 8 13 4
28.0465 84.9512 -109.4944 0.771 -0.550 -0.322 7 11 14
28.2183 86.0649 -110.4059 0.771 -0.541 -0.336 7 11 13
29.0155 86.2794 -110.6573 -0.049 -0.254 0.966 11 16 9
29.2655 86.5436 -110.8943 -0.063 -0.261 0.963 13 18 10
21.4017 51.8053 -82.5137 0.332 -0.160 0.930 8 10 6
21.7260 51.2188 -82.0730 0.280 -0.075 0.957 8 11 4
22.0793 50.4522 -81.4901 0.277 -0.233 0.932 11 13 7
22.5605 48.9310 -80.3117 -0.111 -0.299 0.948 18 19 22
22.9000 48.1956 -79.7525 0.129 -0.461 0.878 26 27 30
23.1659 47.8739 -79.5195 0.125 -0.451 0.884 18 19 23
26.8866 26.9696 -63.0419 -0.455 -0.161 0.876 16 17 22
27.4307 26.7076 -62.8843 -0.501 -0.242 0.831 55 60 38
28.1823 26.1357 -62.4973 -0.472 -0.860 0.195 75 81 54
30.6833 23.1282 -60.3200 -0.653 -0.757 0.023 98 106 69
31.8746 22.1757 -59.6697 -0.649 -0.732 0.207 19 25 11
32.3835 21.6805 -59.3207 -0.554 -0.796 0.243 34 41 25
32.5438 21.5872 -59.2613 -0.554 -0.796 0.243 20 27 11
28.7226 85.9244 -110.7248 0.249 -0.023 0.968 5 9 9
28.9513 86.4388 -111.1617 -0.053 -0.225 0.973 6 10 8
29.2265 86.3982 -111.1561 -0.053 -0.225 0.973 8 12 9
29.5091 86.2586 -111.0713 -0.063 -0.230 0.971 8 14 4
21.3784 51.6445 -82.6812 0.390 -0.027 0.920 8 12 13
21.5976 51.6479 -82.7053 0.327 -0.081 0.941 11 16 12
21.8382 51.5280 -82.6318 0.411 -0.103 0.906 11 16 10
22.1077 51.2382 -82.4238 0.572 -0.217 0.791 11 13 12
28.2372 25.5400 -62.2470 0.233 -0.147 0.961 26 29 15
29.2686 25.1488 -62.0313 -0.418 -0.904 0.088 15 20 15
30.6475 23.1505 -60.5502 -0.653 -0.757 0.041 88 95 54
30.8328 22.9152 -60.3780 -0.652 -0.757 0.040 92 101 60
32.2130 21.5846 -59.4368 -0.637 -0.741 0.212 78 86 65
32.3661 21.5616 -59.4331 -0.637 -0.740 0.217 78 87 61
28.9402 85.9576 -111.1552 0.519 0.234 0.822 8 13 7
29.7657 85.7977 -111.1063 0.204 -0.064 0.977 9 16 1
30.1672 84.0597 -109.7404 -0.379 -0.925 -0.008 7 13 2
30.2809 112.0250 -132.3578 -0.459 -0.882 0.110 12 16 19
20.4360 41.0694 -74.3139 0.774 -0.418 -0.476 8 15 9
22.0581 51.2279 -82.7088 0.422 -0.122 0.898 9 13 10
29.6002 24.8270 -62.0250 -0.306 -0.290 0.907 10 13 3
30.7705 23.1497 -60.7775 -0.649 -0.759 0.059 85 92 58
29.2516 84.8479 -110.6683 0.556 0.206 0.805 10 16 7
29.4860 85.2835 -111.0442 0.552 0.201 0.810 8 14 1
30.1821 83.2181 -109.4363 -0.590 -0.628 0.507 17 24 10
21.9255 49.2404 -81.3779 0.988 0.043 0.147 14 20 5
22.2723 49.7141 -81.7965 0.515 0.037 0.856 22 29 16
26.5889 26.0691 -62.9701 0.320 -0.735 0.598 25 31 17
26.7597 26.0454 -62.9672 0.315 -0.736 0.599 23 29 14
27.0951 26.0297 -62.9864 -0.123 -0.689 0.714 8 13 5
27.2815 25.9063 -62.9039 -0.590 -0.393 0.705 9 14 8
28.1427 24.6297 -61.9474 -0.345 -0.309 0.886 14 19 12
28.3229 24.5129 -61.8695 -0.193 -0.029 0.981 14 19 15
28.4935 24.4537 -61.8376 -0.193 -0.029 0.981 9 13 12
29.8049 24.2495 -61.7967 -0.294 -0.274 0.916 8 11 5
30.7374 23.1512 -60.9921 -0.646 -0.761 0.060 47 52 29
30.9195 22.9412 -60.8386 -0.645 -0.762 0.056 78 85 52
28.1301 81.7704 -108.4379 -0.206 -0.968 -0.145 14 20 8
28.4074 81.6385 -108.3570 -0.192 -0.968 -0.159 19 25 16
28.6460 81.9367 -108.6225 -0.075 -0.970 -0.232 29 35 26
30.1960 82.3957 -109.1439 -0.627 -0.591 0.508 47 56 30
20.2203 42.5792 -76.0737 0.728 -0.440 -0.526 64 76 41
20.2108 43.6186 -76.9212 0.751 -0.434 -0.498 58 69 37
21.0789 45.5357 -78.5681 0.377 -0.754 -0.538 23 27 27
21.2050 45.9705 -78.9350 0.808 -0.537 -0.244 34 39 29
21.3482 46.3235 -79.2366 0.808 -0.537 -0.244 44 51 33
21.6930 46.7348 -79.6050 0.647 -0.533 -0.545 66 75 43
21.7790 47.4141 -80.1676 0.647 -0.533 -0.545 71 80 47
21.8771 48.0409 -80.6886 0.635 -0.542 -0.551 77 87 54
22.2869 49.3420 -81.7894 0.515 0.037 0.856 79 88 57
26.6074 25.7375 -62.9298 0.312 -0.754 0.579 66 76 45
27.0661 25.9730 -63.1655 0.044 -0.642 0.766 14 19 11
28.2906 24.4861 -62.0675 -0.351 -0.185 0.918 6 11 3
28.6782 24.0611 -61.7572 -0.418 -0.152 0.895 8 13 8
29.3800 23.6320 -61.4732 -0.091 -0.120 0.989 8 12 12
29.8343 23.7853 -61.6413 -0.244 -0.158 0.957 10 12 13
30.1968 23.4402 -61.3939 -0.191 -0.044 0.981 9 11 9
30.3788 23.2508 -61.2565 -0.162 -0.034 0.986 11 13 8
31.3220 21.9151 -60.2554 -0.119 -0.050 0.992 61 64 51
30.0437 83.7461 -110.6059 -0.388 -0.922 0.019 78 89 49
20.0351 44.2126 -77.6729 0.742 -0.435 -0.511 97 110 64
20.0644 45.0874 -78.3920 0.740 -0.457 -0.494 91 103 66
20.4437 45.2948 -78.5974 0.360 -0.762 -0.538 27 33 22
20.6116 45.5086 -78.7882 0.360 -0.762 -0.538 6 11 9
20.7935 45.6543 -78.9245 0.362 -0.758 -0.543 11 15 18
20.9393 45.9870 -79.2106 0.367 -0.759 -0.538 31 35 37
21.4305 46.7338 -79.8681 0.600 -0.563 -0.568 88 98 64
21.5250 47.3612 -80.3908 0.600 -0.563 -0.568 88 99 56
21.6349 47.9181 -80.8571 0.589 -0.576 -0.567 90 102 56
21.7349 48.5397 -81.3755 0.577 -0.596 -0.558 94 106 60
22.0225 49.3309 -82.0504 0.618 -0.583 -0.527 96 107 61
22.3294 48.8133 -81.6552 0.535 0.049 0.843 100 112 65
28.3416 23.9247 -61.8358 -0.360 -0.305 0.882 22 29 9
28.5285 23.7551 -61.7145 -0.361 -0.302 0.883 11 17 2
28.7059 23.6425 -61.6388 -0.354 -0.308 0.883 8 14 3
29.0666 23.3624 -61.4432 -0.366 -0.335 0.868 8 13 8
31.3222 21.6518 -60.2534 -0.562 -0.470 0.680 16 18 18
29.9615 84.1733 -111.3266 -0.368 -0.930 0.003 84 95 51
19.9435 45.4176 -78.9385 0.743 -0.456 -0.491 88 100 64
19.9958 46.1986 -79.5850 0.743 -0.456 -0.491 65 73 50
20.3249 45.6240 -79.1433 0.360 -0.762 -0.538 34 39 29
20.4933 45.8392 -79.3357 0.360 -0.762 -0.538 10 14 12
20.6623 46.0550 -79.5287 0.360 -0.762 -0.538 7 11 14
20.8221 46.3206 -79.7617 0.367 -0.759 -0.538 32 36 38
21.1736 46.6985 -80.1047 0.600 -0.563 -0.568 95 103 80
21.2668 47.3267 -80.6295 0.600 -0.563 -0.568 98 108 74
21.3611 47.9618 -81.1600 0.600 -0.563 -0.568 96 108 65
21.4766 48.4954 -81.6091 0.589 -0.576 -0.567 96 108 62
22.2943 48.7257 -81.8740 0.503 0.030 0.864 99 111 62
26.5697 25.5047 -63.1921 0.181 -0.814 0.552 100 111 67
26.7179 25.6098 -63.2921 0.169 -0.818 0.549 76 86 52
29.4270 23.9289 -62.1620 -0.086 0.041 0.995 5 10 9
30.2291 22.6965 -61.2238 -0.382 -0.295 0.876 14 17 9
30.4252 22.3944 -60.9937 -0.391 -0.299 0.871 14 16 11
30.2899 82.7209 -110.5442 -0.643 -0.668 0.374 92 102 64
19.8070 45.8208 -79.5461 0.402 -0.725 -0.559 48 58 36
19.9502 46.1611 -79.8398 0.379 -0.735 -0.563 35 41 27
20.9895 47.3877 -80.9460 0.585 -0.587 -0.559 55 61 47
21.0990 47.9377 -81.4094 0.585 -0.587 -0.559 81 89 65
22.2649 48.6048 -82.0661 0.502 0.036 0.864 101 111 75
26.5433 25.4319 -63.3582 0.053 -0.760 0.648 105 114 80
26.6904 25.5428 -63.4631 0.082 -0.753 0.653 83 92 64
26.8531 25.5645 -63.4959 0.076 -0.756 0.650 32 39 24
31.4935 20.9721 -60.1359 -0.355 -0.364 0.861 8 14 4
25.3948 85.2780 -112.5804 0.898 -0.438 -0.038 10 14 12
28.4693 84.6848 -112.3732 -0.061 -0.900 -0.432 10 15 11
28.7310 84.7985 -112.4909 -0.065 -0.899 -0.433 18 23 13
29.8316 84.5682 -112.4019 -0.377 -0.926 0.003 70 77 58
30.2650 82.4055 -110.6591 -0.656 -0.666 0.356 85 93 70
20.9502 48.4450 -82.1094 0.537 -0.609 -0.584 19 26 10
21.0590 49.0150 -82.5907 0.548 -0.602 -0.581 25 33 13
22.3618 47.7752 -81.6836 0.424 0.085 0.902 96 103 84
29.9914 21.6672 -60.7867 -0.073 -0.994 -0.075 15 21 13
30.1276 21.8035 -60.9118 -0.078 -0.994 -0.074 20 23 12
31.2588 20.1686 -59.6625 0.340 -0.878 -0.337 30 35 17
31.5302 20.4097 -59.8865 0.386 -0.874 -0.296 27 33 18
31.6725 20.4786 -59.9564 -0.197 -0.961 0.194 16 23 9
31.8410 20.3239 -59.8437 -0.183 -0.966 0.182 9 15 4
29.4796 84.9685 -113.0843 -0.339 -0.924 -0.179 28 34 23
29.9187 82.8152 -111.3435 -0.511 -0.859 -0.034 36 42 32
30.2633 81.7875 -110.5250 -0.478 -0.877 -0.049 50 56 43
30.6769 79.7731 -108.8968 -0.507 -0.861 -0.030 54 60 44
21.0170 48.9587 -82.8378 0.701 -0.528 -0.479 9 14 7
21.1456 49.4333 -83.2431 0.731 -0.524 -0.436 14 19 10
21.4091 49.1864 -83.0619 0.908 -0.419 -0.034 20 26 17
21.6327 49.1506 -83.0522 0.409 -0.842 0.352 24 29 20
21.9639 48.5163 -82.5557 0.236 -0.727 0.645 34 39 31
22.5972 46.1724 -80.6682 0.111 -0.088 0.990 45 52 43
23.0010 45.0729 -79.7923 0.182 -0.057 0.982 61 66 57
29.9097 22.0110 -61.2806 0.343 -0.841 -0.419 20 25 17
30.7615 20.2639 -59.9077 -0.509 -0.322 0.799 66 74 49
30.9603 19.8979 -59.6219 0.298 -0.941 -0.158 77 86 56
31.1321 19.7315 -59.4993 0.497 -0.782 -0.376 77 86 55
31.2634 19.8800 -59.6342 0.497 -0.782 -0.376 77 86 55
31.4024 19.9695 -59.7209 0.480 -0.794 -0.373 77 86 55
31.6798 20.1571 -59.9015 0.384 -0.887 -0.254 39 47 22
33.2238 18.1773 -58.3977 -0.526 -0.850 0.045 8 12 12
28.1073 81.5695 -110.5269 0.116 -0.425 0.898 6 10 11
29.4872 84.2462 -112.8713 -0.133 -0.439 0.889 6 11 8
30.6867 79.0024 -108.6288 -0.427 -0.891 -0.156 17 22 13
36.5199 39.6416 -76.4995 0.978 -0.204 -0.054 6 11 13
23.1313 44.0590 -79.2458 0.052 -0.075 0.996 10 15 9
23.3668 43.8874 -79.1239 0.082 -0.092 0.992 12 17 12
28.3913 22.4568 -61.7343 -0.046 -0.380 0.924 94 102 63
29.8435 22.2415 -61.6840 0.283 -0.934 -0.218 28 33 25
30.0329 22.0029 -61.5022 0.265 -0.660 -0.703 54 62 43
30.7504 20.1027 -59.9845 -0.508 -0.318 0.801 84 93 62
30.9273 19.9061 -59.8366 -0.270 -0.932 0.243 84 94 56
31.0976 19.7528 -59.7241 0.281 -0.890 -0.359 89 101 58
31.6741 19.9447 -59.9350 0.474 -0.805 -0.357 60 70 32
29.1546 84.3885 -113.3445 0.210 0.086 0.974 4 7 8
30.1096 82.5176 -111.8722 -0.496 -0.867 -0.047 7 11 11
30.4504 81.5212 -111.0732 -0.453 -0.890 -0.049 7 11 9
34.9571 55.2868 -89.6397 0.119 -0.593 0.796 9 12 15
22.3776 48.0349 -82.7828 0.500 0.162 0.851 9 14 7
29.6458 22.2878 -61.9239 0.380 -0.897 -0.224 9 14 11
30.7449 19.9001 -60.0269 -0.509 -0.315 0.801 85 95 61
30.9002 19.8679 -60.0136 -0.270 -0.932 0.243 95 105 66
