ply
format ascii 1.0
element vertex 873
property float x
property float y
property float z
property float nx
property float ny
property float nz
property uchar diffuse_red
property uchar diffuse_green
property uchar diffuse_blue
end_header
20.6993 74.3620 -22.1532 0.232 -0.973 -0.017 77 84 39
20.7811 74.4702 -22.2662 0.238 -0.968 0.085 78 86 38
21.3731 74.6124 -22.8321 -0.023 -0.999 -0.046 243 249 203
21.4584 74.6467 -22.9191 -0.002 -0.999 -0.041 220 226 175
21.5441 74.6648 -23.0001 0.243 -0.962 0.127 149 156 102
21.9759 74.8659 -23.4510 0.425 -0.905 -0.028 207 216 161
22.1506 74.9178 -23.6219 0.437 -0.900 -0.007 157 167 117
22.4156 75.2631 -23.9858 0.236 -0.892 -0.385 52 61 18
23.2265 75.6636 -24.8418 -0.340 -0.910 -0.236 98 106 57
23.5008 75.7238 -25.1017 0.197 -0.958 -0.208 104 113 59
23.5931 75.7634 -25.1968 0.197 -0.958 -0.208 105 114 58
32.6074 64.1103 -28.3921 -0.108 -0.797 -0.594 99 99 49
33.4042 64.6940 -29.3078 -0.046 -0.995 -0.090 110 119 56
37.9718 66.5941 -33.9894 -0.940 -0.302 0.162 109 112 56
38.0349 66.4077 -33.9706 -0.940 -0.302 0.162 104 107 51
38.1075 66.2586 -33.9747 -0.939 -0.307 0.158 96 99 44
38.1696 66.0715 -33.9548 -0.937 -0.311 0.162 95 100 44
47.7495 87.3802 -50.5715 0.049 -0.926 0.373 59 65 30
47.9337 87.4460 -50.7561 0.145 -0.857 0.495 51 56 26
48.1245 87.5302 -50.9536 0.323 -0.855 0.406 44 48 23
48.2824 87.5108 -51.0820 0.124 -0.872 0.473 36 39 16
48.3860 87.3239 -51.0980 0.048 -0.889 0.455 31 35 13
16.5844 64.6545 -14.9297 0.300 -0.909 -0.290 101 118 71
16.8050 65.0297 -15.2683 0.369 -0.861 -0.349 97 111 74
17.2696 68.2087 -16.9250 0.258 -0.868 -0.423 63 80 37
19.5723 73.6960 -21.0806 0.368 -0.659 0.656 125 134 88
19.7338 73.7125 -21.2266 0.196 -0.782 0.591 146 156 104
19.8124 73.7916 -21.3257 0.296 -0.862 0.410 101 111 59
19.8910 73.8819 -21.4292 0.146 -0.981 0.128 78 88 36
19.9730 73.8782 -21.4986 0.146 -0.980 0.134 75 85 34
20.0532 73.9365 -21.5908 0.272 -0.943 0.191 76 86 37
20.1353 73.9402 -21.6633 0.228 -0.957 0.177 68 77 32
20.2170 73.9643 -21.7434 0.483 -0.711 0.512 63 76 29
20.2954 74.1231 -21.8737 0.442 -0.771 0.458 67 79 33
20.3768 74.1825 -21.9675 0.419 -0.781 0.463 70 79 35
20.4600 74.1841 -22.0400 0.419 -0.781 0.463 74 81 37
20.5416 74.2587 -22.1399 0.279 -0.957 0.075 83 90 46
21.1269 74.5184 -22.7480 0.100 -0.977 0.189 245 253 204
21.2109 74.6041 -22.8544 0.170 -0.969 0.179 218 224 175
21.2964 74.6054 -22.9287 0.170 -0.969 0.179 157 164 112
21.5531 74.6839 -23.1815 0.429 -0.871 0.238 129 136 85
21.6390 74.7374 -23.2768 0.425 -0.871 0.246 161 168 115
21.7253 74.7682 -23.3635 0.229 -0.878 0.420 212 221 163
21.8120 74.7684 -23.4384 0.234 -0.882 0.409 223 233 175
21.8988 74.8032 -23.5271 0.154 -0.956 0.251 169 178 123
21.9858 74.8578 -23.6238 0.411 -0.911 -0.028 94 104 52
22.9579 74.9593 -24.5036 0.048 -0.927 -0.373 99 109 56
23.0608 75.9212 -24.9722 -0.129 -0.961 -0.243 100 110 58
23.4473 77.0453 -25.7499 0.179 -0.983 -0.050 107 116 60
29.6937 63.1174 -25.6453 -0.169 -0.931 -0.322 114 123 68
31.6951 63.6494 -27.5840 -0.111 -0.796 -0.596 111 120 66
32.3430 64.0911 -28.3180 -0.108 -0.797 -0.594 98 98 47
32.4537 64.1706 -28.4450 -0.108 -0.797 -0.594 108 108 56
37.9024 66.6027 -34.1115 -0.840 -0.388 0.379 109 110 58
37.9883 66.5012 -34.1456 -0.842 -0.381 0.382 105 105 55
38.0718 66.3910 -34.1741 -0.843 -0.378 0.384 96 99 46
38.1462 66.2480 -34.1820 -0.844 -0.391 0.367 96 99 46
47.3446 87.4348 -50.4926 0.414 -0.907 0.081 63 70 31
47.4942 87.3943 -50.6058 0.172 -0.922 0.347 55 60 27
47.6342 87.3229 -50.6985 0.049 -0.926 0.373 42 46 19
47.8179 87.3878 -50.8828 0.133 -0.858 0.496 33 37 15
16.5259 64.6016 -14.9900 0.298 -0.917 -0.265 100 118 67
16.7426 65.0096 -15.3398 0.372 -0.860 -0.348 99 114 76
19.2580 73.6322 -20.9434 0.312 -0.640 0.702 83 92 49
19.3395 73.6060 -21.0035 0.312 -0.640 0.702 107 116 73
19.4210 73.5798 -21.0637 0.312 -0.640 0.702 149 158 113
19.5010 73.5972 -21.1398 0.368 -0.659 0.656 137 146 101
19.5801 73.6424 -21.2263 0.348 -0.665 0.661 98 107 62
19.8148 73.9000 -21.5319 0.417 -0.908 -0.038 77 84 40
19.8953 73.9406 -21.6177 0.417 -0.908 -0.038 70 79 34
19.9798 73.8640 -21.6604 0.225 -0.958 0.177 66 75 30
20.0594 73.9461 -21.7619 0.267 -0.931 0.248 65 74 28
20.1391 74.0375 -21.8672 0.442 -0.771 0.458 64 76 26
20.2217 74.0414 -21.9402 0.442 -0.771 0.458 66 78 28
20.3878 74.0308 -22.0798 0.353 -0.891 -0.286 89 98 50
20.8812 74.4741 -22.6831 -0.070 -0.997 -0.037 232 241 188
20.9658 74.4843 -22.7604 -0.079 -0.996 -0.043 213 223 165
21.0505 74.4949 -22.8380 0.115 -0.970 0.215 155 165 103
21.1349 74.5426 -22.9300 0.222 -0.943 0.246 119 128 66
21.2203 74.5434 -23.0042 0.222 -0.943 0.246 118 126 67
21.3052 74.5918 -23.0969 0.561 -0.756 0.338 115 123 69
21.4766 74.6251 -23.2585 0.429 -0.871 0.238 203 211 163
21.5623 74.6782 -23.3538 0.425 -0.871 0.246 229 236 190
21.6484 74.7095 -23.4408 0.222 -0.883 0.413 185 193 145
21.8213 74.8373 -23.6412 0.411 -0.909 -0.062 51 59 12
29.0248 63.2334 -25.2665 -0.130 -0.917 -0.378 130 139 82
29.4700 63.2696 -25.6663 -0.419 -0.847 -0.326 113 122 65
29.5499 63.2023 -25.7087 -0.114 -0.955 -0.274 115 124 69
31.4323 63.6027 -27.4973 -0.144 -0.786 -0.601 112 121 64
31.5383 63.6772 -27.6187 -0.153 -0.782 -0.604 106 115 60
32.0860 64.1077 -28.2639 -0.103 -0.799 -0.592 99 103 55
37.8423 66.6469 -34.2560 -0.762 -0.460 0.455 111 111 60
37.9259 66.5363 -34.2844 -0.768 -0.419 0.484 106 106 54
38.0004 66.3918 -34.2915 -0.768 -0.419 0.484 99 99 47
46.8741 87.2730 -50.2702 0.555 -0.787 0.267 66 70 36
47.0557 87.3389 -50.4537 0.555 -0.787 0.267 60 64 35
47.2273 87.3703 -50.6146 0.414 -0.907 0.081 47 52 24
47.3659 87.2954 -50.7049 0.195 -0.921 0.339 37 41 18
47.5137 87.2490 -50.8144 0.039 -0.938 0.343 30 33 14
16.3974 64.6168 -15.0168 -0.672 -0.280 0.685 95 114 60
16.6780 65.0136 -15.4190 0.372 -0.860 -0.348 103 118 80
19.2684 73.5097 -21.0635 0.476 -0.846 0.238 142 149 105
19.7392 73.8989 -21.6276 0.369 -0.927 0.069 60 66 31
19.8189 73.9626 -21.7221 0.360 -0.851 0.382 63 70 31
19.9024 73.9163 -21.7761 0.358 -0.831 0.427 65 72 30
19.9850 73.9033 -21.8426 0.267 -0.931 0.248 67 76 30
20.5538 74.3716 -22.5234 0.217 -0.976 0.026 194 202 152
20.6376 74.3841 -22.6011 0.221 -0.975 0.030 237 245 195
20.7215 74.4007 -22.6805 0.221 -0.975 0.030 223 232 181
20.8898 74.4418 -22.8429 0.311 -0.902 0.299 115 126 62
20.9745 74.4460 -22.9182 0.311 -0.902 0.299 112 123 54
21.2288 74.5449 -23.1783 0.551 -0.759 0.348 190 198 150
21.3143 74.5595 -23.2583 0.413 -0.843 0.346 230 237 196
21.4000 74.5693 -23.3367 0.413 -0.843 0.346 185 192 149
21.4852 74.6659 -23.4491 0.165 -0.985 -0.049 104 111 70
21.5709 74.7491 -23.5568 0.112 -0.978 -0.174 52 60 22
21.6575 74.7492 -23.6320 0.248 -0.896 -0.369 45 52 16
21.7436 74.8744 -23.7567 0.245 -0.896 -0.372 57 64 27
22.5376 75.3939 -24.6534 0.120 -0.975 -0.189 102 113 57
28.7724 63.1389 -25.1633 0.390 -0.912 -0.125 132 142 82
28.8661 63.1930 -25.2662 0.390 -0.912 -0.125 131 140 83
28.9569 63.2208 -25.3560 -0.132 -0.918 -0.375 129 138 81
29.1472 63.3398 -25.5688 -0.504 -0.802 -0.320 114 124 64
31.0737 63.5305 -27.3166 -0.144 -0.786 -0.601 116 123 69
31.9059 64.0121 -28.2312 -0.430 -0.786 -0.444 107 111 61
32.0397 64.2332 -28.4357 -0.106 -0.798 -0.593 108 111 64
37.7708 66.6486 -34.3741 -0.762 -0.460 0.455 113 113 59
37.8473 66.5105 -34.3853 -0.762 -0.460 0.455 108 108 54
37.9366 66.4214 -34.4271 -0.771 -0.440 0.461 97 100 45
38.0119 66.2801 -34.4360 -0.771 -0.440 0.461 97 100 47
45.2549 86.9619 -48.9896 0.449 -0.893 0.032 86 89 44
46.5828 87.1634 -50.2223 0.409 -0.906 0.109 57 61 29
46.7313 87.1245 -50.3356 0.558 -0.783 0.275 49 52 24
46.9203 87.2155 -50.5360 0.555 -0.787 0.267 36 39 20
18.9557 73.4602 -20.9317 0.180 -0.971 0.160 121 129 81
19.0326 73.5213 -21.0233 0.032 -0.967 0.251 129 136 93
19.1128 73.5181 -21.0917 0.040 -0.968 0.249 111 118 76
19.2713 73.5649 -21.2484 0.449 -0.883 -0.138 73 80 37
19.3496 73.6187 -21.3382 0.449 -0.883 -0.138 67 74 31
19.4258 73.7344 -21.4509 0.451 -0.882 -0.135 66 73 31
19.5874 73.7517 -21.5984 0.548 -0.783 0.294 60 66 33
19.6628 73.9194 -21.7314 0.417 -0.775 0.475 59 65 31
19.7451 73.9046 -21.7970 0.407 -0.825 0.392 67 73 38
19.8232 74.0174 -21.9103 0.235 -0.954 0.185 72 79 37
20.3947 74.3188 -22.5286 0.290 -0.901 0.322 234 242 189
20.4785 74.3196 -22.6018 0.290 -0.901 0.322 220 228 175
20.5616 74.3558 -22.6887 0.286 -0.900 0.329 163 172 119
20.6449 74.3961 -22.7773 0.526 -0.770 0.362 115 125 66
20.7289 74.4154 -22.8581 0.526 -0.770 0.362 111 121 60
20.8138 74.3989 -22.9254 0.540 -0.679 0.498 115 125 63
20.8984 74.4092 -23.0030 0.540 -0.679 0.498 137 147 86
20.9820 74.4885 -23.1077 0.492 -0.674 0.551 189 199 142
21.0669 74.5097 -23.1900 0.488 -0.670 0.559 223 231 180
21.1523 74.5098 -23.2643 0.488 -0.670 0.559 199 206 163
21.2377 74.5237 -23.3441 0.421 -0.823 0.382 103 111 70
21.3234 74.5264 -23.4198 0.416 -0.839 0.351 52 60 18
21.4084 74.6184 -23.5307 0.391 -0.919 -0.042 44 52 14
21.4942 74.6662 -23.6246 0.399 -0.909 -0.123 57 64 30
21.8411 74.7004 -23.9400 0.365 -0.930 -0.045 90 99 55
21.9281 74.7806 -24.0479 0.350 -0.936 -0.040 96 105 58
22.5486 75.4031 -24.8380 -0.279 -0.873 -0.400 107 117 63
28.8905 63.2213 -25.4523 -0.123 -0.918 -0.377 115 125 65
46.0908 86.9134 -49.9424 0.485 -0.871 0.080 60 65 31
46.3047 87.0944 -50.2011 0.387 -0.916 0.105 53 58 28
46.4812 87.1490 -50.3766 0.387 -0.916 0.105 40 44 20
46.6130 87.0552 -50.4535 0.430 -0.900 0.077 32 35 14
18.2600 69.4516 -18.8625 -0.740 -0.643 0.196 39 43 19
18.3428 71.8275 -19.8965 0.090 -0.931 -0.353 49 59 32
18.4025 72.1265 -20.0695 0.092 -0.930 -0.356 47 57 29
18.4605 72.4698 -20.2591 0.154 -0.928 -0.340 61 72 41
18.5337 72.5508 -20.3557 0.159 -0.927 -0.339 70 80 45
18.6093 72.5943 -20.4392 0.159 -0.927 -0.339 67 76 36
18.7245 73.4041 -20.8674 0.517 -0.838 0.173 113 121 72
18.8012 73.4579 -20.9561 0.220 -0.953 0.207 125 133 83
18.8787 73.4993 -21.0404 -0.066 -0.965 0.253 112 119 73
18.9582 73.5067 -21.1127 0.041 -0.972 0.233 82 89 47
19.0401 73.4651 -21.1672 0.043 -0.976 0.215 68 74 36
19.1195 73.4791 -21.2421 0.474 -0.872 -0.126 66 72 36
19.1974 73.5344 -21.3324 0.474 -0.872 -0.126 61 67 31
19.2755 73.5899 -21.4229 0.474 -0.872 -0.126 57 63 27
19.3551 73.6171 -21.5033 0.551 -0.832 0.065 55 61 25
19.4300 73.7666 -21.6291 0.540 -0.841 0.039 61 65 30
19.5089 73.8264 -21.7221 0.558 -0.825 0.086 66 70 33
19.5899 73.8393 -21.7980 0.417 -0.775 0.475 71 75 37
19.6694 73.8999 -21.8918 0.381 -0.844 0.376 83 88 48
20.1544 74.2053 -22.4382 0.323 -0.887 0.330 217 227 173
20.2378 74.2025 -22.5097 0.307 -0.885 0.351 222 233 177
20.3202 74.2423 -22.5976 0.501 -0.804 0.320 167 176 120
20.4033 74.2621 -22.6781 0.501 -0.804 0.320 115 124 68
20.7380 74.3516 -23.0060 0.524 -0.663 0.535 176 185 130
20.8225 74.3593 -23.0828 0.507 -0.664 0.550 204 213 163
20.9065 74.4055 -23.1747 0.488 -0.670 0.559 194 204 157
20.9915 74.4056 -23.2489 0.488 -0.670 0.559 115 124 80
21.0767 74.4107 -23.3252 0.501 -0.670 0.547 61 70 28
28.2584 62.8222 -24.8940 -0.551 -0.828 -0.107 132 141 85
28.3438 62.8185 -24.9669 -0.539 -0.834 -0.117 132 141 85
28.4334 62.8502 -25.0578 -0.532 -0.811 0.244 131 141 82
30.1374 63.0679 -26.6313 -0.015 -0.871 -0.491 115 123 66
30.4746 63.5086 -27.1035 0.097 -0.880 -0.464 116 120 69
30.5784 63.5891 -27.2266 0.064 -0.883 -0.464 115 119 68
30.6753 63.6210 -27.3241 -0.255 -0.816 -0.518 114 118 67
31.3017 64.0483 -28.0430 -0.023 -0.816 -0.577 92 100 44
31.8167 64.2894 -28.5895 -0.071 -0.993 0.093 106 113 59
45.6245 86.7360 -49.7117 0.373 -0.903 -0.213 63 70 30
45.8158 86.8483 -49.9239 0.456 -0.889 0.041 47 53 17
45.9999 86.9337 -50.1190 0.456 -0.889 0.041 42 47 17
46.1938 87.0490 -50.3347 0.381 -0.920 0.090 35 39 16
18.2047 71.6409 -19.8549 -0.135 -0.875 -0.466 41 50 24
18.2652 71.9062 -20.0158 -0.158 -0.855 -0.494 47 57 32
18.3272 72.1586 -20.1728 0.092 -0.930 -0.356 52 62 36
18.3966 72.2950 -20.2890 0.070 -0.925 -0.373 60 71 41
18.4589 72.5666 -20.4541 0.053 -0.921 -0.386 74 84 49
18.5321 72.6523 -20.5529 0.080 -0.928 -0.365 97 105 66
18.7278 73.4231 -21.0379 0.220 -0.953 0.207 90 98 50
18.8053 73.4656 -21.1228 0.050 -0.966 0.254 79 86 42
18.8826 73.5151 -21.2106 0.179 -0.971 0.159 71 78 37
18.9629 73.5081 -21.2778 0.182 -0.972 0.152 65 71 36
19.0446 73.4719 -21.3345 0.410 -0.912 -0.011 58 63 32
19.1232 73.5083 -21.4180 0.410 -0.912 -0.011 56 61 31
19.1987 73.6204 -21.5297 0.405 -0.914 -0.005 60 65 35
19.2779 73.6559 -21.6133 0.405 -0.914 -0.005 63 69 35
19.3567 73.7082 -21.7034 0.402 -0.916 -0.004 71 76 38
20.0796 74.1497 -22.5148 0.323 -0.887 0.330 169 180 124
20.1629 74.1462 -22.5862 0.307 -0.885 0.351 118 129 72
20.2452 74.1836 -22.6733 0.509 -0.801 0.317 97 108 49
20.3280 74.2131 -22.7576 0.550 -0.748 0.371 111 121 62
20.4112 74.2340 -22.8389 0.550 -0.748 0.371 120 130 71
20.4947 74.2551 -22.9204 0.550 -0.748 0.371 158 168 110
20.5787 74.2623 -22.9967 0.525 -0.765 0.372 198 208 153
20.6623 74.2967 -23.0837 0.317 -0.891 0.326 181 189 138
20.7463 74.3209 -23.1670 0.296 -0.899 0.322 116 125 79
20.8298 74.3916 -23.2687 0.226 -0.973 -0.055 59 68 24
20.9149 74.3848 -23.3403 0.250 -0.959 -0.134 46 54 13
20.9995 74.4193 -23.4283 0.250 -0.959 -0.134 52 60 19
22.0358 74.5690 -24.3946 -0.344 -0.935 0.086 107 116 68
27.9588 63.0392 -24.8730 -0.271 -0.957 0.104 130 140 78
28.0432 63.0285 -24.9423 -0.318 -0.939 0.131 130 140 80
28.1148 62.8965 -24.9511 -0.551 -0.825 -0.126 129 138 81
28.1981 62.8745 -25.0149 -0.531 -0.840 -0.113 127 136 81
28.2840 62.8744 -25.0899 -0.539 -0.834 -0.117 125 134 78
28.3880 63.0351 -25.2463 -0.083 -0.942 -0.326 120 130 71
30.2077 63.3923 -26.9815 -0.018 -0.865 -0.501 114 122 65
31.0434 64.0354 -27.9736 -0.029 -0.816 -0.577 104 109 59
45.1783 86.6168 -49.5203 0.407 -0.898 -0.167 64 70 28
45.3334 86.6104 -49.6532 0.370 -0.903 -0.216 55 61 22
45.4942 86.6222 -49.7985 0.374 -0.907 -0.197 43 49 13
45.6902 86.7515 -50.0224 0.374 -0.907 -0.197 31 36 5
18.1270 71.7200 -19.9740 -0.138 -0.896 -0.422 39 46 27
18.1898 71.9424 -20.1202 -0.205 -0.897 -0.391 47 55 33
18.2518 72.1908 -20.2763 0.092 -0.930 -0.356 59 67 42
18.3211 72.3255 -20.3922 0.075 -0.926 -0.370 72 81 51
18.3802 72.6490 -20.5765 0.082 -0.929 -0.361 96 103 69
18.8053 73.5551 -21.3202 0.558 -0.786 0.267 57 63 26
18.8839 73.5836 -21.4006 0.558 -0.786 0.267 51 57 21
18.9620 73.6281 -21.4872 0.603 -0.784 0.144 57 63 27
19.0403 73.6724 -21.5739 0.603 -0.784 0.144 59 65 29
19.1179 73.7387 -21.6691 0.533 -0.845 -0.044 62 67 33
19.1965 73.7898 -21.7589 0.523 -0.851 -0.051 71 78 37
19.8412 74.0350 -22.4239 0.520 -0.844 0.130 176 186 131
19.9227 74.0719 -22.5104 0.520 -0.844 0.130 119 130 72
20.0053 74.0816 -22.5866 0.485 -0.816 0.314 88 102 41
20.0881 74.0883 -22.6620 0.509 -0.801 0.317 101 115 55
20.1708 74.1089 -22.7428 0.509 -0.801 0.317 113 126 70
20.2528 74.1617 -22.8362 0.496 -0.804 0.327 141 154 101
20.3354 74.2020 -22.9251 0.304 -0.908 0.287 189 201 151
20.4191 74.2064 -23.0002 0.304 -0.908 0.287 176 187 139
20.5023 74.2435 -23.0882 0.306 -0.916 0.260 130 142 94
20.5850 74.3161 -23.1904 0.319 -0.948 0.018 58 69 23
20.6687 74.3548 -23.2795 0.226 -0.973 -0.055 48 60 14
20.7530 74.3792 -23.3633 0.226 -0.973 -0.055 53 64 21
20.9245 74.2962 -23.4795 0.588 -0.715 0.377 58 69 26
21.0955 74.2727 -23.6196 0.636 -0.675 0.375 80 95 49
21.1806 74.3043 -23.7070 0.636 -0.675 0.375 86 100 54
21.5105 75.9532 -24.6717 0.211 -0.959 -0.190 97 110 56
21.8645 76.3524 -25.1453 -0.146 -0.987 0.073 109 120 62
27.6353 63.0219 -24.7354 -0.393 -0.866 0.309 131 141 80
27.7142 62.9612 -24.7795 -0.387 -0.876 0.286 132 142 82
27.8004 62.9727 -24.8597 -0.325 -0.939 0.114 133 143 84
27.8896 63.0109 -24.9535 -0.274 -0.955 0.111 130 139 83
27.9696 62.9586 -25.0021 -0.525 -0.847 -0.084 130 139 84
28.0549 62.9556 -25.0756 -0.551 -0.825 -0.126 121 130 74
28.1349 62.9025 -25.1239 -0.552 -0.824 -0.129 117 127 69
28.2222 62.9151 -25.2055 -0.549 -0.828 -0.114 115 124 66
30.8801 64.0256 -27.9880 -0.242 -0.844 -0.479 104 114 54
31.4111 63.8167 -28.3674 0.355 -0.929 -0.103 109 117 60
44.1332 88.2652 -49.5273 0.123 0.055 0.991 88 96 35
44.6953 86.3583 -49.2379 0.147 -0.982 -0.116 72 76 38
44.8488 86.3510 -49.3694 0.147 -0.985 -0.096 62 66 31
45.0762 86.5984 -49.6699 0.407 -0.898 -0.167 45 50 23
45.2363 86.6092 -49.8145 0.370 -0.903 -0.216 36 40 15
61.9508 83.7012 -63.2589 0.389 0.167 0.906 69 74 38
62.1255 83.6527 -63.3919 0.385 0.165 0.908 71 76 39
16.4113 65.1037 -15.8953 0.364 -0.862 -0.352 106 123 81
16.4736 65.1257 -15.9590 0.142 -0.664 0.734 91 109 61
18.0126 72.3824 -20.3021 0.696 -0.653 0.299 37 44 27
18.0855 72.4480 -20.3932 0.684 -0.673 0.282 47 55 33
18.1537 72.5983 -20.5149 0.687 -0.659 0.307 63 71 46
18.5029 73.3363 -21.1258 -0.034 -0.983 -0.183 56 62 24
18.5839 73.3033 -21.1832 0.455 -0.883 0.113 51 57 23
18.6572 73.4180 -21.2949 0.509 -0.847 0.149 50 56 22
18.7336 73.4812 -21.3880 0.558 -0.786 0.267 55 61 25
18.8136 73.4784 -21.4571 0.611 -0.792 -0.009 54 61 20
18.8875 73.6050 -21.5741 0.248 -0.911 -0.331 63 70 28
18.9622 73.7251 -21.6892 0.463 -0.877 0.127 67 74 31
19.6846 73.9727 -22.4253 0.509 -0.851 0.128 119 130 75
19.7662 73.9975 -22.5071 0.512 -0.848 0.137 97 108 51
20.0118 74.0828 -22.7579 0.346 -0.880 0.325 131 144 89
20.0933 74.1381 -22.8522 0.344 -0.880 0.329 167 180 129
20.1767 74.1384 -22.9256 0.293 -0.904 0.312 173 185 139
20.2594 74.1720 -23.0120 0.318 -0.907 0.276 138 149 106
20.3431 74.1783 -23.0880 0.318 -0.907 0.276 63 74 31
20.4250 74.2622 -23.1945 0.319 -0.948 0.018 45 56 14
20.5086 74.2887 -23.2788 0.319 -0.948 0.018 51 62 19
20.5942 74.2379 -23.3330 0.322 -0.907 0.271 56 67 24
20.6788 74.2399 -23.4081 0.319 -0.905 0.280 58 70 24
20.8486 74.2322 -23.5539 -0.104 -0.971 0.217 84 96 49
20.9342 74.2055 -23.6180 -0.086 -0.982 0.165 92 105 56
21.0188 74.2431 -23.7078 0.587 -0.723 0.366 93 108 57
21.3460 75.6735 -24.5848 0.376 -0.916 -0.139 99 112 57
21.4273 76.3673 -24.9422 0.200 -0.977 -0.075 102 115 59
21.6039 76.6082 -25.1965 0.099 -0.989 -0.106 109 120 63
27.5698 63.0300 -24.8337 0.199 -0.890 0.411 130 140 79
27.6478 62.9599 -24.8733 -0.387 -0.876 0.286 130 140 80
27.7386 63.0168 -24.9764 -0.321 -0.941 0.105 127 136 79
27.8203 62.9824 -25.0340 -0.321 -0.941 0.105 121 130 73
27.9084 63.0084 -25.1220 -0.525 -0.847 -0.084 119 128 71
27.9958 63.0248 -25.2054 -0.558 -0.822 -0.114 113 122 65
43.3366 86.2418 -48.2430 0.364 -0.914 0.181 84 92 34
44.2324 86.1571 -48.9944 -0.258 -0.927 -0.272 69 73 34
44.4192 86.2719 -49.2056 0.099 -0.989 -0.106 58 62 30
44.5855 86.3116 -49.3679 0.147 -0.985 -0.096 47 50 21
44.7527 86.3524 -49.5315 0.147 -0.985 -0.096 35 38 12
16.4159 65.0527 -16.0138 0.142 -0.664 0.734 93 111 62
17.9412 72.3437 -20.3804 0.685 -0.671 0.284 38 45 28
18.0150 72.3934 -20.4659 0.687 -0.669 0.284 47 55 34
18.0867 72.4820 -20.5657 0.684 -0.669 0.290 56 64 38
18.1560 72.6158 -20.6822 0.679 -0.683 0.268 62 69 37
18.4332 73.2382 -21.1843 -0.048 -0.990 -0.132 46 51 22
18.5115 73.2523 -21.2590 -0.058 -0.989 -0.136 48 53 23
18.5842 73.3750 -21.3739 0.616 -0.787 -0.028 56 61 28
18.6605 73.4380 -21.4671 0.616 -0.787 -0.028 59 65 27
18.7410 73.4232 -21.5318 0.611 -0.792 -0.009 63 70 26
18.8170 73.5017 -21.6313 0.306 -0.890 -0.338 72 80 32
18.8935 73.5776 -21.7300 0.286 -0.895 -0.343 80 88 37
19.2848 73.8705 -22.1958 -0.042 -0.883 0.467 154 164 114
19.6091 73.9505 -22.5143 0.497 -0.858 0.126 104 115 58
19.6903 73.9832 -22.5992 0.504 -0.854 0.128 115 125 70
19.8528 74.0647 -22.7760 0.254 -0.916 0.312 153 165 114
19.9355 74.0722 -22.8519 0.253 -0.897 0.361 161 173 125
20.0193 74.0524 -22.9173 0.253 -0.903 0.348 121 133 89
20.1025 74.0533 -22.9910 0.258 -0.903 0.344 67 78 37
20.1836 74.1377 -23.0973 0.229 -0.972 0.052 40 50 12
20.2682 74.1067 -23.1589 0.317 -0.948 0.029 52 63 24
20.3516 74.1242 -23.2395 0.323 -0.946 0.027 58 68 30
20.4350 74.1503 -23.3237 0.323 -0.946 0.027 63 74 32
20.5186 74.1776 -23.4086 0.270 -0.959 0.089 72 83 39
20.6028 74.1938 -23.4893 0.270 -0.959 0.089 82 94 47
20.6867 74.2295 -23.5779 0.277 -0.957 0.087 89 101 51
20.7693 74.3445 -23.6983 0.436 -0.899 0.028 91 104 51
20.8499 74.5917 -23.8718 0.127 -0.986 0.109 95 108 54
21.2649 75.8538 -24.7604 0.180 -0.966 -0.183 103 117 58
21.3454 76.5568 -25.1230 -0.033 -0.982 -0.188 106 120 61
27.2422 62.9465 -24.6638 0.744 -0.589 0.315 131 141 79
27.3289 62.9724 -24.7507 0.721 -0.621 0.307 132 142 80
27.4121 62.9599 -24.8187 0.648 -0.695 0.314 131 141 80
27.5003 62.9968 -24.9116 0.201 -0.884 0.422 129 139 79
27.5884 63.0302 -25.0030 -0.322 -0.941 0.104 123 133 73
27.6733 63.0279 -25.0766 -0.321 -0.941 0.105 117 126 69
27.7551 62.9935 -25.1343 -0.321 -0.941 0.105 115 124 67
29.6354 63.3319 -26.9289 -0.135 -0.821 -0.554 112 120 62
29.7334 63.3903 -27.0393 -0.135 -0.821 -0.554 108 115 59
43.6980 86.2413 -48.8041 0.261 -0.955 0.142 74 80 31
43.8447 86.2169 -48.9230 0.102 -0.983 0.153 67 73 29
44.0003 86.2236 -49.0626 -0.230 -0.935 -0.271 62 66 29
44.1592 86.2407 -49.2095 -0.258 -0.927 -0.272 52 55 24
44.3483 86.3639 -49.4270 -0.164 -0.947 -0.275 39 41 18
16.3583 64.9799 -16.0685 0.142 -0.664 0.734 92 110 59
17.8781 72.1768 -20.4125 0.604 -0.767 0.216 36 43 25
18.2747 73.3173 -21.2382 -0.418 -0.871 -0.259 49 54 25
18.3548 73.2956 -21.2999 -0.062 -0.990 -0.124 51 55 27
18.4357 73.2639 -21.3579 0.501 -0.833 0.234 56 61 31
18.5146 73.2687 -21.4295 0.498 -0.837 0.229 66 72 37
18.5879 73.3836 -21.5421 0.613 -0.789 -0.032 70 77 34
18.6619 73.4934 -21.6531 0.597 -0.802 -0.024 77 85 36
18.7398 73.5336 -21.7386 0.290 -0.896 -0.337 80 89 35
18.8141 73.6515 -21.8534 0.326 -0.901 -0.288 86 95 40
19.0447 73.9005 -22.1606 -0.042 -0.883 0.467 145 155 104
19.1274 73.8657 -22.2190 -0.042 -0.883 0.467 147 156 107
19.2103 73.8308 -22.2775 -0.042 -0.883 0.467 127 136 88
19.2912 73.8457 -22.3551 0.201 -0.950 0.238 98 108 57
19.4513 73.9311 -22.5319 0.405 -0.881 -0.246 111 122 65
19.5310 73.9947 -22.6287 0.405 -0.881 -0.246 117 127 74
19.6927 74.0838 -22.8084 0.015 -0.999 -0.045 153 162 115
19.8595 74.0532 -22.9427 -0.066 -0.996 -0.059 67 78 36
20.0259 74.0507 -23.0884 -0.066 -0.996 -0.059 50 61 20
20.5237 74.2766 -23.6217 0.328 -0.907 0.265 92 104 56
20.9309 75.3477 -24.4278 0.006 -0.963 -0.270 102 116 58
27.0803 62.8151 -24.6185 0.742 -0.602 0.295 131 141 81
27.1694 62.8743 -24.7218 0.742 -0.602 0.295 130 140 80
27.2549 62.8890 -24.8033 0.743 -0.590 0.315 127 137 77
27.3372 62.8681 -24.8672 0.648 -0.695 0.314 121 131 72
27.4346 63.0047 -25.0101 0.242 -0.872 0.424 117 127 69
27.5269 63.0817 -25.1236 -0.405 -0.883 0.236 114 123 66
27.6131 63.0922 -25.2039 -0.407 -0.833 0.374 110 119 62
29.3836 63.2949 -26.8496 -0.121 -0.812 -0.571 113 121 61
29.4818 63.3604 -26.9636 -0.121 -0.812 -0.571 106 114 56
30.1991 63.9457 -27.8403 0.072 -0.883 -0.463 110 115 58
30.3026 64.0232 -27.9639 0.080 -0.884 -0.461 107 112 54
30.4058 64.0953 -28.0850 0.065 -0.888 -0.454 110 115 57
30.6101 64.2163 -28.3156 0.288 -0.934 0.213 109 114 56
43.1640 86.3187 -48.6103 0.132 -0.987 0.090 77 85 36
43.3195 86.3303 -48.7523 0.312 -0.932 0.183 72 79 33
43.4585 86.2792 -48.8536 0.348 -0.918 0.189 71 78 35
43.5881 86.1923 -48.9315 0.261 -0.955 0.142 61 68 28
43.7593 86.2578 -49.1098 0.177 -0.973 0.145 51 57 21
43.9372 86.3457 -49.3033 -0.251 -0.931 -0.266 42 47 17
60.6975 80.6912 -61.7208 0.134 0.471 0.872 68 72 35
60.7184 80.3624 -61.6020 0.136 0.471 0.872 70 74 37
18.2814 73.2633 -21.3826 0.477 -0.856 0.197 55 61 27
18.3630 73.2187 -21.4359 0.486 -0.843 0.231 62 68 31
18.6574 73.6641 -21.8831 0.638 -0.758 0.138 94 103 47
18.8922 73.7994 -22.1474 0.232 -0.948 0.216 146 154 103
18.9721 73.8220 -22.2276 0.210 -0.959 0.191 128 138 85
19.0529 73.8291 -22.3019 0.334 -0.910 0.244 103 113 60
19.1353 73.8030 -22.3638 0.213 -0.945 0.247 95 105 53
19.2140 73.8668 -22.4601 0.339 -0.894 -0.294 104 114 62
19.2931 73.9289 -22.5561 0.337 -0.893 -0.298 111 121 70
19.3729 73.9786 -22.6476 0.294 -0.909 -0.297 130 140 89
19.4542 74.0015 -22.7290 0.025 -0.999 -0.042 136 145 100
19.7823 74.0644 -23.0454 -0.066 -0.996 -0.059 49 60 20
19.8654 74.0631 -23.1183 -0.066 -0.996 -0.059 52 63 23
20.0317 74.0745 -23.2701 0.004 -0.999 -0.045 71 83 39
20.2807 74.1611 -23.5265 0.321 -0.947 -0.012 92 103 58
20.6757 75.5004 -24.4379 0.146 -0.947 0.285 102 115 61
26.7543 62.7003 -24.4344 -0.028 -0.616 0.787 131 141 81
26.8362 62.6866 -24.5010 -0.109 -0.335 0.936 131 141 81
26.9259 62.7618 -24.6119 0.458 -0.578 0.675 131 141 81
27.0145 62.8197 -24.7145 0.727 -0.641 0.246 131 141 81
27.0983 62.8201 -24.7888 0.728 -0.632 0.266 125 135 75
27.1795 62.7892 -24.8475 0.741 -0.595 0.313 118 127 71
27.2645 62.7997 -24.9271 0.721 -0.616 0.317 113 122 67
29.1293 63.2278 -26.7548 -0.118 -0.812 -0.572 116 124 66
29.2324 63.3384 -26.8924 -0.122 -0.811 -0.572 105 112 56
29.8274 63.7430 -27.5882 0.067 -0.884 -0.463 104 111 60
29.9293 63.8191 -27.7101 0.062 -0.883 -0.465 106 114 58
30.0351 63.9206 -27.8463 0.068 -0.885 -0.460 110 118 58
30.1444 64.0426 -27.9941 0.066 -0.885 -0.461 113 119 59
43.0746 86.3468 -48.7877 0.132 -0.988 0.080 72 79 39
43.2124 86.2916 -48.8863 0.134 -0.985 0.112 68 74 37
43.3573 86.2627 -49.0023 0.352 -0.917 0.186 55 59 30
43.4964 86.2110 -49.1035 0.177 -0.973 0.145 39 44 16
43.6517 86.2183 -49.2438 0.177 -0.973 0.145 34 38 12
16.0452 64.8973 -16.0285 0.482 -0.873 0.076 57 73 35
18.1309 73.2027 -21.3850 0.369 -0.929 0.005 61 68 27
18.2148 73.1147 -21.4222 0.245 -0.967 -0.068 68 75 33
18.2970 73.0571 -21.4706 0.014 -0.982 -0.190 79 86 44
18.3688 73.1819 -21.5870 0.225 -0.971 -0.077 80 88 41
18.5128 73.4510 -21.8282 0.601 -0.799 -0.027 99 108 51
18.5853 73.5910 -21.9515 0.638 -0.758 0.138 126 135 78
18.6628 73.6430 -22.0421 0.629 -0.767 0.126 145 154 97
18.7404 73.6984 -22.1343 0.469 -0.875 0.118 131 140 86
18.8168 73.7834 -22.2379 0.479 -0.867 0.139 96 105 52
18.9771 73.8177 -22.3944 0.456 -0.812 0.365 102 113 56
19.0579 73.8288 -22.4706 0.456 -0.812 0.365 113 124 68
19.1374 73.8708 -22.5589 0.414 -0.851 0.322 123 134 79
19.2147 73.9714 -22.6698 0.453 -0.855 0.250 133 143 93
19.2970 73.9632 -22.7392 0.407 -0.805 0.431 120 129 84
19.3802 73.9354 -22.8012 0.386 -0.888 0.251 82 90 50
19.7880 74.0783 -23.2228 0.030 -1.000 -0.010 64 75 31
20.0275 74.4272 -23.5823 0.386 -0.873 -0.299 92 104 57
26.6097 62.7539 -24.4807 -0.504 -0.399 0.766 131 141 81
26.6847 62.6567 -24.5060 -0.432 -0.393 0.812 131 141 81
26.7645 62.6198 -24.5612 -0.218 -0.250 0.943 130 140 80
26.8506 62.6550 -24.6523 0.458 -0.578 0.675 125 135 75
26.9373 62.6942 -24.7457 0.729 -0.635 0.253 120 130 70
27.0231 62.7196 -24.8324 0.723 -0.639 0.263 116 125 68
27.1058 62.7071 -24.9004 0.743 -0.589 0.316 112 121 65
28.8809 63.1991 -26.6806 -0.201 -0.782 -0.590 112 121 64
29.5836 63.7911 -27.5531 -0.130 -0.829 -0.543 103 110 57
30.0647 63.9622 -28.0516 0.356 -0.813 0.461 110 118 58
42.9488 86.2372 -48.8753 0.129 -0.985 0.116 55 60 30
43.3889 86.1714 -49.2373 0.177 -0.973 0.145 29 34 13
16.0417 64.9216 -16.1716 0.449 -0.893 0.037 7 20 2
16.6275 68.5319 -18.2263 0.378 -0.887 -0.264 68 79 43
17.9879 73.0288 -21.3455 0.521 -0.853 -0.009 67 74 34
18.0657 73.0379 -21.4185 0.520 -0.854 -0.022 74 82 36
18.1447 73.0294 -21.4850 0.377 -0.914 -0.150 72 80 33
18.2179 73.1229 -21.5898 0.012 -0.982 -0.187 79 86 40
18.2901 73.2400 -21.7036 -0.048 -0.995 -0.091 92 100 49
18.3627 73.3575 -21.8180 0.500 -0.858 0.117 117 126 71
18.4375 73.4444 -21.9213 0.637 -0.751 0.175 138 148 89
18.5133 73.5179 -22.0199 0.638 -0.758 0.138 136 146 86
18.9025 73.7821 -22.4777 0.393 -0.783 0.483 115 125 72
18.9820 73.8168 -22.5631 0.393 -0.777 0.492 131 141 88
19.0636 73.8132 -22.6339 0.393 -0.777 0.492 130 140 89
19.1451 73.8121 -22.7059 0.398 -0.783 0.479 97 106 61
19.2269 73.8099 -22.7776 0.398 -0.783 0.479 69 77 36
19.3089 73.8076 -22.8494 0.398 -0.783 0.479 53 61 24
20.1530 76.2047 -24.6177 0.099 -0.908 -0.408 101 113 63
26.3035 62.8536 -24.4032 -0.390 -0.731 0.561 132 141 84
26.3848 62.8381 -24.4688 -0.415 -0.732 0.540 132 141 86
26.4665 62.8261 -24.5362 -0.517 -0.386 0.764 130 139 82
26.5399 62.7074 -24.5509 -0.504 -0.399 0.766 130 139 82
26.6140 62.6000 -24.5711 -0.432 -0.393 0.812 127 137 77
26.6905 62.5237 -24.6066 -0.209 -0.257 0.943 120 130 70
26.7791 62.5908 -24.7137 0.462 -0.578 0.673 118 128 68
26.8564 62.5218 -24.7530 0.711 -0.478 0.516 116 126 66
26.9429 62.5588 -24.8456 0.752 -0.461 0.470 113 123 63
28.3626 63.1007 -26.3364 -0.204 -0.778 -0.594 114 124 65
28.4566 63.1585 -26.4444 -0.204 -0.778 -0.594 112 122 63
28.5510 63.2165 -26.5529 -0.204 -0.778 -0.594 111 120 62
28.6458 63.2748 -26.6618 -0.204 -0.778 -0.594 112 121 64
28.7410 63.3334 -26.7713 -0.204 -0.778 -0.594 109 118 63
29.3264 63.7311 -27.4600 0.027 -0.858 -0.514 105 112 60
15.9712 64.9749 -16.2680 0.075 -0.877 -0.474 4 18 0
17.8428 72.9014 -21.3231 0.348 -0.915 -0.204 73 80 39
17.9178 72.9493 -21.4103 0.348 -0.915 -0.204 77 85 39
17.9930 72.9974 -21.4978 0.348 -0.915 -0.204 79 87 40
18.0664 73.0809 -21.5988 0.326 -0.933 -0.154 88 96 48
18.1415 73.1414 -21.6915 0.012 -0.982 -0.187 109 117 68
18.2138 73.2528 -21.8035 -0.048 -0.995 -0.091 131 140 87
18.2888 73.3266 -21.9018 0.497 -0.858 0.132 134 143 87
18.3666 73.3563 -21.9837 0.639 -0.757 0.138 115 125 65
18.4438 73.4017 -22.0718 0.637 -0.758 0.140 95 104 45
18.5186 73.4958 -22.1786 0.634 -0.761 0.137 93 102 45
18.7476 73.7324 -22.4836 0.230 -0.943 0.242 123 132 86
18.8286 73.7298 -22.5546 0.169 -0.787 0.593 122 131 87
18.9111 73.7013 -22.6158 0.169 -0.787 0.593 98 107 64
18.9917 73.7132 -22.6926 0.412 -0.767 0.491 71 80 37
19.0731 73.7136 -22.7652 0.406 -0.767 0.496 54 62 23
19.1499 73.8215 -22.8797 0.506 -0.846 -0.167 53 60 25
19.4623 74.2277 -23.3314 0.325 -0.889 -0.322 82 93 50
19.5401 74.3649 -23.4593 0.320 -0.888 -0.331 85 97 51
19.7799 74.6807 -23.8077 0.379 -0.882 -0.281 97 109 59
19.8641 74.6798 -23.8823 0.394 -0.883 -0.254 100 112 65
19.9555 74.4604 -23.8698 0.408 -0.875 -0.259 99 111 63
26.3168 62.8160 -24.5510 -0.415 -0.732 0.540 128 137 82
26.3966 62.7802 -24.6068 -0.517 -0.386 0.764 123 132 77
26.4750 62.7244 -24.6527 -0.495 -0.399 0.771 119 128 71
26.5438 62.5495 -24.6391 -0.436 -0.395 0.809 117 126 69
26.6215 62.4867 -24.6814 -0.144 -0.280 0.949 116 126 67
26.7041 62.4841 -24.7538 0.462 -0.578 0.673 115 125 65
26.7819 62.4214 -24.7962 0.712 -0.489 0.504 113 123 63
26.8624 62.3916 -24.8551 0.722 -0.389 0.572 114 124 63
28.2254 63.2581 -26.4385 -0.175 -0.817 -0.550 113 122 67
28.3184 63.3084 -26.5428 -0.175 -0.817 -0.550 113 122 68
28.8834 63.6048 -27.1723 -0.169 -0.818 -0.549 79 88 36
28.9790 63.6561 -27.2793 -0.153 -0.822 -0.549 96 103 51
29.0746 63.7036 -27.3847 -0.134 -0.827 -0.546 104 111 59
42.7316 86.1483 -49.1355 0.155 -0.982 0.111 34 39 18
42.8929 86.1836 -49.2942 0.128 -0.986 0.105 35 40 21
58.1896 75.5019 -58.3385 0.091 0.484 0.871 65 70 31
56.8349 72.5964 -55.8905 0.037 0.224 0.974 66 71 31
17.3733 71.9364 -20.6502 0.246 -0.954 -0.173 43 52 21
17.5280 72.9996 -21.2455 -0.256 -0.584 0.770 59 69 34
17.6089 72.9508 -21.2967 -0.262 -0.570 0.779 68 76 37
17.6937 72.8457 -21.3271 0.286 -0.954 -0.092 71 80 36
17.7683 72.8934 -21.4142 0.348 -0.915 -0.204 69 78 31
17.8432 72.9414 -21.5016 0.348 -0.915 -0.204 79 87 39
17.9183 72.9895 -21.5893 0.348 -0.915 -0.204 95 104 53
17.9937 73.0378 -21.6773 0.348 -0.915 -0.204 123 132 79
18.0669 73.1258 -21.7806 0.017 -0.981 -0.192 128 139 83
18.1397 73.2281 -21.8894 0.006 -0.998 -0.063 116 127 69
18.2168 73.2640 -21.9736 0.466 -0.876 0.123 89 100 41
18.2946 73.2911 -22.0547 0.472 -0.874 0.115 82 93 35
18.3694 73.3754 -22.1576 0.634 -0.761 0.137 89 100 43
18.4465 73.4236 -22.2472 0.634 -0.761 0.137 103 114 58
18.5222 73.5049 -22.3497 0.633 -0.763 0.131 118 129 74
18.6766 73.6271 -22.5400 0.368 -0.754 0.545 97 106 59
18.7570 73.6339 -22.6146 0.171 -0.783 0.598 70 79 36
18.8394 73.6052 -22.6757 0.171 -0.783 0.598 57 65 27
18.9191 73.6321 -22.7584 0.412 -0.767 0.491 59 66 31
18.9994 73.6534 -22.8392 0.420 -0.776 0.470 58 68 34
19.0725 73.8382 -22.9838 0.510 -0.844 -0.164 62 72 37
19.3020 74.2337 -23.3587 0.435 -0.869 -0.234 87 100 56
19.5357 74.6372 -23.7407 0.322 -0.882 -0.344 91 105 54
19.6311 74.3201 -23.6895 0.350 -0.894 -0.281 94 108 57
19.7125 74.3834 -23.7892 0.350 -0.894 -0.281 100 114 63
19.7881 74.6253 -23.9607 0.387 -0.884 -0.262 101 115 63
24.9903 65.1530 -24.5258 0.642 -0.711 0.287 128 136 85
25.0751 65.1922 -24.6183 0.642 -0.711 0.287 128 136 84
26.2465 62.7631 -24.6181 -0.396 -0.733 0.553 113 122 65
26.3259 62.7218 -24.6711 -0.526 -0.393 0.754 111 120 63
26.3990 62.5995 -24.6837 -0.526 -0.393 0.754 112 121 66
26.4733 62.4936 -24.7044 -0.436 -0.395 0.809 113 122 67
26.5470 62.3819 -24.7221 -0.161 -0.295 0.942 113 122 65
26.6273 62.3521 -24.7809 -0.135 -0.309 0.941 113 123 63
28.1697 63.3678 -26.5936 -0.181 -0.815 -0.551 110 118 67
28.8298 63.7261 -27.3364 -0.169 -0.818 -0.549 107 116 58
42.4772 85.5414 -48.8938 0.075 -0.023 0.997 31 36 15
42.6212 85.5151 -49.0108 -0.017 0.007 1.000 31 35 21
42.7177 85.3075 -49.0077 -0.017 0.007 1.000 32 34 21
16.6179 68.6544 -18.7125 -0.009 -0.838 -0.546 46 59 34
17.2225 71.9524 -20.6804 0.083 -0.978 -0.192 56 63 28
17.2827 72.1633 -20.8254 0.272 -0.946 -0.179 52 63 24
17.3912 72.7779 -21.1885 0.270 -0.961 -0.062 66 77 37
17.4719 72.7288 -21.2393 0.276 -0.959 -0.070 72 84 41
17.5491 72.7304 -21.3090 0.235 -0.970 -0.062 75 84 37
17.6168 72.8726 -21.4311 0.279 -0.956 -0.092 70 80 28
17.6926 72.9026 -21.5118 0.277 -0.950 -0.144 78 88 35
17.7695 72.9187 -21.5875 0.274 -0.951 -0.145 102 111 58
17.8435 72.9825 -21.6813 0.288 -0.955 -0.071 124 133 77
17.9187 73.0314 -21.7697 0.329 -0.935 -0.135 122 132 73
17.9916 73.1232 -21.8746 0.480 -0.865 0.147 98 110 49
18.0659 73.1980 -21.9734 0.494 -0.857 0.144 82 94 33
18.1438 73.2168 -22.0512 0.509 -0.847 0.152 84 96 35
18.2212 73.2485 -22.1341 0.509 -0.847 0.152 97 108 49
18.2942 73.3618 -22.2484 0.491 -0.860 0.139 114 125 68
18.3718 73.3997 -22.3342 0.492 -0.858 0.149 125 135 82
18.4482 73.4659 -22.4311 0.579 -0.775 0.253 109 118 72
18.5254 73.5202 -22.5237 0.396 -0.750 0.530 82 90 46
18.6061 73.5151 -22.5936 0.352 -0.756 0.552 68 76 35
18.6895 73.4602 -22.6444 0.355 -0.757 0.549 62 70 31
18.7695 73.4754 -22.7224 0.396 -0.767 0.505 62 70 33
18.8506 73.4709 -22.7929 0.396 -0.767 0.505 61 71 33
18.9300 73.5047 -22.8786 0.389 -0.782 0.487 71 81 43
18.9991 73.7655 -23.0532 0.506 -0.846 -0.167 81 91 53
19.0773 73.8421 -23.1564 0.482 -0.855 -0.191 87 100 54
19.1479 74.1021 -23.3319 0.417 -0.844 -0.336 89 102 56
19.2208 74.3245 -23.4934 0.451 -0.863 -0.227 91 104 56
19.2991 74.4352 -23.6113 0.458 -0.862 -0.219 91 105 55
19.3862 74.3380 -23.6471 0.416 -0.873 -0.255 95 109 58
19.5258 75.0563 -24.0827 0.468 -0.864 -0.185 96 110 57
24.9183 65.0867 -24.5889 0.644 -0.710 0.286 128 137 84
25.0030 65.1262 -24.6817 0.644 -0.710 0.286 128 136 85
25.0852 65.1115 -24.7489 0.558 -0.733 0.390 131 140 87
25.3308 63.5672 -24.3001 -0.850 -0.526 0.004 130 139 82
25.8500 62.7323 -24.4030 0.555 -0.831 -0.022 126 135 78
26.1013 62.8111 -24.6617 -0.355 -0.745 0.565 114 123 66
26.1851 62.8309 -24.7452 -0.412 -0.732 0.543 107 116 59
26.2718 62.8867 -24.8468 -0.566 -0.351 0.746 112 121 64
26.3445 62.7536 -24.8543 -0.566 -0.351 0.746 111 120 65
26.4147 62.5902 -24.8463 -0.562 -0.368 0.740 113 122 67
28.0144 63.3650 -26.6117 -0.113 -0.807 -0.580 106 114 63
37.0606 66.6813 -36.1341 0.353 -0.928 -0.117 74 76 41
58.9469 79.4513 -61.2266 -0.010 0.510 0.860 29 30 22
16.5578 69.3357 -19.1037 0.269 -0.863 -0.427 45 57 34
17.0561 72.1720 -20.7851 0.077 -0.951 -0.301 61 68 35
17.1382 72.0898 -20.8228 0.083 -0.980 -0.179 61 69 33
17.1905 72.4040 -21.0065 0.272 -0.946 -0.179 62 73 32
17.3898 72.8292 -21.3702 0.304 -0.952 -0.034 68 80 33
17.4638 72.8767 -21.4572 -0.054 -0.938 0.341 77 87 36
17.5358 72.9581 -21.5571 -0.067 -0.956 0.286 106 116 62
17.6107 73.0005 -21.6427 0.053 -0.977 0.206 128 139 84
17.6899 72.9828 -21.7060 0.293 -0.945 -0.142 122 131 78
17.7658 73.0170 -21.7889 0.332 -0.932 -0.142 99 108 53
17.8416 73.0570 -21.8742 0.332 -0.932 -0.142 83 92 36
17.9162 73.1200 -21.9685 0.360 -0.933 0.022 84 95 37
17.9906 73.1905 -22.0659 0.351 -0.936 0.009 93 104 47
18.0680 73.2174 -22.1469 0.338 -0.940 -0.051 105 115 60
18.1453 73.2497 -22.2303 0.338 -0.940 -0.051 121 132 78
18.2214 73.3080 -22.3238 0.491 -0.860 0.139 108 118 67
18.3001 73.3247 -22.4016 0.490 -0.861 0.138 76 85 38
18.3776 73.3661 -22.4891 0.509 -0.727 0.461 61 68 33
18.4572 73.3744 -22.5640 0.509 -0.727 0.461 62 69 35
18.5369 73.3827 -22.6391 0.509 -0.727 0.461 60 68 32
18.6169 73.3911 -22.7144 0.509 -0.727 0.461 62 70 34
18.6928 73.4817 -22.8218 0.504 -0.854 0.130 70 80 42
18.8408 73.7648 -23.0778 0.399 -0.882 -0.250 91 103 59
18.9154 73.9111 -23.2083 0.416 -0.877 -0.241 93 105 59
18.9866 74.1417 -23.3724 0.433 -0.870 -0.237 88 102 52
19.0610 74.3161 -23.5150 0.421 -0.878 -0.227 90 104 53
19.1431 74.3300 -23.5946 0.449 -0.864 -0.226 95 109 56
19.2245 74.3632 -23.6821 0.445 -0.866 -0.229 96 110 57
25.0093 64.9716 -24.7768 0.630 -0.683 0.369 124 132 81
25.2679 63.6434 -24.4303 -0.787 -0.556 0.268 131 140 83
25.3407 63.4871 -24.4274 -0.752 -0.625 0.211 130 140 80
25.6984 62.6730 -24.3935 0.338 -0.923 0.184 125 134 77
25.7849 62.7499 -24.5044 0.548 -0.836 -0.030 111 120 63
25.9497 62.7682 -24.6601 0.529 -0.832 -0.165 111 120 65
26.0315 62.7646 -24.7318 0.290 -0.811 0.508 114 123 68
27.6702 63.2068 -26.3927 -0.118 -0.807 -0.579 111 119 65
27.7662 63.3017 -26.5201 -0.094 -0.811 -0.577 105 114 62
16.4836 69.3750 -19.2049 0.064 -0.850 -0.522 45 57 33
16.9798 72.1981 -20.8870 0.077 -0.951 -0.301 63 70 37
17.2319 72.9050 -21.4229 0.294 -0.952 -0.080 63 74 31
17.3090 72.9073 -21.4932 -0.182 -0.924 0.337 89 101 54
17.3859 72.9152 -21.5657 -0.208 -0.924 0.321 120 130 79
17.4604 72.9589 -21.6517 -0.109 -0.948 0.298 127 137 85
17.5384 72.9560 -21.7205 0.071 -0.977 0.200 105 115 64
17.6184 72.9248 -21.7787 0.339 -0.930 -0.140 84 92 44
17.6938 72.9651 -21.8641 0.339 -0.930 -0.140 79 86 40
17.7669 73.0441 -21.9643 0.332 -0.932 -0.142 83 91 44
17.8402 73.1247 -22.0655 0.332 -0.933 -0.141 99 109 61
18.1491 73.2456 -22.3958 0.315 -0.948 -0.049 67 75 36
18.2281 73.2541 -22.4705 0.316 -0.948 -0.043 61 68 32
18.3856 73.2918 -22.6285 0.585 -0.757 0.291 62 69 37
18.6051 73.6977 -23.0034 0.382 -0.884 -0.270 81 92 51
18.6808 73.8017 -23.1170 0.366 -0.895 -0.255 85 97 51
18.7554 73.9383 -23.2437 0.504 -0.858 0.100 93 105 55
18.9051 74.2294 -23.5057 0.190 -0.980 0.062 95 108 55
18.9680 74.6507 -23.7467 -0.068 -0.986 -0.151 99 112 58
19.0404 74.8880 -23.9156 0.013 -0.993 -0.114 99 112 58
19.1334 74.6705 -23.9039 0.061 -0.992 -0.112 102 115 61
24.8598 65.0115 -24.8166 0.328 0.009 0.945 113 122 69
24.9376 64.9113 -24.8427 0.328 0.009 0.945 90 98 47
25.2020 63.6694 -24.5363 -0.778 -0.568 0.269 132 141 85
25.2778 63.5622 -24.5573 -0.775 -0.574 0.264 131 141 80
25.3243 62.9501 -24.3311 -0.822 -0.537 0.192 130 140 79
25.3960 62.7909 -24.3257 -0.823 -0.532 0.200 127 137 77
25.4669 62.6242 -24.3164 -0.359 -0.925 -0.122 121 130 73
25.5493 62.6466 -24.4002 -0.281 -0.952 -0.124 117 126 69
27.4231 63.1318 -26.2956 -0.119 -0.786 -0.607 110 118 69
16.8209 72.3088 -20.9520 0.789 -0.501 0.357 60 67 35
16.8870 72.4312 -21.0654 0.778 -0.538 0.324 67 74 40
17.1561 72.9125 -21.5197 -0.081 -0.923 0.377 102 113 69
17.2350 72.8899 -21.5808 -0.182 -0.924 0.337 122 134 84
17.3150 72.8537 -21.6368 -0.182 -0.924 0.337 112 122 68
17.3898 72.8920 -21.7210 0.051 -0.978 0.201 88 99 45
17.4681 72.8825 -21.7873 0.051 -0.978 0.201 82 92 41
17.5457 72.8865 -21.8589 0.310 -0.943 -0.123 89 96 51
17.6173 72.9799 -21.9645 0.325 -0.935 -0.145 96 103 61
17.6921 73.0313 -22.0545 0.332 -0.932 -0.142 123 130 88
17.7653 73.1116 -22.1558 0.332 -0.933 -0.141 132 141 99
18.0743 73.2252 -22.4840 0.315 -0.948 -0.049 53 60 26
18.1533 73.2331 -22.5586 0.316 -0.948 -0.043 57 64 31
18.4663 73.3543 -22.8937 0.550 -0.834 0.053 90 101 60
18.5255 73.7504 -23.1216 0.397 -0.882 -0.253 91 103 57
18.6033 73.8134 -23.2194 0.397 -0.882 -0.253 93 105 55
18.6728 74.0447 -23.3839 0.517 -0.853 0.068 95 108 56
18.8670 75.1351 -24.0390 0.166 -0.964 -0.206 102 115 61
24.8568 64.6601 -24.8162 0.328 0.009 0.945 64 72 21
25.1308 63.5975 -24.5946 -0.740 -0.622 0.256 132 141 88
25.2673 63.1203 -24.5073 -0.836 -0.549 0.014 117 127 67
25.3458 63.0726 -24.5570 -0.807 -0.551 0.213 109 118 60
25.4052 62.7011 -24.4468 -0.317 -0.939 -0.132 104 113 56
25.4875 62.7227 -24.5304 -0.261 -0.957 -0.123 108 117 60
27.8506 63.7550 -27.1124 -0.114 -0.807 -0.580 102 110 61
27.9419 63.7877 -27.2090 -0.044 -0.872 -0.487 106 115 62
28.2307 64.0086 -27.5664 0.098 -0.932 -0.348 108 118 57
17.0844 72.8650 -21.5960 0.577 -0.544 0.609 107 119 69
17.1671 72.7908 -21.6377 -0.073 -0.911 0.405 86 100 44
17.2413 72.8312 -21.7226 -0.098 -0.922 0.373 83 94 35
17.4688 72.9066 -21.9612 0.441 -0.897 -0.003 109 117 71
17.5402 73.0017 -22.0678 0.322 -0.935 -0.150 124 131 90
17.6157 73.0415 -22.1536 0.322 -0.935 -0.150 102 109 68
17.6927 73.0633 -22.2327 0.345 -0.939 0.010 65 73 32
17.9986 73.2190 -22.5777 0.309 -0.949 -0.061 57 65 29
18.0716 73.3245 -22.6904 0.314 -0.927 -0.204 67 74 38
18.1505 73.3392 -22.7680 0.307 -0.943 -0.130 79 88 46
18.2261 73.4120 -22.8686 0.295 -0.947 -0.124 86 95 51
18.2931 73.6440 -23.0318 0.477 -0.869 -0.128 88 100 54
18.3622 73.8488 -23.1849 0.584 -0.801 0.135 91 105 56
18.4389 73.9291 -23.2897 0.590 -0.795 0.143 93 107 56
18.6295 74.9812 -23.9280 0.532 -0.819 0.216 98 111 56
24.7784 64.4479 -24.8079 0.372 -0.013 0.928 70 78 28
25.2007 63.1258 -24.6030 -0.801 -0.584 0.131 110 119 63
25.2755 63.0119 -24.6201 -0.808 -0.570 0.150 111 120 65
25.4242 62.7755 -24.6494 -0.792 -0.571 0.216 112 121 64
26.4446 63.2014 -25.7589 0.262 -0.961 0.088 109 119 59
39.8985 80.0091 -45.3470 0.552 -0.764 0.335 108 111 57
40.0709 80.1481 -45.5642 0.552 -0.766 0.329 86 88 49
40.4500 80.5528 -46.0856 0.592 -0.752 0.290 32 32 22
40.6570 80.8180 -46.3899 0.599 -0.768 0.227 28 30 17
41.8787 84.5005 -49.1242 0.293 -0.228 0.928 30 33 26
15.7048 65.5789 -17.2625 -0.123 -0.954 -0.272 97 116 60
16.2099 69.2721 -19.3656 -0.283 -0.709 -0.646 50 64 26
16.9396 72.7683 -21.5842 0.588 -0.513 0.625 89 100 55
17.0225 72.6907 -21.6245 0.538 -0.406 0.739 74 86 36
17.1014 72.6643 -21.6841 0.560 -0.530 0.637 81 95 39
17.3967 72.8571 -22.0372 0.437 -0.900 -0.002 111 118 74
17.4713 72.9049 -22.1259 0.430 -0.903 -0.015 82 89 50
17.5441 72.9807 -22.2256 0.367 -0.930 0.040 59 65 28
17.6224 72.9815 -22.2967 0.373 -0.926 0.053 54 62 24
17.6992 73.0078 -22.3778 0.373 -0.926 0.053 55 63 25
17.7761 73.0341 -22.4592 0.373 -0.926 0.053 54 62 23
17.9974 73.2901 -22.7734 0.307 -0.943 -0.130 86 94 53
18.0727 73.3619 -22.8736 0.323 -0.938 -0.124 91 100 54
18.2874 73.8090 -23.2671 0.582 -0.798 0.155 93 107 54
18.3500 74.1381 -23.4703 0.219 -0.970 -0.103 96 111 57
24.3631 63.9316 -24.3585 0.611 -0.110 0.784 130 139 86
24.7767 64.1191 -24.8161 0.517 -0.248 0.819 64 71 28
24.8570 64.0898 -24.8757 0.517 -0.248 0.819 75 81 43
26.7938 63.1318 -26.2002 -0.152 -0.804 -0.574 101 110 57
27.1640 63.4577 -26.6803 -0.115 -0.807 -0.579 84 92 43
39.6303 79.8428 -45.2590 0.557 -0.760 0.336 107 110 52
39.7801 79.8929 -45.4168 0.552 -0.764 0.335 109 112 58
39.9522 80.0324 -45.6347 0.552 -0.766 0.329 93 95 56
40.1011 80.0738 -45.7878 0.552 -0.766 0.329 14 15 6
40.3255 80.4174 -46.1439 0.589 -0.754 0.291 31 31 21
40.4796 80.4733 -46.3082 0.539 -0.812 0.223 27 29 15
41.8204 84.6489 -49.3823 0.308 -0.185 0.933 27 29 23
15.3489 65.2938 -16.9527 0.065 -0.880 -0.471 100 119 77
16.1766 69.6238 -19.6446 -0.281 -0.706 -0.650 45 59 26
16.8804 72.5659 -21.6020 0.569 -0.506 0.648 72 83 42
16.9578 72.5566 -21.6679 0.563 -0.529 0.635 83 95 48
17.3942 72.9248 -22.2286 0.060 -0.967 0.246 53 59 26
17.8363 73.3719 -22.8299 0.308 -0.951 -0.040 86 94 54
17.8997 73.6295 -23.0028 0.524 -0.845 -0.104 92 100 59
18.0646 73.5519 -23.1175 0.591 -0.785 0.187 100 110 62
18.1426 73.5897 -23.2052 0.591 -0.785 0.187 97 109 59
18.2143 73.7418 -23.3383 0.582 -0.798 0.155 95 109 56
18.2928 73.7818 -23.4275 0.582 -0.798 0.155 99 114 59
24.4583 63.9719 -24.6174 0.578 -0.294 0.761 128 137 84
24.6999 63.9298 -24.8175 0.622 -0.604 0.498 72 79 35
24.7822 63.9472 -24.8999 0.624 -0.605 0.495 61 66 32
24.8647 63.9646 -24.9825 0.624 -0.605 0.495 78 83 51
26.3773 62.9866 -25.9151 -0.109 -0.802 -0.587 110 120 62
26.5582 63.1474 -26.1512 -0.161 -0.790 -0.592 99 107 55
26.9250 63.4687 -26.6278 -0.161 -0.791 -0.590 81 89 39
27.0185 63.5564 -26.7519 -0.167 -0.790 -0.590 95 103 53
39.5047 79.6948 -45.3072 0.340 -0.904 0.259 104 107 50
39.6811 79.8565 -45.5396 0.446 -0.828 0.340 106 108 55
39.8337 79.9168 -45.7050 0.552 -0.766 0.329 102 105 65
39.9823 79.9581 -45.8582 0.552 -0.766 0.329 12 13 3
40.1547 80.0937 -46.0752 0.554 -0.770 0.317 29 30 20
16.4725 72.0151 -21.1449 0.625 -0.763 0.167 65 75 41
16.5344 72.1703 -21.2711 0.631 -0.757 0.170 58 66 29
16.6005 72.2813 -21.3813 0.637 -0.745 0.197 62 70 33
16.8082 72.5303 -21.6823 0.589 -0.508 0.629 90 99 55
16.8816 72.5693 -21.7666 0.355 -0.862 0.361 99 111 65
17.5364 73.1653 -22.6304 0.206 -0.942 -0.266 81 88 44
17.6076 73.2775 -22.7457 0.220 -0.944 -0.247 88 95 53
17.9020 73.6429 -23.1779 0.304 -0.951 -0.056 96 108 57
17.9952 73.4315 -23.1673 0.589 -0.781 0.206 98 111 58
18.0728 73.4729 -23.2565 0.592 -0.779 0.207 98 111 57
24.0369 63.0608 -23.9788 0.578 -0.522 0.627 128 137 82
24.1099 62.8938 -23.9698 0.598 -0.738 -0.313 129 138 85
24.6224 63.7153 -24.8061 0.628 -0.724 -0.287 82 90 43
39.4219 79.7251 -45.4740 0.096 -0.992 0.081 106 107 52
39.5613 79.7338 -45.6047 0.160 -0.987 -0.004 105 107 57
39.7178 79.8112 -45.7818 0.169 -0.986 -0.008 115 118 78
39.8660 79.8519 -45.9347 0.341 -0.919 0.197 9 11 1
40.0328 79.9667 -46.1381 0.365 -0.907 0.211 27 30 20
15.3243 65.4733 -17.2914 0.065 -0.880 -0.471 25 37 18
16.4019 71.9712 -21.2208 0.634 -0.748 0.196 64 74 40
16.4591 72.1776 -21.3666 0.296 -0.948 -0.116 65 73 35
16.5266 72.2711 -21.4705 0.305 -0.945 -0.116 68 76 37
16.5936 72.3743 -21.5784 0.480 -0.856 0.192 78 86 45
16.6770 72.2857 -21.6141 0.497 -0.850 0.173 85 94 50
16.7348 72.5085 -21.7678 0.355 -0.862 0.361 91 100 56
16.8111 72.5103 -21.8381 0.355 -0.862 0.361 89 100 57
17.3135 73.0216 -22.5276 0.219 -0.936 -0.275 76 82 41
17.3887 73.0651 -22.6158 0.219 -0.936 -0.275 84 93 44
17.4600 73.1678 -22.7274 0.206 -0.944 -0.259 87 97 47
17.5341 73.2349 -22.8253 0.220 -0.944 -0.244 90 100 56
17.6026 73.3905 -22.9583 0.129 -0.940 -0.316 91 102 60
17.7564 73.4687 -23.1338 0.471 -0.744 0.475 97 108 62
17.8425 73.3694 -23.1672 0.458 -0.782 0.422 97 109 58
23.9640 62.8786 -23.9823 0.555 -0.543 0.630 131 140 85
25.8928 62.7524 -25.6816 -0.070 -0.818 -0.571 113 120 68
36.5308 67.8899 -37.7005 0.187 -0.959 -0.211 109 109 56
36.6676 67.9813 -37.8666 0.162 -0.980 -0.115 102 105 56
36.7917 68.0170 -37.9958 0.162 -0.980 -0.115 110 113 75
39.7605 79.7899 -46.0409 0.341 -0.919 0.197 12 15 3
16.2569 71.9227 -21.2268 0.582 -0.792 0.185 52 61 34
16.3155 72.1057 -21.3638 0.300 -0.947 -0.113 63 73 40
16.3854 72.1654 -21.4549 0.296 -0.948 -0.116 75 83 45
16.4576 72.2035 -21.5381 0.288 -0.950 -0.117 80 88 46
16.5173 72.3901 -21.6778 -0.350 -0.935 -0.062 89 98 55
16.5954 72.3648 -21.7375 -0.350 -0.935 -0.062 84 93 51
16.6616 72.4841 -21.8524 -0.138 -0.988 0.069 78 86 46
16.7392 72.4688 -21.9163 -0.138 -0.988 0.069 65 75 36
17.1629 72.9732 -22.5332 0.216 -0.935 -0.282 86 95 52
17.2320 73.0954 -22.6520 0.533 -0.845 -0.036 86 95 48
17.3003 73.2330 -22.7772 0.508 -0.859 -0.063 88 99 47
17.3754 73.2842 -22.8691 0.508 -0.859 -0.063 89 101 50
17.4585 73.2239 -22.9174 0.528 -0.847 -0.054 91 103 57
17.5006 73.7595 -23.2003 0.267 -0.945 -0.191 93 106 63
17.6031 73.4230 -23.1403 0.446 -0.760 0.473 99 112 68
17.7688 73.3234 -23.2461 0.515 -0.713 0.476 98 112 60
23.8936 62.7646 -24.0184 0.555 -0.543 0.630 125 134 77
24.5690 63.7432 -25.0815 0.624 -0.725 -0.292 33 38 9
26.2011 63.3476 -26.3908 -0.063 -0.824 -0.563 77 83 35
36.4587 67.9052 -37.8339 0.187 -0.959 -0.211 108 108 57
36.5924 67.9835 -37.9917 0.162 -0.980 -0.115 101 104 57
36.7164 68.0192 -38.1212 0.162 -0.980 -0.115 113 116 80
15.1903 65.4849 -17.4564 0.432 -0.852 -0.295 22 34 13
16.2342 72.1793 -21.4842 0.622 -0.761 0.181 59 69 35
16.3025 72.2571 -21.5825 0.617 -0.768 0.172 73 81 43
16.3746 72.2962 -21.6664 0.617 -0.768 0.172 84 93 52
16.4335 72.4899 -21.8092 -0.141 -0.988 0.066 82 90 48
16.5144 72.4333 -21.8572 -0.336 -0.940 -0.065 65 73 36
