ply
format ascii 1.0
element vertex 897
property float x
property float y
property float z
property float nx
property float ny
property float nz
property uchar diffuse_red
property uchar diffuse_green
property uchar diffuse_blue
end_header
-22.3121 81.6188 3.8373 0.653 -0.001 0.757 26 32 20
-30.3537 97.4810 3.8008 -0.425 -0.883 -0.199 44 51 34
-30.0018 97.1041 3.7682 -0.523 -0.837 0.162 48 57 36
-27.7544 94.2268 3.6109 -0.157 -0.600 0.785 72 83 48
-27.4667 94.2491 3.5486 0.394 -0.428 0.813 82 93 49
-28.0217 96.8569 3.3831 -0.749 -0.632 -0.202 85 95 40
-9.6486 85.6585 0.7690 0.125 -0.700 0.704 51 61 27
-11.9273 99.3338 -0.2301 -0.195 -0.947 -0.257 71 114 122
-10.9367 99.1551 -0.4169 -0.131 -0.684 0.718 83 114 79
-10.0167 97.5747 -0.4379 0.424 -0.742 0.519 66 87 51
-2.7296 101.7700 -2.4050 0.283 -0.150 0.947 80 104 86
2.6381 98.6386 -3.1838 0.429 -0.560 0.709 92 104 67
3.2421 96.4151 -3.0699 0.678 -0.371 0.634 74 85 52
5.4627 80.7069 -1.8397 -0.461 -0.720 0.520 59 69 41
5.5947 80.6287 -1.8587 -0.459 -0.726 0.513 40 50 26
22.0538 78.9096 -5.0959 0.008 -0.878 0.478 97 105 64
22.1817 79.0090 -5.1332 0.531 -0.742 0.408 82 89 47
24.1793 85.3942 -6.2363 0.915 -0.261 0.309 25 28 11
24.5771 87.4439 -6.5398 0.741 -0.295 0.603 29 32 12
27.1957 99.2636 -8.3574 0.706 -0.147 0.693 85 92 40
27.4204 99.7661 -8.4582 0.663 -0.145 0.735 92 99 49
38.0375 81.0043 -8.6450 0.269 -0.881 0.390 99 121 78
38.4357 81.1299 -8.7413 0.031 -0.892 0.452 94 115 79
38.6443 81.0477 -8.7758 -0.515 -0.699 0.496 119 136 88
38.7486 81.0074 -8.7932 -0.401 -0.758 0.515 109 124 71
38.8974 81.0947 -8.8335 0.066 -0.876 0.478 110 124 63
40.2552 82.2252 -9.2376 -0.286 -0.842 0.457 163 174 118
-34.7852 94.8657 4.8508 0.406 -0.865 0.296 1 13 0
-36.3421 100.2140 4.5887 -0.429 -0.873 -0.232 87 96 53
-36.2477 100.3306 4.5563 -0.753 -0.658 0.011 84 93 51
-36.0973 100.3496 4.5230 -0.715 -0.698 0.015 71 80 38
-35.8297 100.1630 4.4878 -0.719 -0.694 0.047 57 68 29
-35.6334 100.1007 4.4538 -0.634 -0.743 0.215 40 50 16
-35.2705 99.7433 4.4175 -0.364 -0.751 0.551 29 37 12
-34.9778 99.5081 4.3825 -0.397 -0.718 0.572 18 25 9
-34.6818 99.2653 4.3475 -0.288 -0.810 0.512 14 20 11
-34.5136 99.2494 4.3143 0.459 -0.621 -0.635 11 16 11
-34.3862 100.1712 4.1869 0.503 -0.578 -0.642 10 15 10
-33.5157 99.4619 4.0836 -0.759 -0.631 0.161 5 11 2
-32.7943 98.7214 4.0147 0.039 -0.455 0.890 9 15 4
-32.4993 98.4685 3.9811 -0.016 -0.455 0.890 11 17 5
-32.4022 98.5806 3.9486 0.202 -0.930 0.306 8 15 1
-21.7291 79.4960 3.8200 0.794 -0.495 0.353 32 40 19
-30.3812 97.4315 3.6544 -0.488 -0.863 -0.130 73 81 58
-29.9975 96.9941 3.6225 -0.507 -0.852 0.130 72 82 57
-29.9326 97.1670 3.5901 -0.506 -0.846 -0.168 73 84 56
-10.5186 85.7687 0.8028 -0.017 -0.699 0.715 139 150 106
-11.9875 99.3878 -0.3833 -0.195 -0.947 -0.257 76 119 124
-11.8013 99.2897 -0.4112 -0.264 -0.952 -0.159 82 121 127
-10.0025 97.3777 -0.5758 0.467 -0.670 0.577 66 88 52
-2.2953 100.9511 -2.5691 0.538 -0.120 0.835 75 104 80
-2.1750 101.1538 -2.6163 0.504 -0.136 0.853 75 104 76
5.5755 80.5607 -1.9722 -0.459 -0.726 0.513 38 48 24
19.2706 79.5009 -4.7029 -0.340 -0.352 0.872 117 126 70
21.7912 78.8113 -5.1513 -0.038 -0.743 0.668 93 101 60
21.9085 78.8177 -5.1764 0.005 -0.737 0.676 129 137 96
22.0231 78.8004 -5.1984 0.011 -0.734 0.679 98 107 65
27.1496 100.1680 -8.6040 -0.710 -0.659 -0.250 71 79 28
27.2930 100.0997 -8.6263 -0.715 -0.645 -0.269 77 84 31
27.3988 99.7743 -8.6127 -0.701 -0.673 -0.238 84 91 41
38.0049 80.9401 -8.7548 0.343 -0.841 0.419 97 120 77
38.4052 81.0725 -8.8525 0.031 -0.892 0.452 93 115 80
38.8472 80.9812 -8.9343 -0.172 -0.892 0.419 110 123 62
40.2208 82.1586 -9.3488 -0.385 -0.860 0.333 162 173 117
-34.7091 94.6446 4.7063 0.334 -0.831 0.445 2 14 0
-36.6518 101.2196 4.3781 -0.738 -0.591 0.326 35 40 16
-35.7591 100.2214 4.3037 -0.564 -0.711 0.421 15 22 3
-35.3064 99.7063 4.2670 -0.405 -0.748 0.526 7 13 0
-34.8923 99.2560 4.2311 -0.407 -0.661 0.630 11 16 7
-34.5942 99.0094 4.1966 -0.412 -0.664 0.623 12 17 10
-34.5088 99.1405 4.1642 -0.412 -0.688 0.597 11 16 13
-34.0342 100.0133 3.9685 -0.636 -0.676 0.372 11 16 10
-33.6915 99.6809 3.9342 -0.738 -0.648 0.189 11 17 6
-32.8148 98.6576 3.8660 -0.101 -0.479 0.872 18 25 8
-32.6203 98.5904 3.8330 -0.093 -0.483 0.870 23 30 12
-31.8664 97.4878 3.7991 -0.371 -0.419 0.829 29 37 14
-21.6253 79.2222 3.7042 0.821 -0.569 0.049 53 62 33
-22.2330 80.5920 3.6780 0.871 -0.126 0.474 59 68 39
-22.3622 81.0706 3.6516 0.679 -0.019 0.734 64 73 44
-22.2767 81.1471 3.6253 0.677 -0.029 0.735 68 77 48
-22.3659 81.7963 3.5715 0.776 -0.102 0.622 78 87 58
-29.1869 96.2218 3.3832 -0.639 -0.555 0.533 80 92 52
-9.9544 85.5521 0.5743 0.028 -0.794 0.607 49 60 22
-9.8021 85.4914 0.5494 0.193 -0.715 0.672 65 75 42
-9.6425 85.4079 0.5256 0.056 -0.764 0.642 53 62 30
-10.4037 97.0357 -0.6106 0.414 -0.416 0.809 83 114 80
-1.9996 100.8525 -2.7818 0.542 -0.182 0.820 76 108 81
-1.7551 101.2453 -2.8764 0.819 -0.377 0.432 73 100 73
5.5564 80.4927 -2.0857 -0.459 -0.726 0.513 36 46 22
3.5656 104.4584 -4.3397 0.770 -0.280 0.574 110 118 69
8.6423 81.3126 -2.8182 0.332 -0.398 0.855 103 110 57
21.4036 78.6259 -5.1709 0.559 -0.298 0.774 80 88 47
21.7649 78.7416 -5.2589 -0.015 -0.700 0.714 102 110 69
21.8809 78.7368 -5.2825 0.108 -0.678 0.727 118 126 85
21.9967 78.7302 -5.3058 0.108 -0.678 0.727 101 109 68
27.3051 100.3449 -8.8149 -0.689 -0.673 -0.268 71 78 25
27.4080 99.9954 -8.7974 -0.705 -0.671 -0.228 78 85 34
27.5432 99.8746 -8.8120 0.038 -0.995 0.094 85 92 40
38.3846 81.0436 -8.9688 -0.068 -0.937 0.344 94 115 81
38.5015 81.0390 -8.9925 -0.292 -0.841 0.455 137 156 116
38.8131 80.9137 -9.0434 -0.073 -0.786 0.613 108 120 58
-34.6751 94.4951 4.5631 0.306 -0.699 0.647 2 13 0
-36.8106 101.3954 4.2262 -0.738 -0.594 0.320 6 9 0
-35.9546 100.4645 4.1537 -0.622 -0.649 0.437 9 14 6
-35.5066 99.9591 4.1178 -0.485 -0.740 0.466 12 17 9
-35.0804 99.4891 4.0824 -0.589 -0.655 0.474 9 14 7
-34.6949 99.0883 4.0477 -0.564 -0.654 0.504 9 14 8
-34.4165 98.8757 4.0139 -0.572 -0.594 0.565 11 16 10
-34.2142 99.0821 3.9485 0.410 -0.781 -0.471 13 17 14
-34.0145 99.0091 3.9153 0.499 -0.729 -0.469 11 16 14
-33.8468 99.2809 3.8497 0.323 -0.752 -0.575 21 26 20
-33.6477 99.2087 3.8165 -0.586 -0.649 0.484 24 30 20
-33.5210 99.2678 3.7835 -0.731 -0.633 0.254 28 35 20
-33.1813 98.9379 3.7502 -0.672 -0.639 0.374 34 41 22
-32.5625 98.0932 3.7172 0.436 -0.597 0.673 42 50 29
-31.3741 96.4778 3.6531 -0.244 -0.641 0.727 58 68 34
-10.8610 86.1570 0.5592 -0.606 -0.672 0.426 64 72 37
-9.9604 85.4551 0.4515 -0.039 -0.799 0.600 61 72 34
-9.8023 85.3768 0.4275 0.193 -0.715 0.672 64 74 41
-9.6386 85.2805 0.4044 -0.022 -0.715 0.698 59 69 35
-12.2125 99.8399 -0.7078 0.269 -0.930 0.251 85 130 127
-12.0711 99.8937 -0.7433 0.267 -0.924 0.276 88 129 127
-11.5535 100.8185 -0.9554 0.163 -0.279 0.946 83 115 81
5.5361 80.4338 -2.1997 -0.482 -0.735 0.476 40 50 26
8.5302 80.8859 -2.8729 0.406 -0.373 0.834 99 106 54
8.6266 81.1843 -2.9267 0.293 -0.705 0.646 102 109 56
27.2975 100.4528 -8.9849 -0.690 -0.673 -0.267 87 94 41
27.4005 100.1021 -8.9667 -0.707 -0.671 -0.224 88 95 44
27.5016 99.7458 -8.9474 -0.671 -0.675 -0.306 96 103 50
38.3600 81.0035 -9.0830 -0.068 -0.937 0.344 91 112 78
38.4730 80.9874 -9.1047 -0.068 -0.937 0.344 134 154 113
38.6971 80.9505 -9.1470 -0.097 -0.948 0.304 102 117 64
38.7780 80.8433 -9.1517 0.169 -0.761 0.627 106 118 56
-33.9418 93.9269 4.3232 0.734 -0.399 0.550 8 11 15
-34.2901 94.7756 4.2980 0.899 -0.359 -0.252 30 34 37
-36.7405 101.1711 4.0719 -0.730 -0.588 0.349 10 15 9
-34.4398 99.1007 3.8320 0.338 -0.796 -0.502 17 24 10
-34.6108 99.9803 3.7665 0.934 -0.269 0.235 22 29 10
-33.9742 99.6999 3.6665 -0.642 -0.623 0.446 41 49 24
-33.5976 99.3057 3.6335 -0.735 -0.621 0.272 49 57 30
-33.1994 98.8694 3.6010 -0.672 -0.639 0.374 57 66 36
-32.4613 97.8070 3.5698 0.604 -0.749 0.274 67 77 45
-31.0566 95.7927 3.5096 -0.177 -0.606 0.776 77 88 48
-30.3038 94.6819 3.4809 -0.545 -0.807 -0.227 76 87 45
-21.6030 79.0221 3.4736 0.899 -0.433 -0.062 82 93 51
-22.0099 80.4806 3.3905 0.725 -0.083 0.684 80 91 50
-21.9960 80.6907 3.3635 0.723 -0.084 0.685 79 90 49
-23.9187 93.5908 2.2803 -0.206 -0.262 0.943 98 109 54
-22.9681 92.5002 2.2082 -0.267 -0.281 0.922 98 108 55
-21.9483 91.2326 2.1421 -0.494 -0.497 0.713 96 107 52
-10.8780 86.0928 0.4337 -0.606 -0.672 0.426 56 67 30
-9.9758 85.3866 0.3275 -0.310 -0.700 0.644 60 70 31
-9.7899 85.2243 0.3076 0.103 -0.636 0.765 60 70 36
-9.6275 85.1316 0.2845 0.039 -0.655 0.755 55 65 31
-1.5903 100.7825 -3.1833 0.433 -0.865 0.254 72 104 81
5.5160 80.3732 -2.3136 -0.482 -0.735 0.476 47 57 33
8.5196 80.7025 -2.9752 0.507 -0.610 0.609 97 104 52
21.6055 78.6914 -5.4617 -0.266 -0.458 0.848 75 83 42
38.3274 80.9397 -9.1928 -0.024 -0.929 0.369 87 109 73
38.4432 80.9319 -9.2160 -0.178 -0.875 0.450 131 151 110
38.5507 80.9004 -9.2347 -0.178 -0.875 0.450 115 132 86
38.6695 80.9016 -9.2595 -0.035 -0.949 0.315 99 113 60
38.8045 80.9492 -9.2930 -0.032 -0.744 0.667 101 113 53
40.1212 81.9686 -9.6836 -0.448 -0.831 0.328 158 169 113
-34.2422 94.0891 4.2146 0.840 -0.539 -0.059 10 16 12
-36.9975 101.2329 3.9527 -0.270 -0.695 0.667 7 12 4
-36.7071 101.0113 3.9183 -0.252 -0.389 0.886 7 12 5
-36.2067 100.4207 3.8834 -0.429 -0.540 0.724 8 15 8
-36.2164 100.7218 3.8502 -0.709 -0.689 0.152 11 18 10
-31.1783 95.6371 3.3978 0.046 -0.447 0.893 78 92 45
-30.4467 94.8491 3.3379 -0.034 -0.593 0.804 83 94 49
-21.6481 79.0270 3.3582 0.899 -0.434 -0.056 84 95 50
-21.9415 80.0366 3.3012 0.740 -0.092 0.666 83 95 50
-23.9620 92.9530 2.2129 -0.086 -0.230 0.969 92 102 54
-23.1405 92.1413 2.1371 -0.203 -0.346 0.916 95 103 61
-22.8834 91.9025 2.1116 -0.146 -0.323 0.935 96 104 64
-10.8994 86.0414 0.3078 -0.609 -0.676 0.415 49 60 23
-9.9712 85.2584 0.2065 -0.311 -0.710 0.631 55 65 26
-9.7933 85.1199 0.1857 -0.004 -0.693 0.721 57 66 34
-9.6200 84.9937 0.1645 0.039 -0.655 0.755 47 57 25
-11.8660 99.9681 -1.1172 0.356 -0.482 0.801 87 122 123
-11.7395 100.0738 -1.1558 0.726 -0.255 0.639 86 119 108
-4.3364 97.9591 -2.4460 -0.006 -0.905 0.425 94 115 72
2.8344 95.9432 -3.6994 0.464 -0.884 0.054 86 98 62
21.3207 78.3683 -5.4858 -0.001 -0.833 -0.553 76 84 45
21.5742 78.5724 -5.5623 -0.262 -0.456 0.851 77 85 44
21.6791 78.4643 -5.5714 -0.114 -0.521 0.846 91 99 58
22.1608 78.6131 -5.6888 0.602 -0.782 0.162 109 117 70
38.3289 80.9757 -9.3213 -0.162 -0.709 0.686 85 107 69
38.5365 80.8899 -9.3544 -0.185 -0.703 0.686 111 128 81
-37.5494 101.8044 3.8340 -0.314 -0.949 0.023 8 14 1
-34.5938 98.8910 3.5659 -0.508 -0.660 0.554 41 52 22
-34.5553 99.1058 3.5324 0.226 -0.897 -0.380 50 62 28
-31.5194 95.8837 3.2843 -0.364 -0.528 0.767 80 94 40
-24.4880 90.9288 2.4123 0.301 -0.810 0.504 93 103 50
-23.1076 91.6601 2.0391 -0.247 -0.484 0.840 60 65 46
-10.1270 85.2152 0.1090 -0.594 -0.724 0.350 112 124 79
-9.9845 85.1839 0.0831 -0.362 -0.697 0.620 53 63 26
-7.3382 79.4391 0.2149 0.535 -0.813 0.231 169 181 125
-7.0744 79.3743 0.1678 0.210 -0.708 0.675 168 178 129
-4.3347 97.7720 -2.5817 -0.023 -0.900 0.436 94 115 69
21.7644 78.3499 -5.6962 0.130 -0.707 0.695 123 131 90
21.8802 78.3478 -5.7200 0.130 -0.707 0.695 91 99 58
38.0158 80.7837 -9.3577 0.369 -0.786 0.496 84 105 65
38.3942 80.8519 -9.4443 -0.280 -0.679 0.679 132 154 108
38.4991 80.8128 -9.4615 -0.172 -0.697 0.696 110 129 79
38.6140 80.8027 -9.4841 -0.031 -0.745 0.667 97 113 62
38.7254 80.7830 -9.5049 -0.050 -0.764 0.643 105 118 64
39.8971 81.7370 -9.8612 0.411 -0.675 0.613 132 145 89
40.0190 81.7428 -9.8871 -0.460 -0.763 0.453 143 156 100
-34.7388 94.2334 3.9952 -0.478 -0.569 0.669 10 19 1
-35.5959 99.7139 3.5134 -0.698 -0.711 0.087 46 58 37
-34.9936 98.9354 3.4821 -0.704 -0.706 0.080 54 66 42
-24.5910 91.0402 2.2739 -0.037 -0.142 0.989 89 99 48
-24.3064 90.7540 2.2493 -0.047 -0.152 0.987 86 96 46
-24.0133 90.4484 2.2253 0.021 -0.144 0.989 87 96 48
-23.1416 91.3249 1.9390 -0.171 -0.484 0.859 15 19 3
-22.9483 91.2211 1.9113 -0.016 -0.891 0.454 7 10 2
-10.1518 85.1751 -0.0161 -0.594 -0.724 0.350 110 121 78
-7.3282 79.3008 0.1051 0.458 -0.645 0.612 162 175 116
-7.0750 79.2680 0.0565 0.210 -0.708 0.675 172 182 131
-4.2812 97.3498 -2.6994 -0.131 -0.733 0.667 94 117 67
4.9810 80.1151 -2.5469 -0.199 -0.633 0.749 86 98 63
3.0382 96.1280 -4.0710 0.084 -0.901 -0.426 68 79 47
21.7371 78.2697 -5.8015 0.137 -0.713 0.688 125 134 91
21.8524 78.2635 -5.8246 0.139 -0.707 0.693 81 90 46
37.9760 80.6985 -9.4631 0.369 -0.786 0.496 85 105 65
38.3519 80.7599 -9.5485 -0.273 -0.688 0.672 133 156 107
38.4563 80.7196 -9.5653 -0.172 -0.697 0.696 108 127 78
38.5787 80.7317 -9.5922 -0.012 -0.741 0.671 95 111 61
38.6574 80.6181 -9.5948 -0.126 -0.923 0.364 103 116 64
39.5805 81.5505 -9.8986 0.824 -0.544 0.158 122 136 77
-37.4078 100.2377 3.6621 -0.508 -0.515 0.690 11 18 4
-36.7520 100.2231 3.5279 -0.183 -0.892 -0.413 37 45 20
-36.5261 100.1122 3.4946 -0.195 -0.893 -0.406 41 51 25
-36.0483 100.1241 3.3940 -0.718 -0.693 0.064 62 72 45
-35.6833 99.7668 3.3620 -0.707 -0.703 0.074 72 82 52
-36.5629 103.3663 3.1047 -0.078 -0.948 -0.308 84 99 44
-36.2478 103.4012 3.0351 -0.105 -0.941 -0.323 83 97 44
-23.2360 90.8174 1.8735 0.896 -0.136 0.424 8 12 1
-23.0256 91.2846 1.7727 -0.070 -0.907 0.415 9 15 5
-22.8276 91.1706 1.7456 -0.033 -0.875 0.483 10 16 7
-7.5634 79.1711 0.0454 -0.008 -0.714 0.700 158 169 130
-7.3309 79.2019 -0.0065 0.467 -0.650 0.599 158 168 109
-7.0650 79.1289 -0.0528 0.504 -0.610 0.612 166 179 125
-11.6600 98.8419 -1.5080 0.359 -0.180 0.916 87 119 106
-11.6302 99.2649 -1.5659 0.424 -0.301 0.854 84 116 95
-4.3408 97.4428 -2.8552 0.504 -0.264 0.822 94 118 65
4.9646 80.0302 -2.6581 -0.205 -0.635 0.745 87 98 66
3.0252 95.9691 -4.2031 0.258 -0.741 -0.620 65 76 44
21.7175 78.2615 -5.9170 -0.089 -0.816 0.571 121 133 87
21.8323 78.2503 -5.9394 -0.094 -0.797 0.597 72 84 36
37.8911 80.4796 -9.5427 0.714 -0.653 0.253 84 104 65
38.2988 80.6365 -9.6464 -0.375 -0.849 0.372 134 156 110
38.4218 80.6504 -9.6736 -0.109 -0.825 0.554 106 125 77
38.5861 80.7836 -9.7240 0.463 -0.881 0.098 90 106 56
38.6315 80.5740 -9.7078 -0.105 -0.922 0.372 101 113 62
39.0587 80.7810 -9.8217 0.833 -0.532 0.150 145 158 102
39.9400 81.5810 -10.1022 0.385 -0.587 0.712 134 147 93
-37.6028 97.7851 3.8423 -0.269 -0.486 0.832 86 98 51
-35.5565 94.6548 3.8061 -0.603 -0.501 0.621 73 86 44
-34.7676 94.0978 3.7116 -0.093 -0.536 0.839 8 17 1
-35.1029 100.3524 3.0057 0.549 -0.751 -0.365 89 103 50
-23.4818 89.1701 1.9824 0.437 -0.353 0.827 42 45 32
-23.1762 90.8940 1.7053 0.634 -0.494 0.595 11 13 9
-22.9940 90.8131 1.6775 -0.219 -0.561 0.798 15 18 12
-7.3350 79.1074 -0.1182 0.459 -0.671 0.583 149 159 101
-7.0591 79.0027 -0.1624 0.489 -0.617 0.617 162 173 119
-11.5379 98.8103 -1.6895 0.372 -0.245 0.895 84 116 95
-4.2023 98.0328 -3.1142 0.203 -0.392 0.897 95 123 95
3.0114 76.5200 -1.9428 0.756 -0.371 0.539 78 100 64
4.9489 79.9409 -2.7687 -0.229 -0.694 0.682 88 99 67
8.5331 80.4235 -3.5718 0.241 -0.605 0.759 101 108 56
21.7014 78.2859 -6.0373 -0.463 -0.834 0.301 122 134 88
21.8122 78.2368 -6.0542 -0.436 -0.860 0.264 72 84 35
37.8520 80.3960 -9.6479 0.714 -0.653 0.253 85 105 67
38.1737 80.6481 -9.7458 -0.375 -0.849 0.372 82 108 64
38.2746 80.5972 -9.7604 -0.375 -0.849 0.372 134 156 111
38.3923 80.5961 -9.7847 -0.080 -0.910 0.408 104 124 74
38.5640 80.7504 -9.8394 0.439 -0.894 0.087 87 103 53
38.6171 80.5629 -9.8272 -0.032 -0.915 0.403 99 112 60
-35.2561 94.0655 3.6638 -0.511 -0.451 0.732 74 86 44
-34.7901 93.5424 3.6330 -0.465 -0.451 0.762 48 59 25
-34.7443 93.9669 3.5701 -0.051 -0.658 0.752 11 19 3
-36.2225 100.2268 3.0890 -0.771 -0.636 -0.033 80 93 49
-35.6028 100.2756 2.9544 -0.605 -0.782 0.148 84 99 43
-23.6760 88.8979 1.9134 0.389 -0.315 0.865 15 19 4
-23.5632 88.9538 1.8830 0.389 -0.315 0.865 6 9 0
-23.4503 89.0101 1.8525 0.431 -0.349 0.832 5 8 0
-23.5861 89.5751 1.8095 0.473 -0.879 -0.058 12 15 6
-23.5154 89.7206 1.7766 0.487 -0.871 -0.062 12 14 9
-23.4474 89.8727 1.7433 0.348 -0.937 0.036 10 12 11
-23.3404 90.2406 1.6749 0.735 -0.576 0.358 12 13 17
-23.3196 90.7940 1.6010 0.632 -0.464 0.620 10 12 10
-23.1583 90.7569 1.5722 0.634 -0.494 0.595 10 12 8
-22.9683 90.6592 1.5451 -0.202 -0.558 0.805 16 18 12
-7.3154 78.9404 -0.2254 0.451 -0.667 0.594 141 152 95
-11.6988 99.2011 -1.8656 0.185 -0.209 0.960 84 116 95
-4.5334 97.2680 -3.1078 0.158 -0.691 0.706 91 114 59
-4.2293 97.9758 -3.2598 0.147 -0.370 0.917 95 122 100
4.9328 79.8544 -2.8794 -0.107 -0.852 0.513 87 98 66
8.3512 79.4663 -3.5392 0.750 -0.430 0.503 94 101 50
8.5209 80.2613 -3.6744 0.321 -0.835 0.447 101 108 56
19.0553 79.0277 -5.7029 -0.869 -0.398 0.294 118 126 73
19.7728 79.1679 -5.8693 0.810 -0.586 0.017 73 83 49
20.0562 78.3083 -5.8199 -0.630 -0.630 0.454 102 113 73
21.7910 78.2128 -6.1675 -0.436 -0.860 0.264 71 83 34
37.8096 80.3030 -9.7510 0.719 -0.650 0.245 80 100 61
38.3647 80.5470 -9.8968 -0.070 -0.929 0.363 104 124 74
38.5430 80.7204 -9.9555 0.419 -0.905 0.074 97 114 63
38.5867 80.5059 -9.9376 -0.016 -0.914 0.406 85 98 46
-35.0177 93.5800 3.5230 -0.486 -0.408 0.773 73 86 45
-34.6098 93.6509 3.4295 -0.100 -0.643 0.759 36 44 27
-38.5578 102.7448 3.0871 0.382 -0.880 0.281 81 92 47
-38.4527 102.8506 3.0517 0.394 -0.875 0.281 81 93 46
-36.3700 100.3831 2.9351 -0.774 -0.621 0.125 84 98 47
-28.6410 93.1347 2.2584 0.529 -0.669 -0.522 91 103 51
-28.3555 92.8753 2.2324 -0.426 -0.721 -0.546 89 103 51
-23.6540 88.7585 1.7835 0.383 -0.386 0.839 10 13 8
-23.3631 89.8948 1.5782 0.329 -0.943 0.060 17 20 8
-23.2428 89.9402 1.5474 0.316 -0.947 0.059 12 16 3
-23.4580 90.6839 1.4971 -0.091 -0.996 -0.021 18 22 6
-23.2593 90.5687 1.4706 -0.069 -0.997 -0.022 26 30 14
-23.3551 91.3737 1.3878 0.677 -0.698 0.235 28 31 20
-9.8190 84.5128 -0.5417 -0.610 -0.640 0.468 33 40 21
-7.3837 78.6730 -0.3011 0.152 -0.681 0.717 191 199 152
-11.8526 99.5672 -2.0416 0.147 -0.254 0.956 85 117 96
-4.5445 97.1417 -3.2465 -0.108 -0.849 0.518 91 113 63
-4.4007 97.1816 -3.2814 -0.019 -0.801 0.598 92 116 76
4.9198 79.7467 -2.9878 -0.188 -0.946 0.265 86 100 67
8.4959 80.2446 -3.7924 0.296 -0.836 0.463 101 108 56
19.0324 78.9902 -5.8158 -0.869 -0.399 0.294 117 125 73
19.7501 79.1333 -5.9828 0.810 -0.586 0.017 73 83 48
20.0321 78.2538 -5.9290 -0.630 -0.630 0.454 101 111 72
21.7689 78.1813 -6.2797 -0.590 -0.777 0.220 81 93 45
37.7696 80.2168 -9.8553 0.723 -0.650 0.234 80 100 62
38.3446 80.5194 -10.0131 -0.043 -0.938 0.345 104 124 75
38.5568 80.4503 -10.0482 -0.032 -0.900 0.435 90 102 51
-34.3670 93.1549 3.2907 -0.237 -0.582 0.778 61 73 46
-28.2387 92.8380 2.0622 -0.605 -0.705 -0.369 89 103 52
-27.5488 92.6498 1.9436 0.458 -0.886 0.074 80 93 43
-24.7574 91.7707 1.4791 -0.328 -0.811 0.485 13 17 4
-23.6063 89.7132 1.5070 0.426 -0.840 0.337 18 24 1
-23.5410 89.8708 1.4730 0.572 -0.640 0.513 24 30 2
-23.8212 90.7420 1.4183 0.305 -0.877 0.371 26 34 2
-23.4889 90.6492 1.3615 -0.094 -0.995 -0.019 56 64 26
-23.1638 90.5701 1.3044 0.168 -0.962 0.216 70 75 52
-4.4285 97.1298 -3.4261 -0.074 -0.528 0.846 91 114 81
4.9016 79.6755 -3.0996 -0.183 -0.949 0.255 87 101 68
5.1514 79.6169 -3.1438 0.131 -0.823 0.553 66 77 47
19.0098 78.9560 -5.9293 -0.869 -0.399 0.294 116 124 72
19.1292 78.9790 -5.9570 -0.841 -0.469 0.271 113 122 71
19.7252 79.0695 -6.0922 0.809 -0.588 0.018 71 81 46
20.0060 78.1736 -6.0344 -0.638 -0.620 0.457 99 109 70
38.0809 80.4710 -10.0763 0.579 -0.814 -0.040 78 101 58
38.3199 80.4788 -10.1268 -0.043 -0.938 0.345 104 123 75
38.5274 80.3962 -10.1591 -0.033 -0.899 0.436 92 105 53
39.9920 81.1783 -10.5637 -0.762 -0.593 0.259 127 138 80
39.7893 79.9813 -10.3668 -0.630 -0.656 -0.416 135 145 85
-35.1883 93.6800 3.2400 -0.250 -0.852 0.460 85 101 53
-34.4073 92.8831 3.1829 -0.479 -0.625 0.616 76 92 48
-33.8037 92.1262 3.1572 -0.501 -0.552 0.667 76 91 51
-27.6010 92.6531 1.8034 0.464 -0.885 0.019 45 54 25
-26.2807 91.8005 1.6419 0.402 -0.559 0.725 8 10 6
-23.7583 88.2172 1.5899 0.517 -0.854 0.050 16 18 16
-23.6466 88.2728 1.5594 0.760 -0.612 0.219 21 21 20
-24.7353 91.6267 1.3447 -0.011 -0.860 0.511 46 53 18
-24.5692 91.5848 1.3158 -0.317 -0.659 0.682 51 58 22
-24.0469 91.1082 1.2702 0.739 -0.416 0.530 63 73 26
-23.4831 90.2417 1.2671 0.682 -0.586 0.438 75 85 33
-23.6452 90.8747 1.2176 -0.068 -0.996 -0.051 74 84 33
-23.3839 90.6307 1.1955 -0.082 -0.997 -0.014 74 83 38
-23.4065 91.2813 1.1148 0.675 -0.705 0.216 58 64 39
-9.8381 84.3433 -0.7845 -0.614 -0.635 0.469 37 45 25
-8.8146 84.4163 -1.0061 0.812 -0.436 0.388 91 103 59
-4.3911 96.7854 -3.5458 -0.087 -0.532 0.842 91 113 84
2.4614 77.6423 -2.4522 -0.671 -0.214 0.710 82 110 89
4.8827 79.6099 -3.2119 -0.174 -0.955 0.241 87 101 66
5.1237 79.6139 -3.2623 -0.104 -0.856 0.507 67 78 48
8.4017 80.7051 -4.0845 0.462 -0.876 0.137 100 107 55
19.0028 79.1619 -6.0774 -0.841 -0.436 0.320 117 125 72
19.1102 78.9991 -6.0783 -0.836 -0.441 0.327 113 122 72
19.7025 79.0348 -6.2056 0.809 -0.588 0.018 71 81 46
21.2930 78.4440 -6.4575 0.412 -0.769 0.489 71 81 45
38.4999 80.3474 -10.2709 -0.032 -0.904 0.425 97 107 57
40.0759 81.1093 -10.6974 -0.757 -0.643 -0.116 132 142 82
-28.4119 93.2551 1.7405 -0.616 -0.705 -0.351 33 42 16
-28.1365 93.0140 1.7156 -0.624 -0.703 -0.341 22 29 12
-28.0072 93.0508 1.6839 -0.266 -0.770 -0.579 16 19 10
-27.7690 92.8786 1.6575 -0.099 -0.833 -0.544 14 16 11
-23.7302 88.0672 1.4617 0.746 -0.632 0.213 24 27 8
-23.6269 90.7379 1.0849 -0.003 -0.999 -0.037 81 90 34
-23.2466 90.5448 1.0318 0.232 -0.970 0.073 81 88 43
-10.2680 95.8846 -2.3659 -0.850 -0.266 0.454 66 86 50
-4.3851 96.5832 -3.6769 -0.078 -0.536 0.840 91 113 85
-1.6251 98.8703 -4.5527 0.362 -0.770 0.525 83 114 99
2.4484 77.5560 -2.5594 -0.679 -0.225 0.699 82 110 89
2.9539 76.0555 -2.4643 0.649 -0.394 0.651 78 100 63
4.8601 79.5703 -3.3268 -0.174 -0.957 0.232 86 100 65
4.9688 79.6559 -3.3607 0.242 -0.969 -0.047 87 100 70
5.1048 79.5473 -3.3744 -0.121 -0.874 0.471 67 78 48
2.9624 95.9961 -5.1200 0.989 -0.146 -0.005 52 63 33
8.3696 79.4264 -4.0342 0.638 -0.708 0.302 97 104 53
21.2682 78.3858 -6.5663 0.292 -0.795 0.532 70 80 45
38.4866 80.3395 -10.3912 -0.007 -0.936 0.351 96 105 56
39.9008 81.3112 -10.8133 -0.744 -0.663 -0.076 96 105 50
-28.4588 93.2468 1.5993 -0.633 -0.741 -0.224 7 14 1
-28.0240 92.9854 1.5446 -0.313 -0.918 -0.245 10 13 6
-23.8906 86.3897 1.5790 0.337 -0.940 0.050 11 13 2
-23.8277 86.5332 1.5466 0.251 -0.968 -0.029 12 14 1
-23.6839 87.8814 1.3349 0.812 -0.524 0.255 65 71 36
-23.6463 88.0844 1.2998 0.882 -0.447 0.149 75 83 35
-23.5732 88.2176 1.2667 0.882 -0.447 0.149 80 89 34
-23.9362 89.5172 1.1664 0.730 -0.550 0.406 86 94 42
-23.7040 89.6226 1.1042 0.548 -0.644 0.534 82 91 37
-23.8044 91.0064 0.9383 0.315 -0.658 0.684 82 92 32
-9.5010 83.8904 -1.0621 -0.417 -0.699 0.580 116 126 94
-7.3400 78.4847 -0.7801 0.469 -0.868 0.163 114 129 74
-8.9164 84.0952 -1.2107 0.913 -0.309 0.265 127 137 83
-11.7493 99.1613 -2.6571 0.720 -0.469 0.512 79 111 83
-10.1228 95.2502 -2.4660 -0.850 -0.266 0.454 61 81 46
-4.3756 96.3658 -3.8061 -0.088 -0.536 0.839 92 115 87
-1.7006 99.0702 -4.7246 0.492 -0.682 0.542 85 115 100
4.9407 79.6546 -3.4797 0.242 -0.969 -0.047 85 98 68
2.8720 95.3198 -5.1651 0.972 -0.098 0.212 67 79 50
2.9441 95.8762 -5.2550 0.989 -0.146 -0.005 53 63 35
38.1996 80.5666 -10.4865 0.216 -0.930 -0.296 104 121 91
40.2126 80.8881 -10.9465 -0.280 -0.791 -0.544 133 145 83
-30.2278 94.2133 1.6811 -0.246 -0.526 0.814 75 81 53
-30.0084 94.0868 1.6530 -0.231 -0.534 0.814 50 55 32
-29.8278 94.0314 1.6232 -0.460 -0.678 0.573 35 42 24
-28.8399 93.3060 1.5179 -0.415 -0.739 0.531 12 14 9
-28.3545 92.9518 1.4660 -0.535 -0.727 0.430 11 14 8
-27.9584 92.7629 1.4098 -0.190 -0.960 -0.204 15 18 7
-27.7532 92.6538 1.3823 -0.021 -0.928 -0.373 14 17 5
-27.6010 92.6456 1.3519 -0.010 -0.933 -0.360 11 13 6
-23.7218 87.8636 1.2032 0.803 -0.539 0.252 83 90 48
-10.0705 84.3060 -1.1349 -0.582 -0.638 0.504 68 78 50
-7.3396 78.3781 -0.8894 0.362 -0.923 0.128 109 122 75
-12.9877 99.4538 -2.6027 -0.455 -0.865 -0.212 71 121 120
-11.3018 97.0184 -2.6185 0.026 -0.914 -0.404 83 118 93
-11.7900 99.1502 -2.8090 0.887 -0.459 0.051 78 109 84
-4.3581 96.1136 -3.9315 -0.088 -0.549 0.831 91 118 84
-1.7066 98.8960 -4.8606 0.500 -0.672 0.547 88 116 105
2.6433 76.8172 -2.7415 -0.643 -0.213 0.736 78 105 70
2.8728 95.0670 -5.2846 0.972 -0.098 0.212 68 79 58
2.9534 95.5568 -5.3682 0.973 -0.067 0.221 55 63 42
-31.1164 94.6337 1.6524 -0.464 -0.635 0.617 81 92 56
-30.8901 94.4981 1.6244 -0.394 -0.699 0.597 59 68 37
-30.6668 94.3671 1.5964 -0.231 -0.538 0.810 40 48 22
-30.3951 94.1464 1.5708 -0.194 -0.537 0.821 20 28 9
-30.1706 94.0109 1.5431 -0.354 -0.707 0.612 11 17 4
-29.9965 93.9677 1.5130 -0.325 -0.730 0.601 2 7 0
-28.6331 93.1004 1.3512 -0.447 -0.743 0.498 9 11 8
-28.4399 93.0165 1.3229 0.093 -0.615 0.783 10 13 5
-28.2839 93.0030 1.2925 0.103 -0.576 0.811 7 11 1
-27.7910 92.9132 1.2030 0.026 -0.602 0.798 23 28 5
-27.3028 92.2588 1.1927 -0.637 -0.552 0.538 29 35 6
-24.0792 86.5751 1.3135 0.747 -0.637 0.193 55 62 20
-24.8383 90.8548 0.8775 0.542 -0.395 0.741 86 95 42
-23.6186 91.3244 0.5601 -0.792 -0.523 0.315 73 80 34
-10.8556 84.9469 -1.1961 -0.548 -0.623 0.559 118 131 87
-7.3656 78.3520 -1.0041 0.362 -0.923 0.128 107 120 73
-8.8369 84.8386 -1.5987 0.610 -0.686 0.398 74 121 116
-12.7956 98.6997 -2.7006 -0.621 -0.783 0.042 70 120 118
-11.8304 99.1382 -2.9611 0.886 -0.461 0.047 77 109 84
-4.3536 95.9200 -4.0616 0.076 -0.697 0.713 91 118 85
2.2900 77.3087 -2.8568 -0.636 -0.247 0.731 87 116 105
5.0045 79.6594 -3.7440 -0.622 -0.637 0.456 68 80 59
2.9617 95.2465 -5.4815 0.972 -0.066 0.226 55 63 43
3.0263 95.8607 -5.5799 0.972 -0.066 0.226 43 47 22
38.4962 80.8011 -10.8299 0.472 -0.825 -0.311 94 105 61
-31.7776 95.1816 1.5570 -0.556 -0.767 -0.320 54 65 33
-31.5105 94.9753 1.5308 -0.483 -0.783 -0.392 35 45 17
-31.2701 94.8159 1.5034 -0.531 -0.772 -0.351 21 31 8
-31.0203 94.6385 1.4767 -0.436 -0.817 -0.376 10 20 0
-30.7598 94.4403 1.4507 -0.392 -0.737 0.550 8 15 1
-30.5484 94.3307 1.4223 -0.409 -0.728 0.549 7 13 5
-30.2504 94.0610 1.3986 -0.369 -0.758 0.538 9 14 7
-30.0661 93.9994 1.3691 -0.452 -0.671 0.588 11 16 11
-29.7961 93.7786 1.3443 -0.454 -0.599 0.659 9 14 10
-29.5713 93.6402 1.3172 -0.479 -0.587 0.652 8 12 10
-29.2637 93.3465 1.2949 -0.459 -0.605 0.651 8 9 12
-29.0602 93.2454 1.2670 -0.467 -0.716 0.519 7 9 9
-28.3007 92.9376 1.1531 0.119 -0.505 0.855 26 31 11
-28.2277 93.0820 1.1178 0.297 -0.523 0.799 42 48 24
-24.0191 86.6340 1.1529 0.718 -0.650 0.249 84 93 39
-24.1067 88.1642 0.9561 0.785 -0.306 0.539 86 94 44
-9.3305 83.4300 -1.4346 -0.259 -0.878 0.403 126 138 83
-7.3933 78.3310 -1.1192 0.437 -0.848 0.301 104 116 69
-11.8586 99.0854 -3.1100 0.881 -0.469 0.060 77 109 85
-4.3553 95.7543 -4.1938 -0.264 -0.852 0.453 91 118 85
2.5175 76.5589 -2.9198 -0.719 -0.235 0.654 81 110 84
4.9789 79.6403 -3.8614 -0.596 -0.656 0.464 68 80 59
5.1065 79.5941 -3.8813 -0.587 -0.605 0.538 55 63 43
5.2468 79.4536 -3.8906 -0.654 -0.523 0.547 43 47 22
38.5040 80.8550 -10.9644 0.468 -0.825 -0.317 92 104 60
38.6673 80.3011 -10.9204 -0.716 -0.396 0.575 99 108 51
-31.8569 95.2273 1.4105 -0.536 -0.772 -0.341 14 22 5
-31.6357 95.1046 1.3823 -0.502 -0.780 -0.374 11 19 4
-31.4275 95.0045 1.3535 -0.512 -0.775 -0.370 6 13 5
-31.2185 94.9023 1.3248 -0.506 -0.779 -0.370 3 10 5
-30.9691 94.7255 1.2984 -0.483 -0.800 -0.357 17 21 17
-30.8003 94.6953 1.2678 -0.483 -0.799 -0.359 16 20 17
-30.1561 94.0685 1.2238 -0.468 -0.599 0.649 8 14 6
-29.8422 93.7672 1.2018 -0.466 -0.596 0.654 10 15 5
-29.5584 93.5195 1.1783 -0.466 -0.596 0.654 13 19 6
-29.3011 93.3196 1.1536 -0.444 -0.626 0.641 16 20 8
-29.1436 93.3047 1.1231 -0.434 -0.649 0.625 20 24 9
-28.9129 93.1525 1.0971 -0.385 -0.731 0.564 27 31 11
-28.7539 93.1342 1.0668 -0.416 -0.701 0.580 41 47 20
-28.4744 92.8881 1.0441 0.049 -0.660 0.750 56 64 30
-28.2261 92.9815 0.9794 0.269 -0.583 0.766 83 91 52
-22.2344 90.0277 0.1610 0.112 -0.852 0.512 96 105 63
-7.5036 78.1957 -1.2011 0.041 -0.957 0.286 167 182 126
-4.3873 95.7238 -4.3386 -0.484 -0.810 0.331 92 120 86
-4.2181 95.6412 -4.3618 -0.467 -0.834 0.295 100 131 112
2.5482 76.2402 -3.0008 -0.719 -0.228 0.657 83 111 85
4.6959 79.7245 -3.9404 -0.724 -0.516 0.457 86 106 69
5.2321 79.3565 -3.9989 -0.681 -0.525 0.510 43 47 22
18.7083 78.3114 -6.6360 0.677 -0.533 0.507 114 124 64
38.3295 80.7251 -11.0354 -0.057 -0.996 0.067 96 112 73
38.4872 80.8373 -11.0840 0.268 -0.960 0.085 91 104 59
38.6241 80.8883 -11.1195 -0.122 -0.927 -0.354 87 96 45
38.6283 80.2195 -11.0253 -0.716 -0.396 0.575 98 107 50
-31.6385 94.7372 1.2794 -0.255 -0.521 0.815 8 15 8
-31.4806 94.7273 1.2482 -0.008 -0.957 -0.291 7 13 9
-30.7769 94.5552 1.1276 -0.464 -0.762 -0.452 10 14 15
-29.5618 93.1521 1.0786 -0.503 -0.614 0.608 16 24 3
-29.2915 92.9279 1.0551 -0.468 -0.582 0.665 33 42 13
-29.0278 92.7143 1.0313 -0.238 -0.638 0.732 49 56 21
-28.8606 92.6796 1.0018 -0.208 -0.652 0.729 65 73 34
-28.6618 92.5853 0.9743 -0.208 -0.652 0.729 74 83 41
-28.0607 92.8525 0.8116 0.264 -0.592 0.761 83 93 42
-22.2528 89.9672 0.0271 0.065 -0.922 0.382 96 105 63
-7.5267 78.1607 -1.3151 0.041 -0.957 0.286 163 178 122
-8.9714 84.4957 -1.9293 0.808 -0.463 0.364 113 133 114
-6.8393 94.5447 -3.8177 -0.326 -0.541 -0.776 46 58 18
-4.4050 95.6299 -4.4771 0.065 -0.867 0.493 93 120 86
-4.2522 95.6205 -4.5074 0.075 -0.862 0.502 99 130 110
4.6674 79.7244 -4.0603 -0.727 -0.516 0.453 83 103 66
4.7845 79.7553 -4.0890 -0.546 -0.666 0.509 85 101 73
5.5064 78.9041 -4.1155 -0.759 -0.444 0.477 118 120 79
3.7409 101.5137 -7.0083 0.976 -0.030 0.218 81 91 42
18.6823 78.2208 -6.7399 0.671 -0.546 0.501 114 124 64
26.9233 99.5086 -11.5101 0.545 -0.343 0.765 100 96 51
38.0263 80.5655 -11.0753 0.598 -0.796 0.098 90 109 85
38.4712 80.8222 -11.2042 0.268 -0.960 0.085 91 103 59
38.6074 80.1896 -11.1412 -0.715 -0.400 0.574 98 107 52
-34.1170 96.0303 1.4469 -0.572 -0.820 0.034 88 101 56
-33.7904 96.0018 1.3835 -0.316 -0.421 0.850 55 66 32
-32.3470 95.0878 1.2187 -0.214 -0.566 0.796 7 15 4
-32.1245 94.9642 1.1908 -0.214 -0.566 0.796 5 13 3
-31.9026 94.8409 1.1630 -0.214 -0.566 0.796 5 13 3
-31.6991 94.7495 1.1342 -0.154 -0.608 0.779 5 12 3
-31.6147 94.8726 1.0989 0.555 -0.701 0.448 4 11 4
-31.4304 94.8155 1.0691 0.480 -0.705 0.521 4 9 7
-30.9828 94.5563 1.0145 0.264 -0.692 0.672 5 11 3
-30.7803 94.4642 0.9861 -0.286 -0.539 0.793 19 22 8
-30.4072 94.0586 0.9682 -0.487 -0.499 0.717 33 38 15
-29.0234 92.6103 0.8936 -0.366 -0.522 0.770 78 88 36
-28.7949 92.4611 0.8682 -0.253 -0.621 0.742 79 89 35
-27.0054 91.5822 0.6267 -0.808 -0.558 0.191 85 93 44
-22.4147 89.9080 -0.0774 0.335 -0.922 0.192 69 74 54
-12.0207 86.6740 -1.7528 -0.881 -0.394 0.262 94 103 55
-9.4148 83.3459 -1.8055 -0.359 -0.869 0.340 125 138 86
-7.5121 78.0124 -1.4203 -0.051 -0.963 0.264 156 171 115
-6.4679 95.2805 -4.1558 -0.609 -0.596 -0.524 79 90 48
-4.3833 95.3623 -4.5983 -0.105 -0.588 0.802 93 121 86
-4.2189 95.2992 -4.6231 -0.105 -0.588 0.802 98 131 110
5.4900 78.8199 -4.2242 -0.769 -0.451 0.454 117 120 80
5.6327 78.6482 -4.2286 -0.605 -0.597 0.527 86 93 42
8.1824 79.4505 -4.8725 -0.754 -0.634 0.173 95 102 48
26.8539 99.1787 -11.6085 0.545 -0.343 0.765 100 97 52
38.0051 80.5352 -11.1918 0.598 -0.796 0.098 90 109 82
38.5559 80.7533 -11.3374 -0.446 -0.651 0.614 88 96 47
38.5885 80.1657 -11.2584 -0.722 -0.402 0.563 98 107 54
-34.4594 96.2576 1.3254 -0.251 -0.477 0.842 56 67 26
-34.2127 96.0998 1.2978 -0.382 -0.453 0.806 39 48 19
-33.9165 95.8550 1.2728 -0.313 -0.450 0.836 20 28 8
-33.6614 95.6803 1.2459 -0.309 -0.537 0.785 15 21 8
-33.4691 95.6142 1.2160 -0.341 -0.725 0.598 8 13 6
-33.2201 95.4482 1.1891 0.122 -0.739 0.663 3 8 4
-33.0459 95.4128 1.1583 0.093 -0.741 0.665 11 16 9
-32.7978 95.2465 1.1316 -0.035 -0.957 0.287 12 17 10
-32.6603 95.2751 1.0990 -0.042 -0.962 0.270 12 18 7
-32.5171 95.2939 1.0667 -0.037 -0.961 0.274 13 19 7
-32.2336 95.0624 1.0423 -0.223 -0.848 0.481 10 16 3
-31.8793 94.7027 1.0223 -0.151 -0.564 0.812 10 16 2
-31.6528 94.5699 0.9952 -0.063 -0.566 0.822 14 21 4
-31.5839 94.7201 0.9587 0.560 -0.706 0.433 17 24 6
-31.4273 94.7128 0.9275 0.480 -0.705 0.521 20 28 6
-30.3358 93.8311 0.8323 -0.522 -0.436 0.733 67 76 33
-29.1700 92.5112 0.7866 -0.356 -0.536 0.766 78 89 33
-28.9530 92.3839 0.7606 -0.375 -0.560 0.739 78 89 31
-28.7273 92.2394 0.7353 -0.371 -0.569 0.734 81 92 34
-28.5078 92.1054 0.7098 -0.163 -0.616 0.770 81 92 35
-28.2224 91.8468 0.6890 0.133 -0.373 0.918 81 92 37
-22.4434 89.8694 -0.2123 0.335 -0.922 0.192 60 64 45
-9.3196 83.3369 -1.9574 -0.222 -0.964 0.144 150 165 110
-10.4171 92.3266 -3.0591 -0.796 -0.391 0.462 93 129 114
-10.8438 95.1671 -3.3907 0.530 -0.482 0.698 80 112 88
-4.3731 95.1459 -4.7239 -0.133 -0.493 0.860 91 120 88
-4.2155 95.1119 -4.7514 -0.143 -0.480 0.866 98 131 113
5.6106 78.6064 -4.3419 -0.619 -0.707 0.342 86 93 43
18.6440 78.2641 -6.9831 0.616 -0.737 0.278 115 125 65
18.7796 78.5565 -7.0543 0.596 -0.784 0.171 114 124 65
22.5461 74.8717 -7.2877 0.990 -0.135 0.032 62 48 35
26.8698 99.4577 -11.8134 0.660 -0.745 0.095 99 98 51
37.9717 80.4690 -11.3005 0.586 -0.801 0.122 90 109 78
38.4411 80.7973 -11.4460 -0.357 -0.745 0.564 89 98 55
38.5621 80.1200 -11.3709 -0.727 -0.405 0.555 95 103 52
-35.1745 96.5855 1.2648 -0.475 -0.555 0.683 52 64 24
-34.9170 96.4122 1.2376 -0.283 -0.531 0.798 41 51 14
-34.5673 96.0793 1.2152 -0.249 -0.475 0.844 29 38 6
-33.5363 95.3662 1.1090 -0.317 -0.480 0.818 5 10 6
-33.3537 95.3164 1.0788 -0.375 -0.571 0.730 7 12 11
-33.0485 95.0513 1.0554 -0.301 -0.523 0.797 10 14 13
-32.7538 94.8028 1.0317 -0.398 -0.606 0.688 8 13 6
-32.4126 94.7403 0.9706 -0.171 -0.727 0.665 9 15 3
-31.8430 94.2699 0.9234 -0.665 -0.743 -0.073 10 18 0
-31.5894 94.0881 0.8983 -0.653 -0.754 -0.077 17 25 3
-31.4491 94.1083 0.8663 0.106 -0.922 0.373 33 41 15
-30.0106 93.1396 0.7142 -0.362 -0.305 0.881 88 97 50
-28.8181 92.0383 0.6327 -0.361 -0.583 0.727 77 88 34
-25.6069 89.8053 0.3038 -0.239 -0.955 -0.178 85 92 51
-9.3535 83.3260 -2.0826 -0.222 -0.964 0.144 140 154 100
-8.8179 84.0780 -2.3057 0.621 -0.248 0.744 96 130 113
-10.4808 92.8728 -3.2780 -0.889 -0.364 0.278 89 127 105
-10.7773 94.8097 -3.5066 0.486 -0.525 0.699 81 112 89
-10.7253 95.1340 -3.5658 0.558 -0.495 0.666 77 105 79
-10.7397 95.6829 -3.6450 -0.845 -0.297 0.444 64 88 60
-6.5822 95.4168 -4.4635 -0.369 -0.885 0.284 88 99 57
-6.2670 94.7607 -4.4304 -0.432 -0.802 -0.412 91 102 59
-5.7220 94.3672 -4.4841 -0.310 -0.663 -0.681 94 103 56
-5.5922 94.4455 -4.5226 -0.317 -0.854 -0.412 99 108 61
5.5904 78.5512 -4.4536 -0.615 -0.710 0.344 86 93 44
3.6682 102.5431 -7.6459 0.990 -0.004 0.144 70 86 45
7.4843 78.6969 -4.8664 -0.683 -0.685 0.255 87 94 40
37.9451 80.4229 -11.4136 0.588 -0.799 0.129 87 108 70
39.8117 80.9878 -11.8835 0.611 -0.786 -0.096 124 135 80
-35.4044 96.6144 1.1479 -0.562 -0.737 0.375 21 31 6
-35.2121 96.5534 1.1174 -0.574 -0.726 0.379 10 19 0
-34.9551 96.3812 1.0905 -0.154 -0.731 0.664 10 17 1
-33.8517 95.5504 0.9886 -0.554 -0.652 0.518 13 18 15
-33.5512 95.2963 0.9650 -0.632 -0.636 0.443 13 17 19
-33.2814 95.0942 0.9399 -0.460 -0.615 0.641 12 15 20
-32.9801 94.8356 0.9169 -0.363 -0.632 0.685 12 15 20
-32.3671 94.5639 0.8315 -0.031 -0.999 0.031 23 31 11
-32.2253 94.5831 0.7994 -0.213 -0.974 0.073 32 40 16
-31.7867 94.3447 0.7449 -0.678 -0.731 -0.077 50 60 27
-30.0071 92.7652 0.6169 -0.254 -0.312 0.915 80 90 39
-29.7388 92.5472 0.5945 -0.284 -0.303 0.910 82 91 47
-29.0230 91.7774 0.5633 -0.281 -0.306 0.909 76 84 41
-25.7083 89.9077 0.1623 -0.234 -0.963 -0.135 74 81 39
-10.5307 83.9911 -2.0742 -0.075 -0.815 0.574 133 149 95
-9.9381 83.7903 -2.1661 -0.457 -0.611 0.647 48 62 34
-9.3808 83.2955 -2.2062 -0.169 -0.883 0.439 137 151 98
-8.8987 83.8081 -2.3833 0.635 -0.267 0.725 113 133 104
-8.8306 84.0013 -2.4267 0.651 -0.235 0.722 94 128 111
-10.9989 94.9046 -3.6304 0.687 -0.673 0.274 88 120 98
-10.7799 94.6801 -3.6416 0.496 -0.762 0.416 83 112 89
-10.7104 94.9455 -3.6961 0.472 -0.716 0.515 79 105 81
-10.6229 95.1544 -3.7458 0.393 -0.765 0.511 62 85 58
-10.5137 95.2935 -3.7894 0.402 -0.734 0.547 65 84 54
-6.9657 95.5794 -4.5650 0.518 -0.838 -0.169 48 59 17
-6.6139 95.3837 -4.6080 -0.369 -0.885 0.284 92 101 58
-6.4167 95.1988 -4.6207 -0.346 -0.892 0.291 92 101 57
-6.1964 94.9183 -4.6237 -0.193 -0.901 -0.389 100 107 62
-5.8542 94.7458 -4.6682 -0.313 -0.637 -0.705 84 92 42
5.5686 78.5073 -4.5666 -0.606 -0.695 0.386 84 92 48
3.4871 99.8197 -7.3646 -0.816 -0.457 0.355 94 102 55
8.2415 79.2585 -5.2320 -0.744 -0.547 0.384 101 106 52
26.3206 99.1522 -11.9762 -0.077 -0.677 -0.732 94 101 52
26.4214 98.7651 -11.9384 0.300 -0.757 -0.580 95 102 52
37.9131 80.3608 -11.5230 0.491 -0.761 0.424 88 108 70
38.3505 80.5969 -11.6491 -0.425 -0.660 0.620 87 96 51
39.8055 80.9984 -12.0102 0.611 -0.786 -0.096 125 135 81
-33.3036 95.0373 0.7959 -0.441 -0.633 0.637 16 21 18
-32.4341 94.5865 0.6856 0.006 -0.273 0.962 59 68 42
-28.7732 91.2240 0.4457 -0.269 -0.290 0.918 64 72 33
-25.9278 90.2391 0.0096 0.127 -0.975 0.183 63 70 30
-26.0933 90.8428 -0.0488 -0.609 -0.674 0.419 74 81 38
-24.7906 88.8556 -0.0130 -0.335 -0.816 0.472 89 97 47
-10.5400 83.9070 -2.1947 -0.075 -0.815 0.574 132 147 93
-10.4031 83.8902 -2.2204 0.068 -0.817 0.572 61 79 32
-9.5500 83.3007 -2.3061 -0.391 -0.730 0.560 124 134 90
-9.3962 83.2294 -2.3269 -0.122 -0.814 0.568 136 149 98
-9.1322 83.2155 -2.3792 0.777 -0.596 0.204 87 98 46
-9.0403 83.3302 -2.4157 0.899 -0.438 -0.004 102 115 67
-8.8732 83.6146 -2.4938 0.687 -0.611 0.393 111 131 105
-8.7723 83.7056 -2.5286 0.687 -0.611 0.393 94 128 112
-10.9856 94.7236 -3.7609 -0.078 -0.986 0.145 88 120 100
-10.8035 94.6192 -3.7824 -0.050 -0.986 0.161 82 111 88
-10.7227 94.8471 -3.8340 0.675 -0.727 -0.124 80 105 81
-10.6148 94.9879 -3.8779 0.649 -0.750 -0.131 66 89 62
-10.4987 95.1030 -3.9195 0.655 -0.747 -0.119 69 88 59
-10.1488 94.4359 -3.8894 0.041 -0.843 0.536 70 87 55
-7.4654 93.9040 -4.3616 -0.264 -0.964 -0.026 78 98 64
-7.1147 95.4148 -4.6655 0.504 -0.864 -0.023 52 63 21
-6.4402 95.1333 -4.7615 -0.541 -0.653 0.530 88 97 53
-6.2599 95.0138 -4.7804 0.285 -0.918 0.277 93 100 55
-5.6566 95.0021 -4.9031 -0.320 -0.622 -0.714 101 109 60
2.7370 74.3305 -3.4662 -0.907 -0.211 0.365 89 108 86
4.5629 79.4638 -4.6298 -0.628 -0.640 0.442 79 103 71
5.5571 78.3872 -4.6699 -0.604 -0.579 0.548 84 91 49
3.4706 99.6639 -7.5009 -0.808 -0.500 0.311 94 102 55
3.7140 98.9703 -7.4448 -0.590 -0.779 0.215 89 96 52
3.6607 101.9944 -7.8974 0.993 -0.046 0.112 72 79 48
19.7865 77.1658 -7.4187 0.776 -0.626 -0.071 87 97 45
20.3022 77.7956 -7.6216 0.839 -0.534 0.107 82 90 51
37.8807 80.2974 -11.6321 0.561 -0.671 0.486 88 109 70
37.9225 80.0718 -11.6062 0.846 -0.512 0.151 95 111 71
38.3029 80.4899 -11.7487 -0.475 -0.472 0.743 88 97 52
38.5413 79.8138 -11.6943 -0.650 -0.573 0.498 106 116 64
-29.9296 91.8977 0.4297 -0.320 -0.569 0.757 83 93 41
-9.4169 83.1789 -2.4487 -0.112 -0.802 0.587 136 149 99
-9.0416 83.2205 -2.5326 0.821 -0.569 0.048 104 117 69
-8.9490 83.3338 -2.5693 0.822 -0.568 0.048 96 108 67
-8.8605 83.4610 -2.6073 0.534 -0.845 -0.019 113 133 108
-10.6963 94.6217 -3.9600 0.224 -0.873 -0.432 80 106 82
-10.5942 94.7801 -4.0057 0.215 -0.877 -0.429 69 92 65
-10.4683 94.8616 -4.0443 0.222 -0.877 -0.426 72 91 62
-10.1517 94.3058 -4.0234 -0.203 -0.847 0.491 74 90 59
5.5374 78.3287 -4.7808 -0.515 -0.549 0.658 85 92 49
3.4810 99.2966 -7.6096 -0.738 -0.673 0.053 94 102 55
20.2776 77.7352 -7.7292 0.839 -0.534 0.107 83 91 52
37.2063 83.0834 -12.0507 0.851 -0.523 0.049 96 106 54
38.0523 85.3541 -12.5775 0.895 -0.429 0.123 98 108 56
37.8088 80.1176 -11.7149 0.630 -0.590 0.505 87 108 69
37.9000 80.0374 -11.7213 0.829 -0.507 0.234 93 110 69
38.4193 79.8315 -11.7964 -0.737 -0.501 0.454 96 104 53
39.4033 80.6025 -12.1190 0.804 -0.593 0.044 107 119 69
-36.3616 95.8400 0.9856 0.182 0.037 0.983 18 30 11
-35.4550 96.1476 0.7504 0.175 -0.391 0.904 4 12 3
-35.3023 96.1531 0.7180 0.167 -0.387 0.907 3 11 1
-30.3282 92.2549 0.3044 -0.401 -0.373 0.837 84 94 42
-29.9520 91.8444 0.2912 -0.391 -0.378 0.839 80 89 45
-25.9784 90.1466 -0.2616 0.410 -0.912 -0.015 57 64 24
-9.9155 83.3891 -2.5130 -0.461 -0.605 0.649 54 70 40
-9.5560 83.0952 -2.5410 -0.181 -0.703 0.688 116 128 83
-9.4251 83.0914 -2.5673 -0.126 -0.806 0.578 133 146 94
-9.0718 83.1989 -2.6571 0.823 -0.564 -0.058 102 115 65
-8.9849 83.3296 -2.6955 0.823 -0.564 -0.058 88 99 59
-8.8925 83.4446 -2.7326 -0.775 -0.476 0.416 114 134 109
-8.8118 83.5970 -2.7732 0.267 -0.800 -0.538 95 129 117
-10.9227 94.2449 -4.0095 0.354 -0.852 0.387 89 121 101
-10.7537 94.1815 -4.0344 -0.195 -0.923 0.333 84 113 90
-10.6616 94.3693 -4.0829 0.001 -0.992 0.125 85 110 87
-10.6078 94.6860 -4.1437 0.277 -0.825 -0.493 76 99 72
-10.1134 94.0384 -4.1440 -0.660 -0.697 0.280 77 93 63
-10.0671 94.3839 -4.2077 0.183 -0.978 0.097 76 91 58
-7.0651 95.4947 -5.0011 -0.465 -0.304 0.832 41 52 10
-6.8330 95.1791 -4.9995 -0.430 -0.300 0.851 50 61 19
-6.6061 94.8794 -4.9992 -0.434 -0.302 0.849 84 93 50
1.8085 77.6838 -4.0348 0.769 -0.640 0.001 82 121 115
5.5246 78.2189 -4.8851 -0.520 -0.548 0.655 82 89 47
3.7204 99.6049 -7.8704 0.976 0.011 0.220 78 85 42
20.2495 77.6348 -7.8297 0.822 -0.564 0.080 78 86 47
37.9572 85.0943 -12.6521 0.895 -0.414 0.167 100 110 58
38.5722 79.6263 -11.9205 0.634 -0.464 0.618 91 104 51
-35.6644 94.0899 0.9606 0.203 0.033 0.979 13 26 3
-35.6807 94.3678 0.9198 0.223 0.039 0.974 5 17 1
-35.5588 95.1848 0.7649 0.041 -0.071 0.997 10 17 11
-35.0402 95.0913 0.6728 0.148 -0.055 0.988 4 12 1
-34.9810 95.2517 0.6351 0.054 -0.250 0.967 9 17 4
-30.2127 91.4258 0.2599 -0.257 -0.554 0.791 83 97 35
-29.6409 91.1904 0.1794 -0.326 -0.487 0.810 78 85 48
-28.9903 91.0729 0.0640 0.252 -0.631 0.734 48 55 21
-28.8627 91.1072 0.0322 0.237 -0.588 0.774 48 55 21
-26.0192 90.1304 -0.3988 0.410 -0.912 -0.015 50 57 17
-10.0627 83.3280 -2.6075 -0.575 -0.574 0.583 38 57 28
-9.8951 83.2183 -2.6246 -0.467 -0.599 0.650 56 72 42
-9.5552 82.9814 -2.6571 -0.181 -0.703 0.688 112 124 79
-9.4345 83.0077 -2.6861 -0.126 -0.806 0.578 129 143 88
-6.7738 94.7916 -5.1063 -0.430 -0.300 0.851 51 62 20
-6.5486 94.4967 -5.1059 -0.434 -0.302 0.849 87 96 53
-6.3362 94.2477 -5.1102 -0.433 -0.302 0.849 98 107 63
-3.9796 93.7037 -5.5095 -0.870 -0.467 -0.158 97 137 140
2.9369 89.8160 -6.3177 0.436 -0.656 0.616 86 110 78
5.5018 78.1835 -4.9988 -0.528 -0.578 0.622 77 84 41
3.7485 99.0875 -7.9577 0.974 0.013 0.226 76 83 41
18.6603 78.6232 -7.7811 -0.766 -0.623 0.156 107 116 59
20.2245 77.5703 -7.9363 0.821 -0.565 0.086 70 78 39
41.5438 95.9616 -15.2522 0.621 -0.350 0.701 103 113 61
38.4780 79.3881 -11.9877 0.637 -0.464 0.615 90 103 50
-35.2218 92.7790 0.9237 0.304 0.039 0.952 52 69 27
-35.1690 92.9384 0.8873 0.286 0.033 0.958 15 30 3
-35.0685 93.0202 0.8534 0.301 0.035 0.953 4 16 3
-34.9987 93.1532 0.8177 0.298 0.035 0.954 14 25 14
-35.0751 93.5282 0.7731 0.259 0.031 0.965 17 24 20
-35.0597 94.5148 0.6114 0.157 0.015 0.988 15 23 4
-34.8123 94.6140 0.5445 0.060 -0.024 0.998 31 39 12
-34.9796 95.1549 0.4921 0.078 -0.071 0.994 48 57 28
-29.5363 90.9096 0.0525 -0.326 -0.487 0.810 75 82 48
-25.9765 89.9527 -0.5273 0.253 -0.962 0.107 45 51 12
-9.8992 83.1195 -2.7423 -0.688 -0.655 0.313 57 72 42
-9.5601 82.8850 -2.7745 -0.188 -0.736 0.650 110 120 76
-9.4554 82.9584 -2.8079 -0.132 -0.825 0.549 122 135 82
-9.1319 83.5486 -2.9694 0.938 -0.346 -0.035 68 79 40
-8.9315 83.3354 -2.9764 -0.746 -0.466 0.475 105 125 102
-8.9372 83.7520 -3.0422 0.248 -0.730 -0.637 100 133 126
-10.8993 93.8965 -4.2680 0.299 -0.901 0.315 89 122 101
-10.8014 94.0628 -4.3149 -0.277 -0.871 0.405 87 116 94
-10.7321 94.3249 -4.3713 -0.208 -0.975 0.080 87 114 90
-6.4840 94.0873 -5.2085 -0.430 -0.300 0.851 92 101 58
-6.2788 93.8649 -5.2151 -0.430 -0.301 0.851 98 107 63
-4.3192 93.7284 -5.5970 -0.901 -0.379 -0.210 106 136 121
-1.5804 94.8447 -6.3407 -0.199 -0.922 0.331 85 124 119
-1.4575 94.9836 -6.3884 0.319 -0.926 0.204 86 116 103
2.9767 89.3278 -6.3933 0.221 -0.320 0.921 86 110 78
5.4878 78.0831 -5.1038 -0.528 -0.578 0.622 77 84 41
3.7620 98.6907 -8.0597 0.968 0.016 0.252 76 83 41
18.6379 78.5953 -7.8960 -0.758 -0.445 0.477 106 115 58
41.5697 96.0877 -15.4325 0.632 -0.569 0.526 103 113 61
38.4358 79.2976 -12.0886 0.592 -0.387 0.707 90 103 50
-34.8533 92.0886 0.8061 0.135 -0.205 0.969 51 67 28
-34.6859 92.0586 0.7765 0.135 -0.205 0.969 12 27 2
-34.5410 92.0649 0.7456 0.137 -0.208 0.969 7 19 5
-34.6799 92.5380 0.6973 0.067 -0.157 0.985 13 22 16
-34.6584 92.9979 0.6182 0.235 0.009 0.972 10 13 16
-34.6303 93.2010 0.5794 0.141 -0.029 0.990 17 23 14
-34.3852 93.0444 0.5543 0.157 -0.026 0.987 22 30 10
-34.2023 92.9903 0.5254 0.151 -0.024 0.988 41 51 18
-34.0207 92.9383 0.4965 0.151 -0.024 0.988 53 64 22
-29.7136 90.8729 -0.0551 -0.355 -0.547 0.758 75 84 37
-29.4894 90.7328 -0.0785 -0.221 -0.532 0.817 47 54 19
-28.4302 92.8635 -0.6430 -0.261 -0.327 0.908 49 56 25
-27.7595 91.8748 -0.6205 -0.843 -0.534 0.071 49 56 23
-25.8620 89.6369 -0.6476 0.121 -0.903 0.413 44 50 14
-24.7994 88.9580 -0.7562 -0.638 -0.711 0.297 85 94 43
-9.9114 83.0445 -2.8620 -0.703 -0.642 0.306 59 71 42
-9.5644 82.7867 -2.8916 -0.198 -0.760 0.619 108 117 76
-9.4782 82.9145 -2.9301 -0.092 -0.876 0.474 116 129 79
-10.8847 94.6854 -4.5537 -0.362 -0.466 0.807 87 114 90
-10.5069 94.4319 -4.5903 -0.530 -0.508 0.679 88 108 80
-10.2439 94.5558 -4.6646 -0.531 -0.638 0.557 84 101 69
-7.5479 95.1420 -5.3153 0.078 -0.712 0.698 91 102 59
-6.4355 93.7423 -5.3170 -0.380 -0.300 0.875 99 108 65
-6.1857 93.3428 -5.3035 -0.418 -0.304 0.856 98 107 62
-1.8271 95.1491 -6.4950 -0.784 -0.584 0.209 80 127 124
-1.4880 94.9489 -6.5323 0.303 -0.933 0.195 86 116 103
-1.3304 94.9080 -6.5581 -0.172 -0.943 0.286 86 105 83
3.0689 89.4245 -6.5730 0.243 -0.253 0.936 84 105 74
19.9284 77.2692 -8.0704 -0.466 -0.755 0.462 100 109 64
41.6280 96.3152 -15.6366 -0.250 -0.793 0.556 103 113 61
38.1656 78.8901 -12.0909 0.516 -0.469 0.717 99 109 56
38.3174 78.9905 -12.1385 -0.708 -0.480 0.519 87 100 47
-34.9368 91.8931 0.7027 -0.169 -0.537 0.827 75 91 44
-34.6802 91.7176 0.6787 0.054 -0.450 0.891 51 68 28
-34.5091 91.6805 0.6495 0.054 -0.450 0.891 11 26 1
-34.3382 91.6434 0.6204 0.054 -0.450 0.891 6 18 5
-34.1655 91.6032 0.5915 0.104 -0.429 0.898 15 24 21
-34.1494 91.8206 0.5524 0.271 -0.156 0.950 7 12 16
-34.1218 92.0203 0.5139 0.225 -0.071 0.972 7 10 15
-33.9652 92.0074 0.4838 0.235 -0.070 0.969 33 39 32
-33.9373 92.2084 0.4450 0.196 -0.055 0.979 62 70 49
-33.6962 92.0550 0.4206 0.210 -0.051 0.976 76 86 49
-28.0786 91.5462 -0.6527 0.190 -0.225 0.956 51 58 25
-28.1830 92.2993 -0.7550 -0.236 -0.302 0.923 51 58 25
-12.5845 86.7414 -3.0536 -0.877 -0.478 0.055 90 103 50
-10.5517 83.6549 -2.9648 -0.537 -0.736 0.412 71 86 40
-9.9176 82.9523 -2.9799 -0.722 -0.617 0.311 55 66 39
-9.7907 82.9606 -3.0074 -0.592 -0.699 0.401 102 111 79
-9.5718 82.6977 -3.0093 -0.330 -0.788 0.521 103 113 73
-7.5472 94.9861 -5.4465 0.062 -0.727 0.683 93 104 60
-6.1317 92.9761 -5.4075 -0.418 -0.304 0.856 95 104 58
-1.8262 94.9540 -6.6194 -0.713 -0.633 0.301 83 128 125
-1.6823 94.9854 -6.6542 -0.189 -0.910 0.370 87 125 119
-1.5204 94.9236 -6.6774 0.330 -0.911 0.248 86 116 102
-1.3603 94.8699 -6.7015 -0.172 -0.943 0.286 84 105 82
-1.1909 94.7667 -6.7194 -0.170 -0.932 0.321 84 100 67
3.1003 88.9904 -6.6535 0.243 -0.246 0.938 85 106 75
19.6671 77.1415 -8.1173 0.020 -0.743 0.669 79 89 38
21.2730 77.0196 -8.4280 0.935 -0.351 -0.048 82 90 46
-35.1619 91.9276 0.5907 -0.420 -0.617 0.665 80 97 45
-34.9452 91.8178 0.5643 -0.453 -0.612 0.649 75 91 41
-34.6063 91.5085 0.5460 -0.374 -0.609 0.700 52 68 28
-34.3428 91.3203 0.5230 -0.374 -0.609 0.700 13 27 2
-34.1643 91.2699 0.4947 -0.097 -0.591 0.800 6 18 6
-34.0254 91.2842 0.4637 0.068 -0.400 0.914 14 23 21
-33.9593 91.4182 0.4278 0.261 -0.154 0.953 8 13 16
-33.8239 91.4387 0.3965 0.218 -0.130 0.967 8 12 12
-33.7848 91.6187 0.3585 0.166 -0.104 0.981 42 47 37
-33.6188 91.5891 0.3293 0.162 -0.104 0.981 86 94 70
-33.4142 91.4949 0.3028 0.172 -0.112 0.979 88 99 59
-28.1661 88.9440 -0.3535 -0.415 -0.431 0.802 47 55 18
-27.8435 91.5626 -0.8553 -0.239 -0.321 0.917 55 62 28
-26.2074 89.8356 -0.9050 -0.549 -0.720 0.424 50 56 22
-12.5699 86.5888 -3.1728 -0.860 -0.496 0.121 92 102 49
-11.6402 84.7558 -3.0595 -0.777 -0.461 0.428 87 97 51
-9.9451 82.9222 -3.1036 -0.722 -0.617 0.311 55 63 40
-9.8124 82.9135 -3.1294 -0.594 -0.683 0.424 99 108 80
-9.5775 82.6038 -3.1263 -0.330 -0.774 0.541 102 111 74
-9.2941 83.3039 -3.3011 0.941 -0.339 0.019 92 103 62
-1.8450 94.8594 -6.7559 -0.570 -0.820 0.056 91 131 123
-1.7021 94.8949 -6.7913 0.348 -0.931 0.112 94 128 115
