ply
format ascii 1.0
element vertex 876
property float x
property float y
property float z
property float nx
property float ny
property float nz
property uchar diffuse_red
property uchar diffuse_green
property uchar diffuse_blue
end_header
32.7176 63.7422 -6.0618 0.140 -0.808 -0.572 83 101 53
32.8346 63.7709 -6.1245 0.446 -0.881 -0.156 94 110 61
32.9527 63.8418 -6.1867 0.446 -0.881 -0.156 86 102 53
33.0715 63.9246 -6.2489 0.523 -0.852 -0.019 87 103 54
33.1884 63.9200 -6.3125 0.401 -0.878 -0.260 89 105 56
38.9383 63.5933 -9.4466 0.583 -0.787 -0.204 93 113 74
39.8509 65.2734 -9.8944 0.060 -0.864 0.500 148 154 106
32.6395 63.6031 -6.1782 0.523 -0.852 -0.021 84 102 52
32.7581 63.7244 -6.2395 0.520 -0.854 -0.022 85 101 54
32.8762 63.7980 -6.3018 0.520 -0.854 -0.022 85 101 54
32.9948 63.8800 -6.3641 0.523 -0.852 -0.019 88 104 57
39.8918 65.1866 -10.0824 0.182 -0.981 -0.068 90 98 47
29.3626 63.6317 -4.5468 -0.882 -0.460 -0.098 78 94 45
38.3532 62.8433 -9.4661 -0.737 -0.525 -0.426 82 96 59
39.0056 64.6238 -9.7770 0.671 -0.685 0.285 122 140 99
39.3901 64.7164 -9.9842 0.681 -0.620 0.389 106 114 65
39.5323 64.8853 -10.0575 0.135 -0.870 0.475 113 119 71
27.7176 66.6944 -3.7307 0.762 -0.611 0.217 114 129 81
28.5692 65.1804 -4.2306 -0.493 -0.837 -0.239 72 88 39
31.6821 64.0719 -5.9552 -0.602 -0.505 0.619 85 103 53
31.7975 64.0079 -6.0196 -0.576 -0.602 0.553 88 106 56
38.9211 64.5367 -9.8949 0.684 -0.679 0.267 123 141 100
39.0559 64.6436 -9.9660 0.682 -0.678 0.274 84 100 57
39.1718 64.5437 -10.0316 0.686 -0.604 0.406 90 102 56
38.8429 64.5172 -10.0146 0.689 -0.693 0.210 124 142 102
38.9790 64.6394 -10.0864 0.674 -0.707 0.215 85 101 58
39.0932 64.5215 -10.1513 0.697 -0.660 0.283 87 99 54
38.7580 64.4234 -10.1321 0.677 -0.706 0.208 103 121 81
38.8925 64.5312 -10.2037 0.677 -0.706 0.208 88 103 61
38.9950 64.2863 -10.2645 0.390 -0.920 0.032 86 97 53
40.1680 65.9209 -10.8744 0.316 -0.812 -0.492 77 89 29
40.2435 64.2238 -10.9490 -0.962 -0.043 0.270 125 137 70
25.5997 64.1274 -3.0885 -0.168 -0.716 -0.677 115 130 75
38.8095 64.4602 -10.3219 0.671 -0.726 0.148 89 104 62
38.9342 64.4565 -10.3903 0.372 -0.927 0.035 85 96 53
39.5765 65.9060 -10.7165 0.289 -0.952 0.099 103 111 60
40.0643 65.6695 -10.9880 -0.983 -0.180 0.045 77 89 29
38.9798 64.4249 -10.5784 0.413 -0.907 -0.078 96 104 57
38.9045 64.4390 -10.6996 0.523 -0.770 -0.366 96 104 53
39.9224 65.8030 -11.2397 -0.989 -0.149 0.027 76 87 31
38.8283 64.4448 -10.8206 0.523 -0.770 -0.366 92 101 47
39.8606 65.9631 -11.3700 -0.983 -0.172 -0.061 89 99 45
39.8842 63.7036 -11.4108 -0.962 0.004 0.273 122 133 71
39.1007 65.5131 -11.1227 0.422 -0.840 -0.342 107 114 62
38.6961 64.6854 -11.0722 0.683 -0.696 -0.223 83 94 36
39.6305 66.5234 -11.5719 -0.845 -0.457 -0.278 108 118 69
39.1130 66.8155 -11.6205 0.057 -0.979 0.196 100 107 64
37.2805 64.9166 -10.9437 -0.660 -0.655 -0.368 71 83 47
26.7909 67.1363 -5.2797 0.180 -0.858 -0.482 90 107 53
26.7343 69.8545 -5.5809 -0.057 -0.803 -0.593 89 107 59
39.6545 67.9581 -12.9457 -0.366 -0.931 -0.017 123 134 74
25.9016 67.0659 -5.4254 0.132 -0.822 -0.553 100 113 65
36.9469 63.8950 -11.5729 -0.639 -0.467 -0.610 69 81 46
39.5652 67.8648 -13.0678 -0.349 -0.409 0.843 123 134 75
25.8184 67.1297 -5.5400 0.132 -0.822 -0.553 97 111 63
26.3786 67.4293 -5.8565 0.121 -0.813 -0.570 96 114 62
36.9840 63.7596 -11.7556 -0.672 -0.467 -0.574 62 72 38
38.8109 66.1831 -12.8019 -0.268 -0.963 -0.014 92 101 55
38.5007 68.0395 -12.8191 0.258 -0.965 0.035 89 96 54
38.6333 68.0594 -12.8936 0.253 -0.967 0.039 89 97 57
39.2422 67.5322 -13.2286 -0.405 -0.155 0.901 101 112 56
37.3806 65.6025 -12.4977 -0.337 -0.852 -0.401 75 94 63
37.5132 65.6859 -12.5735 0.458 -0.881 -0.120 81 97 62
37.6271 65.5154 -12.6349 0.485 -0.874 -0.044 82 95 58
37.7586 65.5789 -12.7097 0.474 -0.879 0.047 78 88 46
37.8683 65.3591 -12.7680 0.659 -0.594 0.461 75 82 39
38.1652 65.8934 -12.9431 0.561 -0.810 0.173 89 96 55
38.0889 65.9259 -13.0697 0.421 -0.879 -0.224 87 95 54
37.1123 65.8245 -12.6866 -0.631 -0.653 -0.418 70 91 56
24.1776 66.3809 -5.7265 0.360 -0.714 -0.601 49 60 29
36.5451 65.3423 -12.6922 0.518 -0.273 0.811 74 83 42
36.6730 65.3808 -12.7654 0.539 -0.301 0.787 44 57 18
36.5704 65.0031 -12.8658 0.544 -0.301 0.783 49 62 23
36.6954 65.0016 -12.9365 0.700 -0.321 0.638 70 88 52
37.7020 65.0024 -13.5062 -0.160 -0.970 -0.181 82 90 52
23.6686 66.5404 -5.7621 -0.661 -0.750 0.022 100 114 62
36.5975 64.6950 -13.0401 0.719 -0.345 0.603 64 83 46
37.5130 65.2140 -13.5729 -0.167 -0.978 -0.126 70 77 35
23.5831 66.6123 -5.8758 -0.661 -0.750 0.022 100 114 61
23.5011 66.6409 -5.9906 -0.640 -0.768 -0.023 101 115 62
24.8225 68.1761 -7.1179 0.182 -0.830 -0.527 83 97 63
37.8008 68.1762 -14.5145 0.190 -0.863 -0.468 77 87 49
36.8594 67.5329 -14.4773 -0.185 -0.575 0.797 73 89 50
36.9919 67.5758 -14.5549 -0.230 -0.604 0.764 61 76 34
37.1007 67.2635 -14.6046 -0.160 -0.542 0.825 59 75 30
37.2241 67.1741 -14.6717 -0.176 -0.968 0.182 68 81 37
35.8844 67.7154 -14.1005 -0.352 -0.791 0.500 68 79 37
36.7725 67.4436 -14.5981 -0.181 -0.571 0.801 69 86 47
36.8937 67.3154 -14.6622 -0.181 -0.571 0.801 63 78 36
37.0046 67.0364 -14.7140 -0.159 -0.535 0.830 55 71 27
37.1345 67.0452 -14.7888 -0.177 -0.965 0.193 63 76 32
36.9256 67.0624 -14.8436 -0.220 -0.561 0.798 55 70 27
37.0531 67.0348 -14.9155 -0.177 -0.965 0.193 63 76 32
36.0975 67.5145 -14.5622 -0.602 -0.772 0.206 65 78 51
38.0151 68.5250 -16.2450 -0.993 -0.117 0.007 117 128 70
37.4790 68.9061 -16.3135 0.483 -0.828 -0.284 80 91 51
37.6291 69.1408 -16.4134 0.329 -0.860 -0.389 74 85 44
37.7698 69.2364 -16.5001 0.310 -0.832 -0.460 97 106 58
37.9135 69.3660 -16.5904 -0.803 -0.594 -0.037 117 128 70
37.5410 69.0708 -16.5384 0.357 -0.847 -0.395 75 86 45
37.7302 69.8338 -16.6917 -0.696 -0.683 -0.222 89 98 50
37.8566 69.7208 -16.7585 -0.694 -0.684 -0.227 115 126 68
37.3197 68.9995 -16.5859 0.357 -0.847 -0.395 72 83 43
37.4600 69.0994 -16.6732 0.357 -0.847 -0.395 76 87 46
36.4149 68.5708 -16.2139 -0.298 -0.816 0.495 57 69 32
20.1809 98.5140 -9.0556 0.059 -0.041 0.997 72 86 50
21.1204 89.7542 -9.0340 -0.207 -0.076 0.975 74 88 52
37.1753 70.5854 -17.1459 0.101 -0.713 -0.693 70 80 43
37.2724 70.0170 -17.1656 0.292 -0.812 -0.505 73 83 45
37.6754 69.9848 -17.3983 -0.788 -0.594 0.160 119 129 69
20.0484 95.4807 -8.9995 -0.526 -0.111 0.843 72 84 48
21.0989 88.8672 -9.1701 -0.212 -0.071 0.975 74 88 52
36.2821 68.2917 -16.6549 -0.146 -0.669 0.729 58 68 31
37.4749 70.2558 -17.4826 -0.802 -0.576 0.161 104 114 59
37.6079 70.2186 -17.5577 -0.666 -0.720 -0.196 121 130 73
37.7363 70.1185 -17.6260 -0.666 -0.720 -0.196 112 121 64
20.0028 94.8349 -9.1470 -0.779 -0.126 0.615 71 83 46
36.0673 68.2769 -16.7073 -0.368 -0.858 0.358 54 64 27
36.1944 68.2040 -16.7766 -0.249 -0.654 0.714 58 68 31
20.0724 94.5559 -9.3856 -0.171 -0.859 -0.482 74 86 48
35.9860 68.3016 -16.8405 -0.383 -0.851 0.359 54 66 28
37.3169 70.4177 -17.7694 -0.650 -0.507 -0.566 104 115 61
37.4823 70.8442 -17.8964 -0.507 -0.616 -0.603 121 130 75
37.4189 71.1608 -18.0677 -0.517 -0.611 -0.600 116 125 70
20.4891 89.5261 -9.6896 -0.040 -0.076 0.996 70 84 48
36.7999 71.3761 -17.9068 -0.008 -0.717 -0.697 64 74 37
37.0537 71.0680 -18.0327 -0.615 -0.516 -0.597 78 90 47
37.1874 71.0245 -18.1080 -0.616 -0.516 -0.596 86 96 44
37.4971 71.5461 -18.3287 -0.509 -0.610 -0.607 116 125 68
22.7198 68.9572 -9.6319 -0.427 -0.904 0.026 54 68 32
22.9578 68.9135 -9.7685 0.365 -0.863 -0.350 49 63 28
35.0646 67.8807 -16.8053 -0.582 -0.771 0.259 63 75 39
35.1914 67.8121 -16.8745 -0.587 -0.774 0.238 62 74 38
37.1432 71.6575 -18.3167 -0.519 -0.610 -0.599 85 95 44
37.2976 71.9083 -18.4266 -0.511 -0.633 -0.581 114 123 68
20.5053 87.2643 -9.9388 -0.605 -0.200 0.770 62 76 41
22.9801 69.0456 -9.9625 0.373 -0.856 -0.357 49 64 30
37.3589 72.0479 -18.6619 -0.410 -0.709 -0.574 116 125 67
35.9599 70.6750 -17.9155 0.060 -0.998 -0.028 58 66 29
36.0742 67.8836 -17.7578 -0.559 -0.734 -0.387 65 73 36
37.2871 72.2699 -18.8263 -0.044 -0.816 -0.576 118 127 69
18.8618 94.3216 -9.9614 -0.272 -0.086 0.958 47 65 18
20.2777 87.5427 -10.2373 -0.915 -0.404 0.015 62 78 41
35.8798 70.7746 -18.0617 -0.033 -0.990 -0.139 55 63 26
36.0122 70.7215 -18.1354 0.033 -0.999 -0.005 71 79 42
22.7384 68.9568 -10.3260 -0.586 -0.803 0.107 48 64 27
36.9355 71.6471 -18.9451 -0.108 -0.790 0.603 104 111 65
37.0667 71.5443 -19.0140 -0.095 -0.725 0.682 119 128 71
37.2379 72.0505 -19.1580 0.175 -0.693 0.699 113 124 57
22.6506 69.0042 -10.4496 -0.586 -0.803 0.107 44 60 24
35.2043 68.5934 -17.8447 -0.179 -0.652 0.737 67 76 44
36.9719 71.4094 -19.1347 0.143 -0.256 0.956 118 128 70
17.0499 102.2557 -10.2445 0.141 -0.010 0.990 98 111 68
19.5615 90.2034 -10.6665 -0.663 -0.556 -0.501 62 76 44
36.1743 68.5364 -18.5960 -0.418 -0.861 -0.288 67 75 38
36.8775 71.2771 -19.2554 0.131 -0.256 0.958 118 127 68
19.2586 88.0688 -10.5049 -0.004 -0.072 0.997 44 57 27
22.1865 79.0019 -11.4224 0.162 -0.885 0.437 81 93 43
34.1252 65.0137 -17.2433 -0.423 -0.237 0.875 60 70 36
34.2382 64.6764 -17.2798 -0.423 -0.237 0.875 53 62 31
36.0972 68.6526 -18.7430 -0.540 -0.776 -0.326 65 73 36
36.6351 70.9610 -19.2712 -0.496 -0.232 0.837 91 98 51
34.1624 64.7920 -17.4188 -0.490 -0.394 0.778 54 64 30
34.2787 64.5541 -17.4659 -0.490 -0.394 0.778 58 67 36
36.2341 71.7544 -19.4833 0.030 -0.903 -0.430 70 76 40
36.4023 71.3972 -19.7387 -0.972 -0.084 0.219 82 90 45
19.3226 83.8705 -10.9606 0.056 -0.346 0.937 41 52 17
22.2193 69.4874 -11.2739 -0.513 -0.858 0.031 41 53 29
36.1067 72.6186 -19.8718 0.192 -0.807 -0.559 62 69 29
36.3003 71.1226 -19.8401 -0.971 -0.105 0.215 75 83 35
19.0462 83.4043 -11.1479 0.272 -0.580 0.768 79 91 53
21.0607 91.2965 -13.1622 0.229 -0.676 -0.701 70 93 49
21.1885 91.5249 -13.2621 0.290 -0.668 -0.686 71 94 48
22.0782 69.5506 -11.7184 -0.497 -0.867 0.031 54 64 37
20.0699 91.3276 -12.7885 -0.053 -0.879 -0.474 68 75 37
17.2634 68.7694 -8.9197 0.619 -0.304 0.724 97 114 61
17.2364 69.6827 -9.0007 0.842 -0.539 0.013 100 117 65
17.5026 70.1795 -9.2133 0.831 -0.548 -0.093 97 114 63
19.0175 83.1317 -11.5012 0.148 -0.980 -0.134 45 57 21
19.9314 91.6704 -12.9585 -0.134 -0.894 -0.427 68 74 38
17.5226 70.2424 -9.4045 0.831 -0.548 -0.093 87 103 56
18.9199 83.1363 -11.6426 0.148 -0.980 -0.134 45 57 21
21.6631 74.4663 -12.3515 0.031 -0.739 0.673 70 77 38
21.7973 74.3713 -12.4219 0.044 -0.763 0.645 73 82 41
20.6439 90.8121 -13.5113 0.505 -0.733 0.456 64 83 39
20.8002 94.0135 -13.9523 0.493 -0.661 -0.565 44 64 31
17.1980 68.1133 -9.1468 0.614 -0.306 0.727 101 116 74
20.7055 90.6066 -13.7423 0.396 -0.891 0.223 52 72 33
20.6662 94.3086 -14.1276 0.488 -0.659 -0.573 39 59 31
20.5183 94.7495 -14.3121 0.496 -0.705 -0.506 39 58 36
35.6269 72.5444 -20.9227 -0.013 -0.913 -0.408 66 73 31
21.3160 75.2517 -12.7869 0.379 -0.854 0.357 57 72 43
22.1888 70.1596 -12.7309 0.336 -0.470 0.816 63 82 37
20.8746 98.2707 -15.1554 -0.300 -0.678 -0.671 79 95 52
35.7339 73.6918 -21.3120 -0.917 -0.109 0.384 63 72 29
19.7730 81.6323 -12.7843 -0.751 -0.353 0.559 54 64 38
21.6632 69.7969 -12.5483 -0.474 -0.880 0.004 56 68 48
37.0446 71.2272 -22.0132 -0.848 -0.337 0.408 109 125 70
37.2885 70.7176 -22.1013 -0.719 -0.570 0.397 106 126 76
38.6896 76.2001 -23.5869 0.139 -0.938 0.317 114 132 77
38.8376 76.1980 -23.6761 0.118 -0.936 0.332 115 132 80
39.1363 76.2205 -23.8593 0.190 -0.981 0.046 115 134 82
39.2837 76.2057 -23.9467 0.202 -0.977 -0.065 113 136 84
39.4192 76.0487 -24.0103 -0.237 -0.965 -0.113 117 137 85
39.7682 76.6263 -24.2885 -0.084 -0.984 0.154 122 137 80
39.9200 76.6460 -24.3826 -0.067 -0.982 0.176 123 134 74
19.4502 39.2393 -7.7636 -0.893 -0.215 0.396 72 89 37
35.2993 71.1570 -21.1407 0.063 -0.899 0.433 59 67 28
36.9600 71.2638 -22.1587 -0.848 -0.337 0.408 109 125 74
38.5933 76.1392 -23.7252 0.139 -0.938 0.317 101 119 78
38.7411 76.1367 -23.8144 0.118 -0.936 0.332 101 118 77
39.0425 76.1955 -24.0038 0.190 -0.981 0.046 97 116 74
39.1913 76.1964 -24.0940 0.202 -0.977 -0.065 96 118 69
39.3412 76.2085 -24.1861 0.202 -0.977 -0.069 106 126 75
39.4935 76.2467 -24.2829 0.202 -0.977 -0.069 114 132 80
39.6741 76.6030 -24.4344 -0.088 -0.972 0.219 119 134 79
17.4594 70.3125 -10.4151 0.866 -0.479 0.145 53 66 13
21.9746 69.7378 -13.0830 0.042 -0.796 -0.604 67 84 39
22.1328 70.5636 -13.2784 -0.136 -0.738 -0.660 47 62 31
35.3296 70.7303 -21.2986 -0.686 -0.724 -0.076 61 70 28
36.3701 72.1807 -22.1042 -0.334 -0.815 -0.473 109 119 56
36.7752 71.9392 -22.3207 -0.892 -0.169 0.420 100 112 59
36.8796 71.3713 -22.3156 -0.864 -0.324 0.386 50 64 19
36.9987 71.0559 -22.3497 -0.853 -0.406 0.327 38 54 18
37.5167 70.5026 -22.5971 -0.059 -0.836 0.546 36 57 30
38.1964 76.0062 -23.6725 0.188 -0.979 0.075 36 57 29
38.3480 76.0612 -23.7710 0.207 -0.975 0.079 39 59 30
38.4970 76.0783 -23.8634 0.139 -0.938 0.317 43 62 33
38.6447 76.0754 -23.9526 0.118 -0.936 0.332 47 66 36
39.0988 76.1870 -24.2413 0.202 -0.977 -0.065 51 72 30
39.2498 76.2133 -24.3361 0.206 -0.975 -0.078 73 92 47
39.4023 76.2532 -24.4333 0.206 -0.975 -0.078 107 125 77
39.5798 76.5786 -24.5802 -0.088 -0.972 0.219 121 134 86
17.2531 64.6643 -9.7720 0.100 -0.954 -0.284 58 75 22
17.3727 70.3209 -10.5379 -0.337 -0.941 -0.022 62 74 24
17.4919 70.2920 -10.6067 -0.324 -0.946 -0.022 47 59 9
17.6127 70.2522 -10.6751 -0.324 -0.946 -0.022 83 96 43
17.7335 70.2123 -10.7436 -0.324 -0.946 -0.022 106 119 66
17.8544 70.1725 -10.8121 -0.324 -0.946 -0.022 103 116 62
22.2512 70.9486 -13.5764 0.203 -0.869 -0.451 35 53 36
35.2470 70.8211 -21.4502 -0.704 -0.708 -0.064 67 76 34
36.5862 72.5980 -22.4809 -0.916 -0.144 0.375 113 122 64
36.6927 72.0277 -22.4757 -0.880 -0.160 0.447 88 99 50
37.0341 70.7991 -22.5323 -0.762 -0.532 0.370 48 64 43
38.2517 75.9987 -23.9088 0.188 -0.979 0.075 39 63 38
38.4024 76.0401 -24.0054 0.144 -0.988 0.060 45 69 42
38.5483 76.0142 -24.0908 0.118 -0.936 0.332 54 77 50
39.1582 76.2155 -24.4857 0.202 -0.977 -0.065 60 78 40
39.3098 76.2456 -24.5814 0.206 -0.975 -0.078 110 126 85
39.4856 76.5542 -24.7259 -0.088 -0.972 0.219 120 133 89
16.8658 64.5909 -9.6904 0.090 -0.955 -0.282 101 117 70
16.9667 64.6231 -9.7558 0.099 -0.953 -0.287 89 105 59
17.0682 64.6534 -9.8213 0.099 -0.953 -0.287 42 58 12
17.1699 64.6837 -9.8869 0.099 -0.953 -0.287 70 87 36
17.2713 64.7168 -9.9526 0.112 -0.953 -0.283 102 119 67
17.1776 70.2872 -10.5897 -0.106 -0.948 -0.299 104 118 65
17.2956 70.2650 -10.6587 -0.437 -0.868 -0.237 89 103 51
17.6488 70.2076 -10.8663 -0.346 -0.938 -0.031 90 104 53
17.9259 69.0927 -10.8958 -0.217 -0.669 0.711 104 116 65
35.8309 76.1737 -22.6629 -0.016 -0.999 -0.043 108 118 65
36.0792 72.6487 -22.3747 -0.120 -0.791 -0.600 110 120 59
37.3308 70.3119 -22.8444 0.101 -0.863 0.496 51 76 50
37.4623 70.2107 -22.9117 0.110 -0.831 0.545 50 79 50
37.5984 70.1772 -22.9903 0.110 -0.831 0.545 49 78 49
38.1579 75.9696 -24.0521 0.188 -0.979 0.075 45 74 46
38.3071 75.9912 -24.1455 0.188 -0.979 0.075 49 77 50
38.4551 75.9943 -24.2359 0.105 -0.939 0.327 55 83 55
38.7651 76.1698 -24.4462 0.158 -0.986 0.061 47 72 43
39.0655 76.2061 -24.6334 0.202 -0.977 -0.065 63 81 44
39.2172 76.2379 -24.7296 0.206 -0.975 -0.078 110 126 88
16.6800 64.5884 -9.7398 0.099 -0.953 -0.287 100 113 69
16.7811 64.6186 -9.8052 0.099 -0.953 -0.287 93 106 63
16.8823 64.6488 -9.8707 0.099 -0.953 -0.287 78 91 48
16.9838 64.6792 -9.9363 0.099 -0.953 -0.287 41 53 14
17.0855 64.7096 -10.0020 0.099 -0.953 -0.287 91 107 62
17.1873 64.7400 -10.0679 0.099 -0.953 -0.287 97 113 66
17.4532 70.1753 -10.9180 -0.065 -0.967 0.246 44 58 7
17.7265 69.1015 -10.9484 -0.217 -0.669 0.711 55 68 20
17.9799 68.9237 -11.0801 -0.168 -0.748 0.642 99 113 66
17.9974 70.3984 -11.2775 0.335 -0.889 0.312 103 116 68
18.9379 76.9726 -12.6825 0.069 -0.987 -0.142 53 65 28
20.8638 69.9594 -12.9669 0.298 -0.871 -0.391 45 54 30
21.5741 69.9851 -13.4026 0.120 -0.915 -0.386 64 77 41
35.3052 76.1773 -22.5459 -0.016 -0.999 -0.043 61 69 27
35.4498 76.1787 -22.6341 -0.016 -0.999 -0.043 60 69 25
35.5945 76.1801 -22.7224 -0.016 -0.999 -0.043 82 92 43
35.7394 76.1815 -22.8108 -0.016 -0.999 -0.043 107 117 65
36.0091 73.0018 -22.5724 -0.122 -0.789 -0.602 110 120 59
37.6249 75.9750 -23.9325 -0.161 -0.903 -0.399 56 82 51
37.7666 75.8972 -24.0089 -0.155 -0.906 -0.394 56 83 51
38.8221 76.1734 -24.6865 0.188 -0.981 -0.050 67 88 53
38.9737 76.2074 -24.7831 0.188 -0.981 -0.050 66 83 47
39.1250 76.2346 -24.8786 0.202 -0.977 -0.065 109 125 86
16.5976 64.6016 -9.8542 0.146 -0.956 -0.254 91 104 61
16.7015 64.6151 -9.9192 0.101 -0.952 -0.288 98 110 70
16.8027 64.6457 -9.9848 0.101 -0.952 -0.288 59 71 31
16.9040 64.6764 -10.0506 0.101 -0.952 -0.288 53 65 26
17.0056 64.7071 -10.1165 0.101 -0.952 -0.288 97 112 70
17.1073 64.7379 -10.1824 0.101 -0.952 -0.288 95 111 67
17.5331 69.0708 -10.9995 -0.236 -0.775 0.586 66 82 32
17.6597 68.9825 -11.0653 -0.236 -0.775 0.586 43 59 13
17.7872 68.8881 -11.1309 -0.217 -0.669 0.711 78 94 50
18.8544 76.9041 -12.8129 0.229 -0.948 0.221 61 73 35
35.3551 76.1165 -22.7710 0.189 -0.980 -0.064 62 70 27
35.5002 76.1295 -22.8611 0.007 -1.000 0.003 77 86 39
35.6482 76.1986 -22.9603 0.185 -0.981 -0.052 102 112 61
36.0864 73.4839 -22.8781 -0.856 -0.373 0.358 108 118 57
36.9408 71.2508 -23.1117 -0.862 -0.478 0.172 85 103 76
37.0649 71.0110 -23.1564 -0.862 -0.478 0.172 80 100 70
37.7104 76.4222 -24.2462 -0.159 -0.923 -0.349 76 101 64
37.8565 76.3961 -24.3319 0.114 -0.959 0.260 76 102 66
38.0033 76.3784 -24.4191 0.125 -0.957 0.260 82 108 74
38.1426 76.2547 -24.4881 0.057 -0.997 0.047 85 113 81
38.2925 76.2775 -24.5824 0.047 -0.998 0.045 85 112 80
38.4359 76.2111 -24.6613 0.112 -0.994 -0.001 76 103 71
38.5857 76.2281 -24.7548 0.112 -0.994 -0.001 68 94 62
38.7312 76.1874 -24.8383 0.205 -0.976 -0.076 71 93 56
38.8832 76.2270 -24.9361 0.205 -0.976 -0.076 75 93 54
39.0356 76.2667 -25.0341 0.205 -0.976 -0.076 109 126 83
16.5144 64.6193 -9.9688 0.146 -0.956 -0.254 87 99 59
16.6150 64.6522 -10.0345 0.146 -0.956 -0.254 97 109 69
16.7158 64.6851 -10.1003 0.146 -0.956 -0.254 42 55 12
16.8168 64.7181 -10.1663 0.146 -0.956 -0.254 74 87 44
16.9190 64.7454 -10.2322 0.152 -0.955 -0.255 96 111 68
17.0194 64.7842 -10.2986 0.146 -0.956 -0.254 96 112 67
17.5853 68.9153 -11.1841 -0.236 -0.775 0.586 58 74 26
17.7101 68.8386 -11.2502 -0.168 -0.748 0.642 45 61 17
17.8361 68.7538 -11.3160 -0.168 -0.748 0.642 91 106 65
19.0437 76.6699 -13.0879 0.392 -0.892 0.227 47 57 23
35.4073 76.1086 -23.0045 0.171 -0.982 -0.081 72 79 37
35.5558 76.1888 -23.1056 0.185 -0.981 -0.052 98 106 58
36.1363 73.4408 -23.1008 -0.883 -0.167 0.438 89 100 49
36.8617 71.3841 -23.2749 -0.891 -0.412 0.189 90 102 56
36.9948 71.2788 -23.3424 -0.885 -0.429 0.180 89 103 57
37.7637 76.3873 -24.4795 0.118 -0.962 0.248 91 110 69
37.9106 76.3710 -24.5670 0.053 -0.997 0.052 97 118 79
38.0524 76.2823 -24.6420 0.042 -0.998 0.053 95 120 82
38.2008 76.2836 -24.7328 0.042 -0.998 0.053 90 116 80
38.3442 76.2165 -24.8116 0.133 -0.984 0.122 86 112 77
38.4905 76.1878 -24.8972 0.126 -0.990 0.068 80 105 71
38.6388 76.1824 -24.9869 0.124 -0.989 0.075 75 96 58
38.7885 76.1941 -25.0799 0.124 -0.989 0.075 89 108 62
38.9385 76.2058 -25.1730 0.124 -0.989 0.075 111 128 72
16.4311 64.6370 -10.0835 0.146 -0.956 -0.254 97 109 69
16.5317 64.6699 -10.1494 0.146 -0.956 -0.254 80 92 54
16.6325 64.7029 -10.2154 0.146 -0.956 -0.254 38 50 9
16.7335 64.7359 -10.2815 0.146 -0.956 -0.254 87 100 57
16.8346 64.7690 -10.3477 0.146 -0.956 -0.254 96 111 68
17.6295 68.8135 -11.3706 -0.129 -0.914 0.385 40 55 11
17.7497 68.7681 -11.4380 -0.129 -0.914 0.385 58 73 32
17.8699 68.7228 -11.5055 -0.129 -0.914 0.385 92 107 68
18.0006 68.6047 -11.5697 0.176 -0.966 -0.187 92 107 65
18.0437 69.8951 -11.7673 -0.670 -0.695 0.261 101 115 63
35.3202 76.2222 -23.1694 -0.522 -0.850 0.070 72 79 36
35.4648 76.2145 -23.2567 0.190 -0.978 -0.091 98 105 59
36.0580 73.6548 -23.2796 -0.893 -0.121 0.433 85 97 48
36.9136 71.3797 -23.5007 -0.885 -0.429 0.180 90 103 54
37.6681 76.3392 -24.6203 0.118 -0.962 0.248 89 106 64
38.1077 76.2719 -24.8801 0.042 -0.998 0.053 83 109 74
38.2481 76.1625 -24.9514 0.146 -0.974 0.173 80 106 71
38.3970 76.1685 -25.0432 0.146 -0.974 0.173 77 101 68
38.5460 76.1744 -25.1351 0.146 -0.974 0.173 76 97 59
38.6953 76.1804 -25.2272 0.146 -0.974 0.173 88 107 58
38.8448 76.1864 -25.3194 0.146 -0.974 0.173 110 128 69
16.4445 64.7104 -10.2651 0.192 -0.937 -0.291 52 64 28
16.5439 64.7514 -10.3315 0.192 -0.937 -0.291 55 67 27
16.6435 64.7924 -10.3980 0.192 -0.937 -0.291 90 103 60
16.7513 64.7862 -10.4631 0.147 -0.955 -0.256 96 111 70
17.5509 68.7751 -11.4903 -0.124 -0.919 0.374 63 78 34
17.6873 68.6207 -11.5530 0.170 -0.962 -0.215 29 44 7
17.8012 68.6163 -11.6222 0.217 -0.939 -0.265 79 93 57
17.9083 68.6602 -11.6936 0.173 -0.963 -0.207 96 111 70
18.0787 69.8595 -11.9597 -0.694 -0.671 0.260 100 115 57
20.0988 78.0896 -14.3058 -0.244 -0.608 -0.755 47 56 25
35.2293 76.2516 -23.3211 -0.533 -0.844 0.068 72 79 36
35.3730 76.2241 -23.4054 0.196 -0.974 -0.115 98 106 59
35.5579 73.9765 -23.2157 -0.157 -0.724 -0.672 102 111 58
35.7008 73.9938 -23.3055 -0.158 -0.728 -0.667 102 112 59
35.8672 74.4761 -23.4723 -0.900 -0.160 0.406 95 105 52
37.3008 76.6615 -24.6446 -0.067 -0.877 -0.475 93 106 60
37.4687 70.5344 -23.9215 0.102 -0.990 0.099 80 105 68
37.6240 70.7567 -24.0466 -0.589 -0.807 -0.051 75 102 67
38.5483 71.7737 -24.7495 0.426 -0.904 -0.042 121 136 70
16.4069 65.0844 -10.4571 -0.771 -0.147 0.620 68 80 40
16.6677 64.8043 -10.5787 0.147 -0.955 -0.256 96 111 70
17.4935 68.5959 -11.6039 0.235 -0.952 -0.196 91 106 63
17.6005 68.6369 -11.6751 0.235 -0.952 -0.196 43 58 20
17.7078 68.6781 -11.7465 0.235 -0.952 -0.196 46 60 25
17.8223 68.6710 -11.8157 0.173 -0.963 -0.207 99 114 73
17.9318 68.6998 -11.8868 0.176 -0.958 -0.226 99 115 68
19.2352 70.1393 -12.8828 -0.817 -0.285 0.501 83 94 52
19.8303 68.2056 -12.9831 -0.804 -0.271 0.529 49 59 25
19.8632 78.2033 -14.3714 -0.197 -0.616 -0.763 38 47 16
19.9582 78.5142 -14.4721 -0.241 -0.608 -0.757 43 52 21
21.3126 93.5472 -17.3597 -0.840 -0.521 -0.152 82 94 44
34.9883 76.1525 -23.3636 0.228 -0.959 -0.167 65 71 32
35.1393 76.3078 -23.4774 -0.522 -0.850 0.070 69 76 34
35.6205 74.2003 -23.4840 -0.158 -0.726 -0.669 99 109 56
37.0618 76.6885 -24.7082 -0.075 -0.874 -0.480 101 113 65
37.2141 76.7584 -24.8111 -0.067 -0.877 -0.475 96 110 62
37.3883 70.6298 -24.0793 0.105 -0.919 0.381 75 100 63
37.9584 70.7693 -24.4479 0.440 -0.897 -0.038 70 89 50
16.3633 64.8657 -10.5649 -0.799 -0.154 0.582 75 87 46
17.5266 68.5676 -11.7933 0.074 -0.993 0.087 83 98 58
17.6395 68.5699 -11.8630 0.074 -0.993 0.087 25 39 5
17.7526 68.5723 -11.9327 0.074 -0.993 0.087 67 82 40
17.8657 68.5746 -12.0025 0.074 -0.993 0.087 97 113 66
18.6133 75.2026 -13.3820 0.737 -0.239 0.633 73 84 44
20.3158 72.3197 -14.0269 -0.795 -0.409 -0.448 32 41 12
19.8107 78.9917 -14.6435 -0.182 -0.646 -0.741 43 52 21
35.0486 76.3507 -23.6319 -0.522 -0.850 0.070 64 71 29
35.1929 76.3313 -23.7178 -0.501 -0.865 0.039 79 87 41
36.5319 71.7417 -23.9023 -0.897 -0.382 0.224 99 111 61
36.6754 71.7953 -23.9979 -0.913 -0.396 0.102 103 115 65
37.1317 76.9274 -24.9908 0.001 -0.896 -0.444 99 113 64
37.5998 70.8996 -24.4410 -0.280 -0.948 0.154 42 69 34
37.7396 70.8918 -24.5258 -0.326 -0.939 0.114 38 63 30
37.8751 70.8229 -24.5994 -0.354 -0.932 0.079 33 52 14
38.0242 70.9341 -24.7063 0.307 -0.950 0.053 85 103 54
17.4486 68.5257 -11.9128 0.132 -0.985 0.114 99 114 72
17.5589 68.5454 -11.9833 0.120 -0.986 0.112 53 68 28
17.6733 68.5377 -12.0526 0.121 -0.988 0.092 37 52 10
17.7857 68.5449 -12.1227 0.121 -0.988 0.092 89 105 58
17.9134 68.4488 -12.1877 0.124 -0.988 0.097 100 114 63
19.6964 79.1675 -14.7947 -0.153 -0.649 -0.745 43 52 21
34.9550 76.3216 -23.7746 -0.549 -0.825 0.133 65 72 29
35.1023 76.3770 -23.8730 -0.501 -0.865 0.039 79 86 41
36.5979 76.9929 -24.8793 0.123 -0.940 -0.318 101 113 64
36.8261 71.1132 -24.1909 -0.300 -0.953 0.044 99 112 66
37.7861 70.8001 -24.7370 -0.382 -0.921 0.075 25 44 5
37.9340 70.8973 -24.8416 0.307 -0.950 0.053 84 102 52
17.4780 68.5219 -12.1037 0.120 -0.986 0.112 87 103 56
17.5895 68.5343 -12.1741 0.112 -0.988 0.104 39 55 11
17.7021 68.5397 -12.2442 0.112 -0.988 0.104 69 85 38
17.8170 68.5309 -12.3137 0.121 -0.988 0.092 102 116 67
34.8676 76.4565 -23.9447 -0.632 -0.710 0.310 64 71 29
35.0115 76.4227 -24.0285 -0.501 -0.865 0.039 79 87 41
36.2110 77.0277 -24.8535 0.616 -0.750 0.240 108 120 73
36.3651 77.1473 -24.9655 0.622 -0.751 0.222 111 123 76
36.5184 77.2422 -25.0735 0.622 -0.751 0.222 109 121 75
36.8065 77.0894 -25.2290 -0.093 -0.894 -0.438 108 120 72
36.9604 77.1798 -25.3367 -0.100 -0.958 -0.270 107 120 74
37.1099 77.1905 -25.4303 -0.100 -0.958 -0.270 107 120 76
37.2897 70.9743 -24.6519 -0.385 -0.921 0.069 72 98 59
37.7005 70.8237 -24.8833 -0.382 -0.921 0.075 58 78 37
37.8338 70.7245 -24.9512 -0.385 -0.921 0.069 100 118 67
17.3984 68.4906 -12.2237 0.384 -0.896 0.224 102 119 67
17.5072 68.5195 -12.2951 0.384 -0.896 0.224 60 76 29
17.6163 68.5484 -12.3665 0.384 -0.896 0.224 41 57 10
17.7256 68.5773 -12.4381 0.384 -0.896 0.224 101 114 68
17.8371 68.5930 -12.5091 0.327 -0.875 0.358 98 111 65
19.8189 78.7254 -15.2009 -0.899 -0.110 0.423 55 61 33
20.7928 72.2397 -14.8604 -0.940 -0.109 0.324 60 69 41
24.6843 75.6899 -17.7602 -0.434 -0.483 0.760 72 77 52
36.1113 76.9049 -24.9817 0.616 -0.750 0.240 100 110 70
36.2653 77.0266 -25.0943 0.622 -0.751 0.222 107 118 78
36.4183 77.1213 -25.2024 0.622 -0.751 0.222 108 119 78
36.7180 77.1755 -25.3950 -0.116 -0.953 -0.281 109 121 75
36.8716 77.2590 -25.5018 -0.069 -0.964 -0.257 108 121 75
37.0214 77.2734 -25.5963 -0.069 -0.964 -0.257 109 122 77
16.0318 64.9130 -11.0274 -0.676 -0.287 0.679 90 106 61
17.3357 68.3485 -12.3379 0.116 -0.966 -0.231 101 119 64
17.4441 68.3787 -12.4094 0.111 -0.964 -0.240 76 93 41
17.5528 68.4090 -12.4809 0.111 -0.964 -0.240 38 51 6
17.6674 68.4008 -12.5505 -0.012 -0.972 -0.237 72 85 41
17.7786 68.4167 -12.6214 -0.012 -0.972 -0.237 105 118 75
23.5320 83.0848 -18.3319 -0.920 -0.364 -0.146 38 47 13
23.7027 82.6710 -18.3764 -0.920 -0.364 -0.146 16 24 1
24.5912 75.7092 -17.9006 -0.418 -0.473 0.776 67 74 59
32.7600 73.6206 -22.6368 -0.241 -0.922 0.303 57 62 30
33.1239 71.2167 -22.5078 -0.925 -0.366 -0.097 64 69 37
36.0139 76.8221 -25.1169 0.620 -0.751 0.227 48 56 34
36.1675 76.9414 -25.2292 0.609 -0.770 0.189 58 67 42
36.7852 77.3846 -25.6758 0.551 -0.500 0.668 113 127 80
36.9393 77.4680 -25.7833 0.528 -0.700 0.480 109 125 75
36.6691 70.5589 -24.5998 0.067 -0.953 -0.295 105 122 71
36.8054 70.5128 -24.6772 0.063 -0.950 -0.306 107 124 75
37.5074 70.5660 -25.1185 -0.058 -0.998 0.031 110 121 63
17.3542 68.4149 -12.5330 0.084 -0.962 -0.259 94 111 58
17.4662 68.4231 -12.6035 0.095 -0.962 -0.255 59 72 27
17.5751 68.4528 -12.6753 0.095 -0.962 -0.255 44 57 16
17.6900 68.4445 -12.7451 0.021 -0.967 -0.255 93 105 66
17.7947 68.5053 -12.8189 0.014 -0.967 -0.255 104 117 73
23.5952 82.7971 -18.5377 -0.943 -0.306 -0.131 7 15 0
35.9156 76.7203 -25.2484 0.549 -0.825 0.134 27 35 13
36.0679 76.8195 -25.3574 0.547 -0.826 0.133 26 34 12
36.9840 77.2863 -25.9934 -0.362 -0.931 0.037 92 106 56
37.2791 77.2246 -26.1667 -0.324 -0.938 -0.127 105 118 72
37.4319 77.2737 -26.2685 -0.308 -0.951 -0.016 108 122 73
37.5651 70.6331 -25.3600 0.001 -0.971 -0.238 125 135 76
37.7050 70.6241 -25.4452 0.022 -0.932 -0.361 121 131 71
17.3759 68.4609 -12.7276 0.098 -0.963 -0.249 85 98 53
17.4849 68.4906 -12.7996 0.098 -0.963 -0.249 37 49 12
17.5949 68.5148 -12.8713 0.015 -0.968 -0.251 71 83 47
17.7056 68.5351 -12.9430 0.015 -0.968 -0.251 96 109 67
19.7973 70.2553 -14.4982 0.156 -0.975 0.158 53 59 33
19.9152 70.2622 -14.5723 0.156 -0.975 0.158 36 42 16
22.8380 82.2363 -18.1934 -0.489 -0.446 0.750 79 89 37
23.4563 83.3506 -18.7448 -0.943 -0.307 -0.126 6 14 0
24.0529 82.9341 -19.0512 -0.633 -0.646 0.426 67 74 57
34.8465 74.2757 -24.4242 0.225 -0.851 -0.474 92 100 54
34.9695 73.7969 -24.4279 -0.909 -0.352 0.223 96 104 55
35.5371 76.9117 -25.2506 -0.126 -0.975 0.185 60 71 31
35.8299 76.8754 -25.4263 0.340 -0.935 0.098 30 38 16
35.9795 76.9194 -25.5257 0.340 -0.935 0.098 30 38 14
37.3341 77.2109 -26.4085 0.286 -0.954 0.086 72 83 40
37.4829 70.7096 -25.5171 0.004 -0.974 -0.227 126 135 80
37.6215 70.6815 -25.5987 0.022 -0.932 -0.361 124 133 77
17.2874 68.4866 -12.8512 0.139 -0.957 -0.255 100 113 67
17.3969 68.5124 -12.9231 0.015 -0.989 -0.144 51 63 27
17.5087 68.5245 -12.9942 0.015 -0.989 -0.144 40 52 17
17.6188 68.5493 -13.0663 -0.012 -1.000 -0.027 96 109 64
19.8508 70.0818 -14.6852 0.164 -0.962 0.217 43 49 21
23.1541 84.1681 -18.8935 -0.804 -0.458 -0.379 41 51 17
23.4966 83.3842 -18.9856 -0.921 -0.343 0.187 8 16 3
23.8177 82.8561 -19.1038 -0.829 -0.490 0.268 60 66 52
23.9620 82.8191 -19.1875 -0.649 -0.636 0.418 52 59 42
33.1267 70.9890 -23.0557 -0.521 -0.814 -0.258 59 64 32
34.7693 74.6338 -24.6331 -0.615 -0.706 -0.350 94 101 56
35.4429 76.8960 -25.3977 -0.126 -0.975 0.185 57 68 29
35.5884 76.8611 -25.4826 -0.126 -0.975 0.185 29 37 10
35.7370 76.8893 -25.5790 0.346 -0.935 0.072 34 42 20
35.8869 76.9369 -25.6792 0.346 -0.935 0.072 33 41 19
37.3928 70.6736 -25.6524 -0.103 -0.911 -0.399 113 121 70
37.5380 70.7391 -25.7525 0.022 -0.932 -0.361 124 133 78
16.4105 65.8254 -12.0679 -0.289 -0.943 0.164 92 106 53
16.8088 69.5532 -12.8946 0.151 -0.964 -0.217 101 115 59
17.3056 68.5551 -13.0480 -0.018 -1.000 -0.023 76 88 50
17.4194 68.5546 -13.1185 -0.018 -1.000 -0.023 26 38 2
17.5332 68.5542 -13.1891 -0.018 -1.000 -0.023 81 94 49
17.6472 68.5538 -13.2599 -0.018 -1.000 -0.023 101 115 63
17.9300 74.8789 -14.4185 -0.269 -0.140 0.953 84 92 51
23.0286 97.2031 -21.0541 0.443 -0.842 0.308 11 19 1
32.1463 75.8594 -23.3979 -0.231 -0.907 -0.352 62 68 34
32.2887 75.9099 -23.4941 -0.356 -0.891 -0.281 58 64 30
32.4295 75.8278 -23.5688 -0.356 -0.890 -0.285 52 57 25
32.5699 75.7206 -23.6393 -0.408 -0.863 -0.300 49 54 22
32.7124 75.7517 -23.7326 -0.380 -0.881 -0.281 61 66 34
33.1870 71.5403 -23.3727 -0.527 -0.824 -0.208 54 59 27
37.3104 70.7522 -25.8104 -0.103 -0.911 -0.399 124 132 85
37.4535 70.7859 -25.9045 -0.041 -0.929 -0.367 127 136 83
16.1214 65.7664 -12.0476 -0.139 -0.990 0.008 89 103 53
16.2188 65.8310 -12.1183 -0.125 -0.970 0.206 89 103 53
16.3322 65.8023 -12.1844 -0.125 -0.970 0.206 92 106 57
15.8218 70.8640 -12.6643 0.274 -0.342 0.899 99 116 60
15.9497 70.7883 -12.7318 0.280 -0.344 0.896 99 115 59
17.2233 68.5389 -13.1694 -0.016 -0.987 -0.161 96 109 66
17.3330 68.5643 -13.2417 -0.015 -0.989 -0.149 44 56 18
17.4455 68.5734 -13.3130 -0.015 -0.989 -0.149 46 59 17
20.2609 71.2047 -15.4780 0.075 -0.766 -0.638 51 57 29
31.6313 76.1434 -23.3258 0.477 -0.855 0.206 61 67 33
31.7722 76.0490 -23.3985 0.268 -0.962 -0.043 61 67 33
31.9147 76.1420 -23.5017 0.264 -0.964 -0.016 59 65 31
32.0567 76.1538 -23.5919 0.265 -0.964 -0.024 54 60 26
32.3369 75.8220 -23.7139 -0.407 -0.892 -0.194 56 62 29
32.4186 71.6296 -23.1043 0.307 -0.926 -0.220 58 63 31
32.5551 71.6576 -23.1936 0.309 -0.924 -0.225 61 66 33
32.9622 71.5539 -23.4304 -0.256 -0.825 -0.504 61 67 33
33.5144 71.7369 -23.8026 -0.441 -0.682 -0.583 59 64 34
35.2039 72.3703 -24.9528 -0.851 -0.344 0.398 23 32 4
36.9148 77.4129 -26.8109 0.301 -0.954 0.012 38 49 17
37.2295 70.8560 -25.9738 -0.101 -0.909 -0.404 124 132 87
37.3701 70.8512 -26.0604 -0.041 -0.929 -0.367 123 132 81
13.5604 75.9423 -12.2456 -0.839 -0.537 -0.087 95 111 63
15.1262 69.7471 -12.2319 -0.783 -0.609 -0.129 97 108 58
15.9400 65.7141 -12.0950 -0.076 -0.980 -0.183 101 108 62
16.0312 65.8126 -12.1675 -0.131 -0.991 0.004 97 100 57
16.1423 65.7977 -12.2342 -0.131 -0.991 0.004 97 95 55
16.2497 65.8043 -12.3022 -0.195 -0.956 0.219 99 94 56
16.3632 65.7761 -12.3683 -0.210 -0.954 0.214 97 92 55
16.5617 69.3105 -13.0560 -0.767 -0.640 0.039 104 113 69
23.6655 82.8173 -19.6348 -0.887 -0.398 0.234 34 42 23
31.1145 75.7385 -23.1432 0.233 -0.964 -0.129 59 67 30
31.2552 75.8197 -23.2438 0.245 -0.957 -0.153 60 68 31
31.5381 76.0827 -23.4619 0.467 -0.875 0.127 61 67 31
31.6799 76.1249 -23.5569 0.448 -0.889 0.094 60 66 30
31.8217 76.1362 -23.6470 0.341 -0.937 0.072 62 68 32
31.9634 76.1088 -23.7309 0.303 -0.953 -0.010 65 71 35
32.1059 76.1553 -23.8271 -0.071 -0.883 0.463 56 62 26
32.2476 76.1016 -23.9067 -0.023 -0.929 0.370 43 49 13
32.8769 71.7218 -23.5995 -0.255 -0.827 -0.502 62 68 32
33.0189 71.9688 -23.7274 -0.498 -0.844 -0.200 55 61 27
33.1573 72.0145 -23.8208 -0.669 -0.702 -0.245 41 46 14
33.3007 72.2592 -23.9492 -0.676 -0.509 -0.533 54 59 29
34.4968 74.6873 -25.0815 -0.695 -0.714 -0.080 99 107 61
35.9295 77.5077 -26.4236 0.276 -0.932 0.236 32 41 8
36.8032 77.1141 -26.9049 -0.379 -0.925 0.006 39 48 17
37.1478 70.9509 -26.1358 -0.092 -0.911 -0.401 123 130 88
37.2865 70.9166 -26.2167 -0.041 -0.929 -0.367 121 129 78
13.1940 76.1312 -12.2356 -0.941 -0.290 -0.176 88 101 58
15.7365 65.7896 -12.1489 -0.102 -0.969 -0.227 101 108 62
15.8419 65.8058 -12.2172 -0.099 -0.967 -0.237 111 108 67
15.9457 65.8315 -12.2861 -0.130 -0.972 -0.197 104 91 56
16.1669 65.8077 -12.4202 -0.210 -0.954 0.214 86 56 32
16.2824 65.7675 -12.4857 -0.210 -0.954 0.214 72 40 18
17.2699 68.6102 -13.5611 0.017 -0.981 -0.195 24 36 6
17.3814 68.6264 -13.6332 0.017 -0.981 -0.195 65 76 43
22.7367 84.3813 -19.5197 -0.275 -0.861 -0.428 59 70 30
22.8878 96.6931 -21.6045 0.242 -0.871 0.426 58 68 33
30.7416 75.6986 -23.1072 0.249 -0.959 -0.139 58 66 29
30.8816 75.7658 -23.2053 0.260 -0.956 -0.137 56 64 27
31.0219 75.7836 -23.2957 0.243 -0.959 -0.145 54 62 25
31.1626 75.9203 -23.4055 0.316 -0.949 0.019 55 63 25
31.3037 75.9852 -23.5039 0.326 -0.945 0.026 61 67 29
31.4450 76.0248 -23.5985 0.469 -0.876 0.116 63 70 30
31.5867 76.0877 -23.6970 0.469 -0.876 0.116 68 74 34
31.7285 76.0917 -23.7860 0.341 -0.937 0.072 71 78 37
31.8702 76.0807 -23.8727 0.303 -0.953 -0.010 80 87 46
32.0126 76.1164 -23.9672 -0.023 -0.937 0.347 88 94 54
32.1545 76.0858 -24.0507 -0.020 -0.942 0.335 95 101 62
32.7898 71.8110 -23.7557 -0.233 -0.834 -0.500 64 70 32
32.9297 71.9612 -23.8672 -0.515 -0.835 -0.192 53 59 24
33.0674 71.9760 -23.9555 -0.531 -0.825 -0.192 43 48 16
36.5818 77.5081 -27.0413 -0.026 -0.999 -0.045 42 49 13
36.7275 77.4337 -27.1201 -0.351 -0.936 0.003 44 51 16
36.8846 77.5556 -27.2377 0.390 -0.920 -0.038 43 50 15
37.2191 71.2286 -26.4233 -0.093 -0.988 -0.127 121 127 77
13.9708 70.8010 -12.0360 0.612 -0.752 -0.244 22 36 2
14.0631 70.9159 -12.1124 0.615 -0.753 -0.236 93 108 64
15.6416 65.8614 -12.2702 0.060 -0.984 -0.165 97 104 56
15.7467 65.8793 -12.3388 0.060 -0.984 -0.165 97 91 52
15.8588 65.8578 -12.4053 -0.065 -0.980 -0.189 85 67 35
15.9659 65.8658 -12.4735 -0.077 -0.979 -0.187 82 52 30
16.0860 65.7992 -12.5376 -0.210 -0.954 0.214 79 39 23
16.2016 65.7590 -12.6031 -0.210 -0.954 0.214 72 28 16
17.2928 68.6496 -13.7579 0.017 -0.981 -0.195 36 48 22
22.6503 84.2049 -19.6507 -0.195 -0.878 -0.437 60 70 31
22.7925 84.2133 -19.7409 -0.181 -0.807 -0.562 42 51 23
23.0912 84.0476 -19.9003 -0.650 -0.603 -0.462 7 13 2
23.2420 83.9444 -19.9775 -0.650 -0.603 -0.462 27 33 19
23.3894 83.8855 -20.0600 -0.646 -0.607 -0.463 59 66 47
23.8149 83.9546 -20.3369 -0.341 -0.811 -0.475 61 72 30
23.9365 84.2839 -20.4668 -0.166 -0.905 -0.391 64 75 33
30.5091 75.7070 -23.1661 0.159 -0.965 -0.209 62 70 30
30.6491 75.6855 -23.2500 0.076 -0.967 -0.242 63 71 33
30.7889 75.7614 -23.3498 0.260 -0.956 -0.137 67 75 35
30.9293 75.7820 -23.4407 0.243 -0.959 -0.145 72 80 39
31.0698 75.8310 -23.5365 0.243 -0.953 -0.182 76 84 40
31.2107 75.9309 -23.6409 0.306 -0.952 0.016 89 96 50
31.3519 75.9469 -23.7316 0.343 -0.938 0.059 98 106 58
31.4934 75.9926 -23.8275 0.343 -0.938 0.059 109 117 67
31.6352 76.0384 -23.9235 0.343 -0.938 0.059 119 128 77
31.7770 76.0465 -24.0134 0.232 -0.937 -0.263 133 141 91
31.9195 76.1092 -24.1127 0.209 -0.965 0.155 126 134 86
32.8371 71.7763 -23.9760 -0.081 -0.793 0.603 49 55 19
32.9760 71.8641 -24.0771 0.369 -0.908 -0.198 46 50 24
34.0717 76.1220 -25.4586 -0.888 -0.185 0.420 67 72 33
35.7451 77.6017 -26.7458 0.227 -0.971 -0.080 58 60 17
35.8993 77.7065 -26.8593 0.285 -0.957 -0.050 56 58 14
36.0470 77.6715 -26.9458 0.047 -0.999 -0.024 55 57 12
36.1938 77.6181 -27.0287 0.076 -0.997 0.013 54 56 11
36.4879 77.5175 -27.1958 -0.026 -0.999 -0.045 59 61 16
36.6396 77.5487 -27.2957 -0.323 -0.946 0.014 63 66 21
36.7943 77.6289 -27.4054 0.393 -0.919 -0.029 63 65 20
37.2010 70.1631 -26.4367 0.105 -0.994 -0.041 115 119 63
13.8092 69.9969 -11.9796 0.701 -0.711 -0.052 87 100 57
15.4533 65.8492 -12.3196 -0.047 -0.980 -0.194 100 111 64
15.5566 65.8761 -12.3887 0.060 -0.984 -0.165 95 97 55
15.6617 65.8940 -12.4574 0.060 -0.984 -0.165 80 73 36
15.7738 65.8728 -12.5240 -0.044 -0.986 -0.161 68 48 19
15.8789 65.8926 -12.5930 -0.065 -0.980 -0.189 71 39 17
15.9942 65.8541 -12.6587 -0.205 -0.959 0.196 74 33 16
16.1103 65.8112 -12.7242 -0.223 -0.948 0.225 75 28 17
17.0963 68.6321 -13.8086 -0.004 -0.980 -0.198 87 97 64
17.2089 68.6413 -13.8805 0.021 -0.983 -0.184 21 33 7
20.8648 67.1283 -15.9156 -0.975 -0.147 0.165 49 59 30
22.5581 84.1036 -19.7900 0.246 -0.914 -0.322 59 69 30
22.6845 84.3084 -19.9031 -0.069 -0.845 -0.531 50 59 30
23.2790 84.0240 -20.2277 -0.612 -0.653 -0.446 58 66 45
29.9952 75.9320 -23.0850 0.415 -0.795 0.442 56 65 17
30.2751 75.8968 -23.2542 0.421 -0.814 0.401 69 78 31
30.4162 75.7442 -23.3171 0.199 -0.971 0.130 73 82 35
30.5564 75.7050 -23.3982 0.168 -0.957 -0.237 84 93 47
30.6963 75.7434 -23.4921 0.278 -0.953 -0.121 96 105 59
30.8365 75.7804 -23.5859 0.243 -0.959 -0.145 113 122 74
30.9770 75.8353 -23.6829 0.243 -0.953 -0.182 126 134 84
31.1178 75.9122 -23.7837 0.250 -0.955 -0.157 138 146 96
31.2589 75.9268 -23.8743 0.231 -0.961 -0.151 136 144 94
31.4003 75.9760 -23.9709 0.231 -0.961 -0.151 133 141 90
31.5421 76.0275 -24.0681 0.174 -0.935 -0.311 130 139 86
31.6842 76.0867 -24.1668 0.174 -0.935 -0.311 115 123 72
31.8267 76.1461 -24.2657 0.174 -0.935 -0.311 106 114 65
32.7532 72.0558 -24.1666 0.507 -0.781 0.365 49 55 19
32.8883 71.9337 -24.2308 0.337 -0.907 -0.250 47 51 25
34.9802 72.2183 -25.5861 -0.872 -0.441 0.213 66 69 24
35.6475 77.5364 -26.8855 0.232 -0.971 -0.065 69 70 26
35.8036 77.6858 -27.0079 0.285 -0.957 -0.050 72 71 25
36.1105 77.8403 -27.2254 -0.077 -0.962 -0.261 73 72 24
36.2545 77.7248 -27.2963 -0.025 -0.986 -0.165 74 73 25
36.4057 77.7464 -27.3944 -0.019 -0.987 -0.161 77 76 28
36.5621 77.8589 -27.5109 -0.351 -0.936 -0.022 79 78 30
36.7050 77.7219 -27.5775 0.400 -0.916 -0.037 78 77 29
37.0553 71.4334 -26.7534 -0.250 -0.939 -0.238 123 125 76
37.1287 70.3930 -26.6268 0.176 -0.983 0.061 119 122 67
15.2482 65.9301 -12.3741 -0.044 -0.992 -0.121 94 102 60
15.3659 65.8764 -12.4388 -0.041 -0.986 -0.159 103 108 67
15.4715 65.8909 -12.5073 0.060 -0.984 -0.165 92 89 54
15.5766 65.9088 -12.5761 0.060 -0.984 -0.165 66 54 25
15.6872 65.8962 -12.6433 -0.044 -0.986 -0.161 60 38 13
15.7913 65.9215 -12.7127 -0.065 -0.980 -0.189 70 35 17
17.0044 68.6746 -13.9348 -0.112 -0.954 -0.279 95 103 71
17.1173 68.6824 -14.0067 -0.112 -0.954 -0.279 28 38 13
22.4515 84.1785 -19.9497 0.307 -0.919 -0.249 57 68 28
22.5820 84.3322 -20.0572 0.262 -0.917 -0.302 58 67 38
22.7161 84.4466 -20.1604 -0.204 -0.877 -0.436 26 34 13
22.8655 84.3697 -20.2411 -0.305 -0.785 -0.538 5 11 1
23.0086 84.3763 -20.3317 -0.305 -0.785 -0.538 18 25 10
28.6594 75.6438 -22.4034 0.176 -0.703 0.689 68 76 31
28.7919 75.8723 -22.5247 0.259 -0.825 0.503 67 75 27
29.3450 75.9300 -22.8808 0.413 -0.795 0.444 67 75 26
29.4841 75.9316 -22.9681 0.415 -0.794 0.445 66 74 25
29.6240 75.8861 -23.0481 0.413 -0.801 0.433 63 71 20
29.7633 75.8867 -23.1354 0.404 -0.801 0.441 69 79 27
29.9037 75.8142 -23.2111 0.415 -0.795 0.442 83 93 39
30.0434 75.7959 -23.2956 0.415 -0.801 0.430 94 105 48
30.1832 75.7865 -23.3815 0.421 -0.814 0.401 108 119 62
30.3232 75.7713 -23.4666 0.218 -0.973 0.082 119 130 73
30.4635 75.7255 -23.5468 0.168 -0.957 -0.237 133 143 87
30.6034 75.7620 -23.6405 0.131 -0.959 -0.252 136 146 91
30.7436 75.8061 -23.7357 0.131 -0.959 -0.252 140 151 96
30.8841 75.8503 -23.8311 0.131 -0.959 -0.252 140 149 95
31.0249 75.9293 -23.9325 0.133 -0.956 -0.263 126 135 81
31.2973 71.6536 -23.3850 -0.308 -0.905 -0.293 102 110 59
32.5243 71.9119 -24.1967 0.358 -0.933 0.039 78 86 40
32.6625 71.9730 -24.2934 0.489 -0.837 0.246 50 56 20
32.7990 71.9272 -24.3712 0.321 -0.914 -0.247 47 52 22
32.9432 72.2650 -24.5182 0.387 -0.912 -0.136 43 47 23
33.2195 72.2604 -24.6905 0.274 -0.940 -0.201 57 60 33
33.3569 72.2175 -24.7694 0.080 -0.958 -0.276 59 62 32
33.6575 73.0719 -25.1011 0.251 -0.946 -0.204 64 68 32
34.8959 72.3464 -25.7547 -0.808 -0.583 -0.083 69 70 26
35.0321 72.2395 -25.8220 -0.736 -0.630 -0.249 70 71 27
35.5511 77.4954 -27.0298 0.235 -0.970 -0.057 73 72 26
36.0202 77.9324 -27.3969 -0.102 -0.959 -0.265 82 82 32
36.1686 77.8997 -27.4844 -0.016 -0.987 -0.162 83 83 33
36.3196 77.9131 -27.5812 -0.016 -0.987 -0.162 83 83 33
36.4733 77.9718 -27.6873 -0.308 -0.949 0.061 84 84 34
36.6186 77.8738 -27.7618 0.270 -0.957 -0.108 84 83 35
36.9752 71.5706 -26.9264 -0.244 -0.945 -0.217 123 125 76
13.8975 72.2557 -12.7724 -0.844 -0.532 0.068 95 106 63
15.1591 65.9663 -12.4939 -0.236 -0.969 0.068 97 102 64
15.2793 65.8992 -12.5579 -0.041 -0.986 -0.159 94 96 59
15.3863 65.9058 -12.6261 -0.041 -0.986 -0.159 61 57 25
15.4934 65.9123 -12.6943 -0.041 -0.986 -0.159 47 32 7
15.5821 66.0238 -12.7689 0.151 -0.960 -0.236 58 31 12
15.6848 66.0573 -12.8390 0.151 -0.960 -0.236 69 29 18
15.9826 68.8477 -13.5003 0.455 -0.385 0.803 85 26 22
16.8331 68.4988 -13.9743 0.318 -0.824 -0.468 105 114 69
17.0223 68.7438 -14.1346 -0.116 -0.959 -0.260 65 74 46
18.2058 67.7010 -14.6994 -0.407 -0.339 0.848 88 102 51
22.3504 84.1859 -20.1018 0.307 -0.919 -0.249 56 67 27
22.7551 84.4925 -20.4077 0.287 -0.865 -0.413 6 12 2
22.8916 84.5862 -20.5092 0.287 -0.865 -0.413 11 17 4
23.0285 84.6801 -20.6110 0.287 -0.865 -0.413 46 54 33
28.4278 75.6918 -22.4681 0.361 -0.925 0.119 69 78 36
28.5653 75.7002 -22.5557 0.353 -0.927 0.127 67 74 30
28.8391 75.7906 -22.7428 0.262 -0.832 0.489 70 78 27
30.5104 75.7886 -23.7905 0.131 -0.959 -0.252 116 128 67
30.6506 75.8328 -23.8859 0.131 -0.959 -0.252 107 118 58
30.7911 75.8771 -23.9815 0.131 -0.959 -0.252 100 109 52
30.9317 76.0083 -24.0920 -0.010 -0.920 -0.391 89 98 44
31.0729 76.0285 -24.1840 -0.023 -0.925 -0.380 90 98 47
31.2144 76.0640 -24.2787 -0.023 -0.925 -0.380 90 98 47
31.4790 71.6519 -23.6943 -0.313 -0.923 -0.223 105 113 62
31.8860 71.6404 -23.9476 0.411 -0.900 0.142 89 97 46
32.0235 71.7841 -24.0583 0.401 -0.906 0.136 89 97 45
32.1604 71.8227 -24.1506 0.401 -0.889 0.222 73 81 30
32.4349 71.9003 -24.3360 0.401 -0.889 0.222 62 69 27
33.3938 71.7307 -24.9085 0.554 -0.594 0.583 63 67 33
35.4532 77.4219 -27.1676 0.626 -0.776 -0.081 68 67 21
35.7693 77.8096 -27.4318 0.593 -0.798 -0.104 82 81 33
35.9189 77.8046 -27.5247 0.558 -0.807 -0.196 82 82 32
36.0741 77.9098 -27.6400 0.379 -0.925 0.015 82 82 32
36.2242 77.9064 -27.7335 0.301 -0.952 -0.059 80 80 30
36.3786 77.9783 -27.8425 -0.044 -0.949 0.311 81 81 31
36.3218 71.6120 -26.7242 0.054 -0.828 -0.557 82 81 33
36.6197 71.8618 -26.9536 0.046 -0.836 -0.546 66 68 21
36.7626 71.8728 -27.0450 -0.168 -0.930 -0.327 97 99 52
36.8965 71.7362 -27.1058 -0.205 -0.950 -0.234 120 122 72
15.0869 65.9093 -12.6085 0.139 -0.976 -0.165 102 107 70
15.1927 65.9213 -12.6770 0.142 -0.979 -0.148 73 73 39
15.2963 65.9469 -12.7465 0.142 -0.979 -0.148 46 38 10
15.3939 66.0063 -12.8180 0.151 -0.960 -0.236 54 35 13
15.4965 66.0397 -12.8882 0.151 -0.960 -0.236 65 33 20
16.3155 68.3713 -13.8039 0.435 -0.300 0.849 76 43 28
16.7421 68.5351 -14.1000 0.318 -0.824 -0.468 101 113 66
16.9344 68.7598 -14.2594 -0.132 -0.938 -0.321 80 90 59
18.1464 67.5282 -14.8084 -0.353 -0.302 0.886 90 104 53
19.8457 69.5871 -16.2300 -0.262 -0.610 -0.748 46 52 25
22.6472 84.5809 -20.5706 0.428 -0.866 -0.258 7 13 2
22.7846 84.6627 -20.6710 0.428 -0.871 -0.241 7 13 1
22.9213 84.7583 -20.7733 0.428 -0.871 -0.241 38 46 27
23.0562 84.8848 -20.8798 0.428 -0.869 -0.247 58 67 40
28.4731 75.6771 -22.6960 0.226 -0.940 0.255 67 74 30
28.6090 75.7523 -22.7943 0.267 -0.839 0.473 73 81 33
28.8860 75.7266 -22.9638 0.294 -0.839 0.458 95 103 54
29.1643 75.6630 -23.1276 0.336 -0.842 0.423 113 121 74
30.1374 75.7762 -23.7581 0.000 -0.916 -0.401 95 106 47
30.2770 75.8177 -23.8530 0.000 -0.916 -0.401 86 97 38
30.4170 75.8593 -23.9480 0.000 -0.916 -0.401 87 98 39
30.5571 75.9165 -24.0459 0.000 -0.918 -0.396 90 101 44
30.6977 75.9576 -24.1412 0.000 -0.918 -0.396 94 103 48
30.8386 75.9987 -24.2367 0.000 -0.918 -0.396 101 110 57
30.9797 76.0400 -24.3325 0.000 -0.918 -0.396 101 109 58
31.1212 76.1232 -24.4356 -0.033 -0.917 -0.397 101 109 58
31.2548 71.7746 -23.7708 -0.299 -0.929 -0.219 97 105 54
32.6132 71.4904 -24.5749 -0.291 -0.868 -0.402 57 63 27
33.6333 73.6843 -25.5932 0.115 -0.124 0.986 78 83 42
34.3627 74.3058 -26.1582 -0.845 -0.524 0.102 71 72 28
35.5129 77.5454 -27.4382 0.609 -0.781 -0.139 76 75 30
35.6715 77.7478 -27.5727 0.574 -0.802 -0.166 79 78 31
35.8277 77.8848 -27.6943 0.574 -0.802 -0.166 80 79 31
35.9806 77.9423 -27.8003 0.613 -0.766 -0.193 79 78 30
36.2865 78.0382 -28.0089 0.355 -0.935 0.000 77 76 28
36.5389 72.0073 -27.1290 -0.275 -0.952 -0.135 81 83 36
36.6796 71.9785 -27.2124 -0.275 -0.952 -0.135 88 90 43
36.8204 71.9497 -27.2959 -0.275 -0.952 -0.135 109 111 61
14.8404 65.6312 -12.5749 0.265 -0.877 -0.401 95 106 64
15.0011 65.9263 -12.7274 0.135 -0.973 -0.187 99 99 67
15.1041 65.9540 -12.7970 0.135 -0.973 -0.187 57 50 21
15.2073 65.9817 -12.8667 0.135 -0.973 -0.187 44 28 5
15.3106 66.0095 -12.9365 0.135 -0.973 -0.187 60 32 18
15.4073 66.0758 -13.0088 0.166 -0.975 -0.145 69 29 22
15.5091 66.1145 -13.0796 0.121 -0.984 -0.129 75 23 24
18.1322 70.2611 -15.4518 -0.835 -0.532 0.143 55 66 25
20.8299 65.5537 -16.3277 -0.702 -0.071 0.709 38 48 28
22.1298 84.4136 -20.4320 -0.243 -0.936 -0.253 65 76 36
22.5464 84.5764 -20.7224 0.428 -0.866 -0.258 9 15 2
22.6816 84.6851 -20.8263 0.428 -0.869 -0.247 11 18 3
22.8182 84.7815 -20.9290 0.428 -0.869 -0.247 32 40 19
22.9553 84.8783 -21.0321 0.428 -0.869 -0.247 61 70 41
29.3498 75.6112 -23.4381 -0.011 -0.910 -0.414 118 126 77
29.4875 75.6865 -23.5378 -0.011 -0.912 -0.411 102 112 61
29.6261 75.7273 -23.6321 -0.011 -0.912 -0.411 93 103 52
30.1835 75.8745 -24.0082 -0.020 -0.925 -0.378 105 115 64
30.3234 75.9283 -24.1056 0.000 -0.916 -0.401 105 115 63
30.4637 75.9701 -24.2011 0.000 -0.916 -0.401 105 115 63
30.6042 76.0256 -24.2991 0.000 -0.918 -0.396 103 111 60
30.7451 76.0531 -24.3925 0.096 -0.969 -0.229 99 107 56
30.8862 76.1463 -24.4975 0.058 -0.959 -0.279 87 95 44
31.0278 76.1826 -24.5928 0.058 -0.959 -0.279 73 81 30
32.6616 71.5260 -24.8087 -0.282 -0.870 -0.405 68 74 35
32.7957 71.3625 -24.8645 -0.427 -0.718 -0.549 72 76 41
32.9321 71.3387 -24.9462 -0.425 -0.720 -0.549 68 71 40
33.0706 71.4006 -25.0440 -0.214 -0.763 -0.610 65 68 37
33.2087 71.4363 -25.1371 -0.214 -0.763 -0.610 63 67 33
34.5150 73.1409 -26.2556 0.221 -0.388 0.895 77 78 36
34.7807 72.6898 -26.3441 0.368 -0.733 0.572 71 72 29
34.9225 72.6993 -26.4349 0.321 -0.760 0.565 73 74 30
35.0607 72.6205 -26.5081 0.307 -0.763 0.569 77 76 32
35.1995 72.5568 -26.5842 0.311 -0.767 0.562 83 82 37
36.0155 71.8639 -26.9766 -0.301 -0.510 0.806 87 86 40
36.1384 71.5180 -26.9936 -0.335 -0.619 0.711 89 88 42
36.2753 71.4381 -27.0658 0.473 -0.672 0.571 86 85 39
36.4191 71.4811 -27.1637 0.467 -0.672 0.574 81 83 36
36.7011 71.4567 -27.3368 0.464 -0.666 0.584 109 111 61
36.8349 71.3245 -27.3979 0.511 -0.623 0.593 122 125 70
36.9758 71.3091 -27.4838 0.563 -0.627 0.538 122 126 66
14.8232 65.8581 -12.7734 0.160 -0.916 -0.368 96 104 65
14.9147 65.9463 -12.8466 -0.142 -0.987 -0.074 92 84 58
15.0247 65.9355 -12.9140 -0.142 -0.987 -0.074 57 41 21
15.1346 65.9265 -12.9815 -0.121 -0.986 -0.115 57 31 15
15.3193 66.1039 -13.1292 -0.060 -0.983 -0.174 67 19 15
15.4737 66.4598 -13.2892 0.172 -0.950 -0.262 84 24 30
16.1700 68.2221 -14.0385 0.350 -0.892 -0.285 66 24 18
17.5385 71.3141 -15.4456 -0.514 -0.651 0.559 82 96 43
17.9969 70.6001 -15.6083 -0.693 -0.476 0.541 56 67 25
20.8024 65.0876 -16.4027 -0.716 -0.077 0.694 46 56 36
22.0138 84.5892 -20.6054 -0.270 -0.930 -0.251 70 81 40
22.4470 84.5555 -20.8722 0.420 -0.875 -0.241 12 19 4
22.5833 84.6489 -20.9745 0.420 -0.875 -0.241 14 21 3
22.7199 84.7427 -21.0771 0.420 -0.875 -0.241 26 35 11
29.3930 75.7739 -23.6973 -0.017 -0.909 -0.417 81 90 44
29.5320 75.7993 -23.7892 -0.011 -0.912 -0.411 89 98 53
29.9499 75.8973 -24.0697 -0.012 -0.925 -0.381 112 121 78
30.0897 75.9344 -24.1643 -0.012 -0.925 -0.381 101 109 66
