ply
format ascii 1.0
element vertex 919
property float x
property float y
property float z
property float nx
property float ny
property float nz
property uchar diffuse_red
property uchar diffuse_green
property uchar diffuse_blue
end_header
-4.5535 102.4239 4.8307 -0.774 -0.566 0.285 107 116 61
-4.3143 101.9586 4.8222 -0.438 -0.890 -0.125 106 115 60
-4.1443 101.8230 4.8045 -0.433 -0.891 -0.136 106 115 62
-3.9792 101.7095 4.7863 -0.451 -0.885 -0.117 106 115 62
-3.7957 101.5023 4.7709 -0.453 -0.883 -0.118 110 119 66
-3.6622 101.5419 4.7483 -0.085 -0.936 -0.343 111 120 65
-3.5288 101.5822 4.7257 -0.064 -0.920 -0.388 111 120 65
-3.4016 101.6549 4.7022 -0.079 -0.920 -0.383 110 118 66
-1.3405 101.1826 4.4185 -0.793 -0.582 -0.183 101 108 64
1.8417 95.5642 4.2708 0.375 -0.352 0.858 76 84 42
2.8527 94.7976 4.1635 -0.489 -0.866 -0.103 81 89 43
3.0011 94.6440 4.1501 0.011 -0.969 0.246 80 88 42
3.1365 94.5900 4.1329 0.077 -0.676 0.733 77 85 39
3.2754 94.5057 4.1169 0.093 -0.652 0.753 74 82 36
3.3911 94.6075 4.0933 0.146 -0.649 0.747 70 78 32
3.5144 94.6498 4.0722 -0.006 -0.395 0.919 70 78 32
4.3444 99.0189 3.6871 0.252 -0.720 0.646 68 75 33
4.4870 98.9518 3.6695 -0.213 -0.845 0.490 69 76 34
4.6374 98.8055 3.6555 -0.499 -0.704 0.506 69 76 34
4.7862 98.6690 3.6411 -0.694 -0.677 0.245 69 76 33
9.2504 92.3273 3.3425 0.591 -0.766 -0.254 96 105 50
-29.1717 98.6675 8.6422 -0.674 -0.621 0.400 87 95 44
-29.6228 99.7791 8.6425 -0.623 -0.552 0.554 83 91 40
-25.7690 100.6515 8.0066 -0.489 -0.693 0.530 85 94 41
-7.4823 101.3915 5.1968 0.041 -0.888 -0.458 108 117 65
-7.3815 101.5587 5.1714 0.021 -0.896 -0.443 107 115 64
-7.2725 101.6947 5.1466 -0.141 -0.874 -0.464 106 114 63
-7.1186 101.6469 5.1263 0.085 -0.890 -0.449 106 114 63
-5.4638 102.5260 4.8224 0.229 -0.681 -0.695 110 119 62
-5.3664 102.7381 4.7947 0.088 -0.800 -0.594 110 119 63
-4.5736 102.3838 4.6965 -0.774 -0.566 0.285 99 108 51
-4.3426 101.9592 4.6875 -0.444 -0.887 -0.130 99 108 53
-3.8587 101.6769 4.6316 -0.339 -0.507 0.793 96 105 51
-3.6965 101.5748 4.6133 -0.156 -0.947 0.281 96 105 50
2.9740 94.6831 4.0259 -0.272 -0.957 0.101 68 75 33
4.3341 98.9035 3.5624 0.252 -0.720 0.646 69 76 35
4.4675 98.9255 3.5409 -0.135 -0.839 0.527 75 82 41
4.6172 98.7861 3.5268 -0.376 -0.671 0.639 76 83 42
4.7611 98.7013 3.5103 -0.521 -0.730 0.442 76 83 41
4.9060 98.6016 3.4944 -0.719 -0.650 0.246 76 83 40
5.0440 98.5712 3.4754 -0.720 -0.663 0.205 75 84 38
6.7449 94.0629 3.4937 -0.097 -0.976 -0.197 80 87 46
-29.5865 99.6299 8.5090 -0.623 -0.560 0.547 83 91 40
-25.7695 100.5668 7.8735 -0.357 -0.731 0.581 85 94 41
-6.7390 101.7209 4.9255 -0.508 -0.679 -0.530 99 108 57
-4.3578 101.8967 4.5547 -0.362 -0.504 0.784 68 76 24
-4.1789 101.7183 4.5388 -0.323 -0.507 0.799 68 76 26
-4.0094 101.5834 4.5217 -0.323 -0.507 0.799 67 75 24
-3.6999 101.4530 4.4831 0.004 -0.970 0.243 57 66 14
4.4532 98.8484 3.4147 -0.135 -0.839 0.527 71 78 39
4.6015 98.7225 3.4002 -0.372 -0.679 0.634 71 77 38
4.7356 98.7361 3.3791 -0.506 -0.716 0.481 70 77 38
4.8769 98.6761 3.3615 -0.728 -0.651 0.214 73 79 40
9.2487 84.3272 3.6018 0.544 -0.809 -0.225 83 91 39
-29.0470 98.2747 8.3776 -0.702 -0.659 0.270 87 95 44
-25.8356 100.6192 7.7415 -0.548 -0.564 0.617 85 94 41
-8.7051 96.8759 5.3958 -0.223 -0.719 -0.658 100 112 64
-5.5887 96.7526 4.9331 -0.206 -0.956 0.207 67 76 30
-4.2226 101.7942 4.4017 -0.195 -0.971 -0.136 66 75 29
-4.0605 101.6968 4.3835 -0.428 -0.903 -0.024 66 75 29
-2.9370 101.0195 4.2575 -0.223 -0.975 0.007 70 77 41
-1.4212 101.1942 4.0173 0.124 -0.291 0.949 72 77 47
-0.3398 99.7295 3.9485 -0.127 -0.716 -0.687 72 79 47
-0.2010 99.7246 3.9278 -0.127 -0.716 -0.687 67 74 41
2.1193 94.9482 3.8854 0.273 -0.364 0.890 68 73 45
2.2431 94.9888 3.8641 0.273 -0.364 0.890 70 74 46
2.3663 95.0352 3.8425 0.050 -0.431 0.901 70 74 46
5.0136 85.5211 4.0561 -0.401 -0.747 -0.530 62 68 39
6.3570 85.6049 3.8479 0.003 -0.769 -0.639 58 65 33
6.4694 85.6074 3.8307 -0.308 -0.766 -0.565 59 65 34
7.1575 85.4535 3.7367 -0.279 -0.804 -0.525 62 67 39
7.2664 85.4952 3.7176 -0.285 -0.797 -0.533 62 67 40
7.5115 85.2281 3.6978 -0.476 -0.747 -0.463 63 67 40
8.8631 85.0295 3.5065 0.260 -0.034 0.965 74 79 48
8.9736 85.0426 3.4889 0.248 -0.035 0.968 79 86 47
9.1088 84.5874 3.4979 0.160 -0.134 0.978 79 86 46
9.2153 84.6650 3.4768 0.261 -0.105 0.960 79 86 46
9.4249 84.9076 3.4295 0.456 0.014 0.890 83 90 50
-28.8135 97.7595 8.2414 -0.623 -0.761 0.182 88 96 45
-25.6649 100.1777 7.6061 -0.425 -0.645 0.635 85 94 41
-9.3841 97.2640 5.3415 0.380 -0.902 -0.205 98 110 63
-6.5113 101.7127 4.6134 0.676 -0.583 -0.450 68 76 37
-2.7076 95.5855 4.4448 -0.062 -0.539 0.840 76 84 42
-2.5867 95.6376 4.4231 0.406 -0.469 0.784 75 84 40
-0.4000 99.9442 3.8080 0.092 -0.159 0.983 53 59 34
2.1028 94.9038 3.7638 -0.116 -0.901 0.419 41 43 27
2.2382 94.8599 3.7463 -0.016 -0.832 0.555 42 44 28
2.3695 94.8449 3.7275 -0.016 -0.832 0.555 42 44 28
2.5085 94.7726 3.7113 -0.077 -0.856 0.510 42 44 28
2.6407 94.7497 3.6928 -0.077 -0.856 0.510 42 44 28
4.5559 93.7303 3.4712 0.114 -0.465 0.878 32 34 22
4.6643 93.9040 3.4434 0.179 -0.334 0.926 32 34 23
8.5759 83.9995 3.5084 0.054 -0.066 0.996 29 33 7
9.6351 84.8089 3.2950 -0.328 -0.901 -0.284 39 43 23
-38.6209 105.1099 9.0877 -0.507 -0.463 0.727 11 18 10
-38.2452 104.7421 9.0559 -0.571 -0.472 0.672 37 43 28
-36.0455 103.3393 8.8193 -0.530 -0.395 0.750 83 97 37
-34.3154 100.8891 8.7246 -0.162 -0.228 0.960 67 80 27
-31.6433 98.2406 8.5013 -0.763 -0.577 0.291 83 96 42
-31.2940 97.8727 8.4736 -0.725 -0.571 0.386 86 97 41
-27.8252 97.6541 7.9651 -0.724 -0.598 0.344 87 95 46
-25.4702 99.6872 7.4718 0.779 -0.602 0.174 84 93 41
-12.9523 101.1655 5.4830 -0.720 -0.656 -0.229 100 111 53
-6.9092 100.8762 4.5909 0.335 -0.191 0.923 68 76 39
-6.7900 100.9682 4.5667 0.335 -0.191 0.923 69 76 42
-6.6722 101.0667 4.5422 0.511 -0.253 0.821 70 77 46
-6.5667 101.2192 4.5160 0.854 -0.414 0.316 70 76 46
-6.4356 101.8733 4.4518 0.789 -0.506 0.350 70 76 46
-6.3331 102.0478 4.4245 0.770 -0.605 0.202 74 81 50
-4.0682 101.4605 4.1227 -0.312 -0.946 0.084 65 71 41
-3.8966 101.3138 4.1068 -0.223 -0.970 0.097 58 65 32
-2.6020 95.5852 4.3003 0.137 -0.693 0.707 56 64 29
-2.0757 96.2635 4.1749 0.777 -0.368 0.510 40 45 22
-2.8006 100.7575 3.9792 -0.629 -0.683 0.370 41 46 23
-2.6421 100.6613 3.9618 -0.638 -0.678 0.365 40 45 22
-1.7346 100.2868 3.8503 0.036 -0.334 0.942 39 43 20
-1.5928 100.2728 3.8299 0.022 -0.306 0.952 40 44 21
-0.6766 99.7874 3.7246 -0.033 -0.272 0.962 37 42 19
-0.5164 99.6544 3.7094 -0.026 -0.367 0.930 37 42 19
3.6143 93.9826 3.4713 -0.451 -0.652 0.609 33 37 22
4.7858 93.7601 3.3097 0.116 -0.279 0.953 32 34 23
6.8231 93.6735 3.0082 -0.223 -0.852 0.473 36 38 25
-38.4279 104.7086 8.9387 -0.527 -0.465 0.712 12 20 8
-38.0767 104.3806 8.9085 -0.614 -0.478 0.629 48 56 32
-35.4962 102.3228 8.6626 -0.528 -0.393 0.753 83 93 40
-33.7859 99.9030 8.5731 -0.163 -0.230 0.959 63 75 27
-33.4937 99.6485 8.5468 -0.093 -0.212 0.973 75 87 40
-31.8256 98.2355 8.3936 -0.757 -0.630 0.171 85 95 43
-31.7240 98.3044 8.3735 -0.725 -0.579 0.372 86 97 41
-31.1357 97.5165 8.3396 -0.699 -0.581 0.417 86 97 40
-29.9096 95.5964 8.2883 0.699 -0.571 0.430 86 97 41
-29.8975 96.7950 8.2031 0.149 -0.597 -0.788 87 98 42
-6.4160 101.6629 4.3238 0.472 -0.280 0.836 65 71 46
-3.7103 100.9539 3.9651 -0.174 -0.849 -0.498 38 44 18
-2.2943 95.8956 4.1036 0.733 -0.278 0.621 39 44 22
-2.8477 100.8621 3.8414 -0.231 -0.792 -0.566 41 46 23
-2.6259 100.4334 3.8378 -0.640 -0.747 0.180 39 44 21
-1.7090 99.9962 3.7300 -0.422 -0.866 -0.269 37 41 18
-1.5475 99.8686 3.7145 -0.214 -0.853 0.476 36 40 17
-1.0784 99.5596 3.6653 0.269 -0.374 0.887 40 44 21
-0.2005 99.2514 3.5544 0.184 -0.066 0.981 35 40 17
0.4719 99.3456 3.4464 0.060 -0.436 0.898 30 35 15
0.5895 99.4779 3.4195 0.043 -0.485 0.874 30 35 16
0.6887 99.7356 3.3866 0.064 -0.518 0.853 30 35 16
0.7818 100.0408 3.3513 -0.175 -0.558 0.811 28 33 14
0.9358 99.9351 3.3354 -0.133 -0.509 0.850 28 32 13
1.0992 99.7616 3.3229 -0.142 -0.543 0.827 28 32 13
2.6875 98.1117 3.1982 0.417 -0.876 0.244 31 34 17
4.7855 93.5644 3.1983 -0.384 -0.661 0.645 32 34 21
-38.8292 105.0345 8.8286 -0.565 -0.523 0.638 9 16 12
-37.7533 103.7638 8.7571 -0.631 -0.483 0.607 63 73 40
-35.1832 101.7098 8.5162 -0.594 -0.437 0.675 81 91 43
-33.2735 98.9479 8.4253 -0.112 -0.224 0.968 61 69 29
-33.1081 98.9084 8.4032 -0.050 -0.213 0.976 57 68 27
-31.8652 98.2271 8.2644 -0.762 -0.622 0.180 81 90 41
-31.4112 97.6779 8.2352 -0.771 -0.586 0.247 86 97 42
-29.9300 95.5571 8.1631 0.701 -0.584 0.408 87 98 42
-30.0159 96.9304 8.0782 0.149 -0.597 -0.788 89 100 44
-7.2784 96.6278 4.6731 -0.147 -0.371 0.917 71 78 46
-2.6091 100.2030 3.7146 -0.213 -0.397 0.893 35 40 17
-0.9333 99.3676 3.5216 0.262 -0.364 0.894 36 40 17
0.7107 99.4223 3.2699 0.248 -0.183 0.951 40 45 22
0.8010 99.7431 3.2334 0.337 -0.205 0.919 41 46 23
1.4406 99.1246 3.1812 -0.735 -0.358 0.576 40 44 22
1.6251 98.7824 3.1777 -0.739 -0.337 0.584 38 41 21
3.4393 94.0137 3.2443 -0.018 -0.409 0.912 36 41 19
4.0065 93.5330 3.1931 -0.462 -0.793 0.397 33 38 16
4.1326 93.5404 3.1735 -0.411 -0.764 0.497 29 34 12
5.0522 93.2323 3.0569 0.096 -0.257 0.962 34 37 20
4.9934 96.3831 2.8412 0.263 -0.045 0.964 35 38 21
-38.7257 104.7819 8.6835 -0.611 -0.553 0.566 11 17 15
-32.8734 98.1865 8.2834 -0.119 -0.259 0.958 62 70 33
-32.8038 98.3091 8.2640 -0.034 -0.259 0.965 59 67 30
-32.7471 98.4544 8.2448 -0.432 -0.892 0.130 62 70 33
-32.3296 98.2218 8.1989 0.816 -0.578 0.011 63 71 36
-32.2980 98.4117 8.1803 -0.296 -0.954 -0.044 63 71 34
-31.9060 97.9753 8.1531 -0.660 -0.690 0.297 63 71 31
-31.8237 98.0771 8.1333 -0.766 -0.618 0.178 73 82 37
-31.4420 97.6548 8.1066 -0.770 -0.597 0.226 78 87 37
-29.9258 95.4743 8.0374 0.701 -0.584 0.408 79 89 37
-9.6346 97.2417 4.8520 -0.304 -0.938 -0.165 70 80 45
-8.5018 97.0654 4.6943 -0.211 -0.975 0.076 59 70 39
-5.1960 96.1978 4.2597 0.133 -0.244 0.961 36 41 17
-1.8478 95.3654 3.8161 0.261 -0.171 0.950 43 48 25
-1.4749 95.4752 3.7519 0.273 -0.173 0.946 53 58 35
-1.5845 99.7825 3.4540 -0.533 -0.673 0.513 54 58 35
-1.4234 99.6552 3.4390 -0.529 -0.681 0.505 52 56 33
-0.9304 99.2005 3.3980 0.170 -0.422 0.891 51 55 32
-0.7945 99.2104 3.3768 0.170 -0.422 0.891 52 56 33
-0.6101 98.9308 3.3694 -0.215 -0.327 0.920 52 57 34
-0.4443 98.7572 3.3571 -0.217 -0.331 0.918 52 57 34
0.0623 98.1549 3.3248 -0.097 -0.241 0.966 53 58 35
0.2167 98.0369 3.3102 -0.130 -0.254 0.958 52 57 34
0.6013 98.1774 3.2420 0.771 -0.508 0.385 50 55 31
1.8271 98.1313 3.0607 -0.650 -0.311 0.693 53 57 32
3.4726 93.5675 3.1460 0.379 -0.668 0.641 50 56 29
3.5999 93.5657 3.1269 0.417 -0.690 0.592 49 55 28
4.7115 92.6846 3.0238 0.189 -0.313 0.931 54 57 36
4.8352 92.7006 3.0040 0.193 -0.314 0.930 54 57 36
4.9589 92.7178 2.9841 0.193 -0.314 0.930 53 56 35
6.1313 96.6946 2.5173 -0.263 -0.785 -0.561 50 54 29
-38.6276 104.2882 8.5578 -0.500 -0.531 0.684 13 19 17
-38.6025 104.4974 8.5384 -0.611 -0.553 0.566 12 18 15
-32.5821 98.3364 8.0923 0.802 -0.588 -0.107 63 71 32
-31.9010 97.8893 8.0232 -0.662 -0.688 0.297 63 71 34
-29.9215 95.3917 7.9118 0.701 -0.584 0.408 67 76 32
-29.9989 96.9942 7.8037 0.307 -0.631 -0.712 84 92 43
-10.0110 97.4955 4.7572 -0.160 -0.804 0.573 63 72 40
-9.8182 97.3013 4.7427 -0.318 -0.617 0.720 53 62 30
-9.6799 97.2927 4.7225 -0.356 -0.563 0.746 48 57 26
-9.5090 97.1706 4.7059 -0.331 -0.498 0.801 49 58 27
-9.3886 97.2236 4.6838 -0.438 -0.567 0.697 49 58 29
-8.3283 96.8163 4.5546 -0.095 -0.993 0.076 36 45 18
-7.9272 96.8278 4.4933 -0.674 -0.737 -0.051 42 47 24
-7.3559 96.1915 4.4549 -0.363 -0.511 0.779 41 46 23
-7.2012 96.1103 4.4377 -0.287 -0.511 0.810 40 45 22
-5.5825 95.4766 4.2413 0.271 -0.191 0.943 45 51 23
-5.4667 95.5445 4.2188 0.267 -0.191 0.944 51 58 27
-1.6896 95.0904 3.6841 0.356 -0.697 0.622 59 64 41
-1.2058 99.0536 3.3152 -0.505 -0.774 -0.381 58 62 39
-1.0566 98.9857 3.2978 -0.492 -0.778 -0.392 58 62 39
-0.9043 98.8976 3.2815 -0.492 -0.778 -0.392 58 62 39
-0.7803 98.9755 3.2570 -0.559 -0.691 -0.458 59 63 40
0.0166 98.2851 3.1886 -0.528 -0.728 -0.436 59 64 41
0.1686 98.1840 3.1733 -0.528 -0.728 -0.436 59 64 41
0.3047 98.1819 3.1529 -0.363 -0.900 -0.243 59 64 41
0.4223 98.2987 3.1265 -0.103 -0.730 0.676 58 64 39
1.8429 97.8444 2.9466 -0.650 -0.311 0.693 53 58 27
3.4769 93.3567 3.0358 0.458 -0.674 0.579 50 57 26
3.6058 93.3404 3.0177 0.253 -0.880 0.403 50 57 26
3.7366 93.3074 3.0004 -0.243 -0.716 0.655 51 58 27
4.7135 92.4740 2.9156 0.146 -0.304 0.941 53 57 33
4.8404 92.4576 2.8978 0.159 -0.312 0.937 53 57 33
4.9688 92.4253 2.8808 0.174 -0.314 0.933 53 57 32
5.6723 92.9182 2.7381 0.644 -0.702 0.303 58 63 34
5.7886 93.0204 2.7130 0.778 -0.574 0.255 59 63 34
5.8943 93.2432 2.6804 0.745 -0.599 0.294 59 64 35
6.1317 96.4407 2.4058 0.636 -0.766 -0.088 63 68 39
7.2174 94.1506 2.4134 0.317 0.022 0.948 57 61 35
-36.8338 100.0895 8.4617 -0.214 -0.525 0.824 76 89 44
-36.6385 100.0086 8.4385 0.099 -0.467 0.879 61 73 34
-39.1260 104.7698 8.4489 -0.530 -0.487 0.695 3 8 3
-38.4871 103.9768 8.4134 -0.485 -0.532 0.694 9 15 11
-38.5071 104.2590 8.3948 -0.611 -0.551 0.568 13 19 16
-34.8961 98.5739 8.2859 -0.367 -0.655 0.660 26 32 21
-30.1855 95.5413 7.8089 -0.505 -0.550 0.665 64 72 34
-30.0623 95.5643 7.7886 0.622 -0.600 0.503 64 72 33
-30.3582 97.3116 7.6996 0.151 -0.598 -0.787 72 81 39
-30.1092 97.1147 7.6772 0.311 -0.626 -0.715 84 92 44
-25.2111 99.0208 6.7945 -0.405 -0.491 0.771 79 90 30
-9.7967 97.1222 4.6203 -0.256 -0.466 0.847 46 57 27
-9.6358 97.0350 4.6027 -0.338 -0.507 0.793 45 54 25
-9.4775 96.9553 4.5850 -0.331 -0.498 0.801 46 55 26
-5.7367 95.4542 4.1369 0.125 -0.402 0.907 68 74 46
-5.6039 95.4509 4.1171 0.125 -0.402 0.907 68 75 44
-5.3975 95.1413 4.1097 0.255 -0.206 0.945 66 73 40
-2.6691 99.3692 3.3761 0.730 -0.507 0.459 59 64 41
-2.5368 99.4006 3.3538 0.850 -0.365 0.379 57 62 39
-1.2334 99.0637 3.1834 -0.366 -0.556 0.746 55 59 36
-1.0672 98.8981 3.1711 -0.147 -0.572 0.807 55 59 36
-0.7787 98.8158 3.1340 -0.234 -0.551 0.801 56 60 37
0.9487 98.2500 2.9173 0.399 -0.077 0.914 54 61 27
4.6881 92.5166 2.7928 0.099 -0.889 0.447 53 57 30
4.3885 96.5011 2.5334 -0.501 -0.748 -0.434 53 57 30
5.2798 95.4796 2.4773 0.399 -0.247 0.883 58 63 31
5.7640 95.8937 2.3728 0.370 -0.266 0.890 60 65 33
5.8789 96.0776 2.3415 0.261 -0.361 0.895 59 64 34
-36.7521 99.8808 8.3258 -0.237 -0.531 0.814 78 91 46
-36.5787 99.8348 8.3033 0.106 -0.446 0.889 54 66 28
-39.0150 104.5070 8.3046 -0.578 -0.498 0.646 12 16 13
-38.3944 103.7440 8.2709 -0.473 -0.524 0.708 7 13 10
-38.3290 103.8855 8.2500 -0.594 -0.526 0.608 6 12 10
-34.7986 98.3373 8.1526 -0.316 -0.562 0.764 36 42 32
-33.0195 98.2047 7.8954 -0.779 -0.600 -0.179 75 84 37
-30.5870 96.8994 7.6316 0.684 -0.443 -0.580 68 75 40
-30.5206 97.0278 7.6115 0.684 -0.443 -0.580 62 69 36
-9.6059 96.8266 4.4820 -0.349 -0.508 0.787 55 66 36
-9.4289 96.6813 4.4667 -0.349 -0.508 0.787 55 66 36
-8.8798 96.6467 4.3869 0.823 -0.565 0.063 59 65 39
-5.7506 95.3970 4.0139 -0.593 -0.797 0.116 58 65 34
-5.6021 95.3292 3.9969 -0.593 -0.797 0.117 58 65 34
-5.0003 95.0134 3.9311 0.051 -0.934 0.354 60 65 32
-4.8646 94.9943 3.9122 0.048 -0.935 0.350 61 66 33
-2.6588 99.1770 3.2536 0.668 -0.336 0.664 54 59 37
-2.5369 99.2614 3.2287 0.776 -0.358 0.519 51 56 34
-0.8961 94.7631 3.3334 0.023 -0.543 0.840 50 53 32
-0.9411 98.8139 3.0237 -0.014 -0.364 0.931 48 51 30
0.0566 97.7285 2.9585 0.071 -0.813 0.578 50 54 31
0.1836 97.7794 2.9354 0.401 -0.843 0.358 50 54 29
0.3042 97.8716 2.9100 0.481 -0.859 0.177 50 54 29
1.1204 97.8410 2.7897 0.385 -0.112 0.916 49 56 24
5.4148 95.2081 2.3496 0.730 -0.599 0.328 50 55 23
5.5430 95.2269 2.3288 0.767 -0.545 0.339 51 56 24
5.6609 95.3582 2.3008 0.774 -0.526 0.354 52 57 25
5.9056 95.5355 2.2502 0.824 -0.239 0.513 51 56 24
-36.6195 99.5907 8.1893 -0.245 -0.537 0.808 73 89 43
-36.4740 99.5889 8.1676 0.106 -0.446 0.889 52 64 27
-38.7498 103.9938 8.1579 -0.582 -0.497 0.644 12 17 16
-38.0191 103.0506 8.1234 -0.402 -0.546 0.735 7 14 12
-38.1818 103.5632 8.1069 -0.578 -0.501 0.645 9 15 15
-34.7864 98.2411 8.0215 -0.352 -0.580 0.734 39 45 35
-30.6539 97.1870 7.4845 0.695 -0.439 -0.569 59 66 34
-12.0914 99.4908 4.5106 0.010 -0.143 0.990 43 51 27
-9.6224 96.7786 4.3560 -0.276 -0.481 0.832 63 74 44
-9.4510 96.6531 4.3403 -0.276 -0.481 0.832 63 74 44
-8.9516 96.3186 4.2919 0.626 -0.433 0.649 61 70 41
-5.6407 95.3743 3.8697 -0.589 -0.750 0.301 56 63 33
-4.8737 94.9171 3.7909 0.448 -0.431 0.784 56 60 34
-4.7594 94.9897 3.7679 0.465 -0.435 0.771 56 60 34
0.7428 81.4276 4.0238 0.149 -0.360 0.921 45 48 27
-2.5654 99.2710 3.0963 0.629 -0.404 0.664 45 48 27
-2.4608 99.4489 3.0664 0.631 -0.394 0.668 45 48 27
-2.3532 99.6139 3.0370 0.601 -0.443 0.665 45 48 27
-1.2438 94.3989 3.2867 0.121 -0.502 0.856 45 48 27
-1.1003 94.3237 3.2711 0.134 -0.513 0.848 47 49 28
-0.9900 94.4288 3.2461 0.131 -0.545 0.828 46 49 28
-0.8605 94.4301 3.2266 0.131 -0.545 0.828 46 49 28
-0.7422 94.4932 3.2037 0.128 -0.583 0.802 46 49 28
0.2054 97.4883 2.8222 0.256 -0.811 0.527 43 47 22
5.6960 94.7472 2.2158 -0.664 -0.742 -0.097 50 55 24
5.8107 94.9077 2.1857 0.812 -0.372 0.450 50 55 24
-36.6128 99.5030 8.0561 -0.421 -0.609 0.672 69 85 37
-36.3819 99.3638 8.0327 -0.199 -0.552 0.810 50 61 24
-36.0148 99.2358 7.9880 -0.170 -0.561 0.810 10 18 7
-35.6006 98.7966 7.9616 -0.244 -0.572 0.783 9 15 12
-35.3591 98.6361 7.9384 -0.492 -0.651 0.578 9 15 13
-38.0284 103.2312 7.9646 -0.600 -0.497 0.627 11 18 14
-34.7422 98.0926 7.8901 -0.367 -0.587 0.722 45 51 40
-33.2655 98.2281 7.6572 0.290 -0.957 0.021 80 90 37
-33.2713 98.4787 7.6376 0.304 -0.906 0.294 77 88 33
-33.1969 98.5941 7.6171 0.534 -0.827 0.174 74 84 30
-30.9054 97.5555 7.3575 0.734 -0.649 -0.201 63 71 32
-30.8308 97.6718 7.3368 0.732 -0.646 -0.219 60 69 28
-31.7711 99.5986 7.3209 0.733 -0.483 -0.479 67 76 32
-31.6211 99.5875 7.2993 0.739 -0.487 -0.466 72 81 34
-31.5793 99.7703 7.2781 0.741 -0.485 -0.464 74 84 33
-9.7455 96.6329 4.2540 -0.486 -0.830 -0.273 66 76 49
-9.5600 96.4592 4.2403 -0.497 -0.825 -0.270 65 75 48
-9.1169 96.3220 4.1849 0.171 -0.979 0.115 65 74 45
-8.9518 96.2136 4.1690 0.664 -0.410 0.626 64 73 44
0.4656 81.1029 3.9867 0.346 -0.211 0.914 38 41 20
-2.6556 98.8841 3.0053 0.743 -0.418 0.522 38 42 19
-2.5659 99.1343 2.9714 0.596 -0.477 0.646 38 42 19
-2.4487 99.2447 2.9448 0.596 -0.477 0.646 38 42 19
-2.3425 99.4155 2.9149 0.584 -0.443 0.680 38 42 19
-1.0613 93.9790 3.1659 0.012 -0.960 0.280 39 43 20
-0.8352 94.1544 3.1176 0.111 -0.829 0.549 39 42 21
0.0511 97.4563 2.7152 0.134 -0.715 0.686 39 43 20
0.2026 97.3520 2.7009 0.602 -0.726 0.332 39 43 20
0.3353 97.3637 2.6800 0.610 -0.730 0.309 39 43 20
2.0176 96.8655 2.4679 0.179 -0.118 0.977 40 44 17
4.4535 96.5187 2.1303 -0.667 -0.509 -0.544 39 43 16
8.0609 86.1602 2.4332 0.597 0.081 0.798 43 45 23
-36.5073 99.2570 7.9213 -0.408 -0.618 0.672 68 83 38
-36.3216 99.1899 7.8990 -0.362 -0.608 0.706 48 59 25
-36.0669 99.0112 7.8757 -0.362 -0.608 0.706 17 24 4
-35.8456 98.8853 7.8529 -0.343 -0.604 0.719 8 15 6
-35.4899 98.5405 7.8282 -0.503 -0.657 0.562 9 15 12
-35.2448 98.3737 7.8053 -0.487 -0.663 0.569 10 16 13
-34.6538 97.8720 7.7584 -0.380 -0.674 0.633 49 56 39
-34.4190 97.7184 7.7359 -0.380 -0.674 0.633 86 93 60
-33.3886 98.1198 7.5478 0.839 -0.512 0.185 85 95 43
-33.2194 98.0729 7.5263 0.781 -0.526 0.338 80 90 38
-33.3774 98.5816 7.5077 0.503 -0.786 0.360 77 87 34
-32.3132 99.9693 7.2323 0.764 -0.479 -0.433 67 76 28
-31.3015 99.7082 7.1021 0.883 -0.443 -0.155 81 90 37
-12.1600 99.5017 4.2453 0.964 -0.263 0.031 56 64 41
-9.7483 96.0808 4.1681 -0.101 -0.288 0.952 54 64 37
-9.5813 95.9684 4.1524 -0.111 -0.283 0.953 57 67 40
-8.6230 100.9714 3.5919 -0.101 -0.965 0.242 51 56 33
-4.5946 100.0787 3.0614 -0.172 -0.164 0.971 42 48 22
-2.6641 98.7901 2.8788 0.763 -0.351 0.543 41 44 23
-2.5680 99.0065 2.8464 0.759 -0.343 0.553 41 44 23
-2.4570 99.1481 2.8179 0.898 -0.358 0.254 42 45 24
-2.3601 99.3676 2.7851 0.898 -0.358 0.254 41 44 23
-1.0802 93.9480 3.0443 -0.109 -0.990 0.091 42 45 24
-0.9729 94.0665 3.0183 0.113 -0.835 0.539 42 45 24
-0.8446 94.0711 2.9986 0.113 -0.835 0.539 41 44 23
-0.7146 94.0665 2.9795 0.141 -0.839 0.526 41 44 23
-0.5907 94.0963 2.9584 0.150 -0.858 0.492 44 47 26
-0.4741 94.1673 2.9350 0.123 -0.860 0.496 46 49 28
-0.3460 94.1742 2.9152 0.123 -0.860 0.496 45 48 27
-0.2001 94.0783 2.9013 0.103 -0.860 0.500 45 48 27
-0.0592 94.0089 2.8859 -0.381 -0.924 0.041 45 48 27
0.0691 94.0127 2.8663 -0.385 -0.894 -0.229 45 49 26
0.2055 93.9681 2.8496 -0.504 -0.830 -0.237 45 49 26
0.3582 93.8243 2.8386 -0.637 -0.756 -0.150 45 49 26
-0.0009 97.6242 2.5761 0.138 -0.985 0.108 45 49 26
0.1356 97.6163 2.5562 0.535 -0.831 -0.150 45 49 26
0.2575 97.6995 2.5310 0.535 -0.831 -0.150 44 48 25
0.3797 97.7828 2.5057 0.535 -0.831 -0.150 43 47 24
0.5406 97.6186 2.4952 -0.410 -0.808 -0.423 43 47 24
-36.5179 99.1974 7.7889 -0.362 -0.601 0.713 71 84 42
-36.2603 99.0148 7.7657 -0.362 -0.601 0.713 38 47 18
-36.0145 98.8503 7.7429 -0.343 -0.604 0.719 14 21 5
-35.7676 98.6828 7.7200 -0.343 -0.604 0.719 19 26 21
-35.4236 98.3569 7.6961 -0.164 -0.617 0.770 10 16 15
-35.2037 98.2308 7.6738 -0.487 -0.663 0.569 8 18 12
-34.9944 98.1212 7.6517 -0.570 -0.627 0.531 11 19 6
-34.5997 97.7077 7.6277 -0.557 -0.630 0.541 59 67 42
-34.2751 97.4065 7.6046 -0.574 -0.613 0.543 80 90 51
-33.1830 97.6962 7.4160 0.804 -0.228 0.550 83 93 41
-33.4850 98.6866 7.3772 0.684 -0.609 0.402 74 86 36
-32.6564 100.2395 7.1208 0.770 -0.501 -0.394 76 86 34
-32.2081 100.2165 7.0555 0.640 -0.555 -0.532 73 83 30
-23.6757 90.4566 6.6047 -0.691 -0.719 -0.077 87 96 41
-23.5803 91.0120 6.5432 0.897 -0.205 0.391 76 86 34
-11.4729 96.7688 4.2369 -0.602 -0.342 0.721 53 62 31
-11.8594 100.2493 3.9991 0.949 -0.314 -0.017 54 62 38
-9.7598 96.0165 4.0438 -0.406 -0.428 0.807 50 60 33
-7.5165 100.4111 3.3336 0.171 -0.033 0.985 40 43 30
-6.5642 99.9753 3.2278 -0.192 -0.125 0.974 40 44 21
-2.8655 98.9784 2.7574 0.082 -0.152 0.985 50 53 34
-2.4453 98.9471 2.6971 0.887 -0.373 0.271 50 53 34
-0.9689 93.9107 2.9036 -0.165 -0.958 -0.233 50 53 32
-0.7096 93.9032 2.8653 0.289 -0.957 -0.026 50 53 32
-0.5873 93.9406 2.8438 0.289 -0.957 -0.026 52 55 34
-0.4744 94.0312 2.8192 0.361 -0.932 -0.006 54 57 36
-0.3535 94.0782 2.7970 0.361 -0.932 -0.006 54 57 36
-0.2280 94.0996 2.7764 -0.031 -0.956 0.290 55 58 37
-0.0821 94.0022 2.7628 -0.259 -0.966 -0.010 56 59 38
0.0497 93.9860 2.7444 -0.237 -0.966 -0.104 55 59 36
0.1757 94.0034 2.7240 -0.385 -0.894 -0.229 55 59 36
-0.0331 97.6696 2.4437 0.090 -0.993 0.073 55 59 36
0.0989 97.6903 2.4221 0.118 -0.981 0.155 55 59 36
0.6756 97.4606 2.3551 -0.761 -0.647 -0.051 55 59 36
-36.3962 98.9261 7.6550 -0.270 -0.500 0.823 70 80 43
-36.1447 98.7529 7.6323 -0.270 -0.500 0.823 37 46 21
-35.9103 98.6061 7.6099 -0.264 -0.507 0.821 10 16 4
-35.6811 98.4668 7.5876 -0.220 -0.550 0.806 16 23 19
-35.3590 98.1763 7.5645 -0.186 -0.599 0.779 9 15 16
-35.1627 98.0882 7.5427 -0.487 -0.663 0.569 8 18 10
-34.9252 97.9324 7.5205 -0.582 -0.627 0.518 12 21 3
-34.5391 97.5330 7.4973 -0.575 -0.643 0.506 62 73 39
-34.1772 97.1707 7.4744 -0.597 -0.616 0.514 82 93 49
-24.4125 91.0641 6.5395 -0.748 -0.659 0.076 91 100 47
-24.2665 91.0296 6.5206 -0.734 -0.618 -0.280 90 99 46
-23.9240 90.6174 6.5049 -0.743 -0.610 -0.276 86 95 42
-23.7769 90.5789 6.4862 -0.710 -0.698 -0.097 82 91 38
-11.3762 96.3617 4.1248 -0.602 -0.342 0.721 51 60 29
-11.4429 97.0054 4.0790 -0.266 -0.431 0.862 50 58 33
-11.8188 100.9441 3.7937 0.940 -0.311 -0.142 49 59 34
-6.4053 99.7752 3.0832 -0.130 -0.276 0.952 47 51 26
-6.1593 99.3282 3.0850 -0.103 -0.939 0.329 47 51 25
-2.7092 98.7472 2.6180 0.089 -0.133 0.987 57 60 39
-0.8811 94.0023 2.7553 -0.219 -0.972 -0.080 59 62 41
-0.7564 94.0270 2.7344 -0.171 -0.985 -0.037 59 62 41
-0.6113 93.9382 2.7204 0.290 -0.957 -0.016 58 61 40
-0.4903 93.9836 2.6983 0.339 -0.940 0.033 59 62 41
-0.3687 94.0266 2.6763 0.339 -0.940 0.033 58 61 40
-0.2414 94.0377 2.6563 -0.014 -0.952 0.304 58 61 40
-0.1030 93.9841 2.6402 -0.028 -0.955 0.294 59 62 41
0.0171 94.0366 2.6176 -0.044 -0.959 0.279 59 63 40
0.1481 94.0251 2.5989 -0.044 -0.959 0.279 59 63 40
-36.3124 98.7158 7.5222 -0.318 -0.486 0.814 67 77 40
-36.0528 98.5294 7.4998 -0.321 -0.488 0.812 35 44 19
-35.7668 98.2992 7.4773 -0.330 -0.503 0.799 5 13 3
-35.2864 97.9829 7.4332 -0.186 -0.599 0.779 8 13 16
-35.1218 97.9460 7.4118 -0.487 -0.663 0.569 10 19 11
-34.8536 97.7402 7.3898 -0.543 -0.634 0.551 13 23 3
-34.5028 97.3982 7.3675 -0.567 -0.634 0.525 66 78 41
-34.1285 97.0156 7.3452 -0.597 -0.616 0.514 88 100 53
-24.3626 90.8956 6.4226 -0.752 -0.636 0.175 88 96 45
-24.0497 90.5417 6.4070 -0.629 -0.764 -0.142 85 93 42
-23.9803 90.6523 6.3868 -0.718 -0.619 -0.318 78 86 35
-23.7050 91.1070 6.3053 0.901 -0.426 0.077 72 80 31
-11.5101 96.2584 4.0216 -0.691 -0.312 0.652 43 51 12
-11.4102 96.8001 3.9587 -0.272 -0.408 0.872 48 56 31
-11.2226 96.6342 3.9452 -0.356 -0.229 0.906 47 55 32
-8.9700 94.9302 3.7583 0.344 -0.510 0.789 39 48 21
-8.8180 94.8614 3.7416 0.605 -0.353 0.714 39 48 19
-7.3458 99.4938 3.1112 -0.143 -0.322 0.936 49 55 27
-6.6060 99.3259 3.0151 0.183 -0.443 0.878 57 61 36
-6.2969 99.1995 2.9800 -0.009 -1.000 0.030 57 61 34
-6.1871 99.3232 2.9525 -0.104 -0.940 0.325 57 61 34
-2.5612 97.1573 2.6006 0.219 0.024 0.975 58 61 40
-2.4804 97.4357 2.5638 0.206 0.016 0.979 59 62 41
-2.3864 97.6507 2.5307 0.216 -0.000 0.976 55 58 37
-2.2720 97.7631 2.5037 0.241 -0.002 0.971 52 55 34
-0.9405 94.1930 2.6198 0.028 -0.880 -0.475 53 56 35
-0.8111 94.1945 2.6003 0.131 -0.896 -0.425 52 55 34
-0.6261 93.8846 2.6000 0.454 -0.882 -0.130 56 59 38
-0.5095 93.9552 2.5763 0.451 -0.882 -0.139 58 61 40
-0.3916 94.0192 2.5529 0.451 -0.882 -0.139 58 61 40
-0.2589 93.9991 2.5348 -0.014 -0.952 0.304 59 62 41
-0.1283 93.9911 2.5159 -0.014 -0.952 0.304 56 59 38
-0.0011 94.0020 2.4959 -0.044 -0.959 0.279 54 58 35
0.1125 94.0944 2.4707 0.204 -0.978 0.031 54 58 35
1.4298 96.5805 2.0533 0.619 -0.638 0.457 54 58 33
2.3045 96.0270 1.9712 -0.888 -0.412 0.204 51 54 25
4.1988 96.8342 1.6158 0.843 -0.144 0.519 50 54 27
4.3090 97.0510 1.5801 0.825 -0.191 0.532 49 53 26
-36.1623 98.4000 7.3896 -0.308 -0.529 0.791 63 76 36
-35.9056 98.2174 7.3675 -0.308 -0.529 0.791 34 44 18
-35.6501 98.0358 7.3457 -0.308 -0.529 0.791 3 11 1
-35.4450 97.9343 7.3241 -0.200 -0.522 0.829 9 15 14
-35.1972 97.7631 7.3024 -0.195 -0.587 0.785 6 11 14
-35.0143 97.6960 7.2810 -0.338 -0.601 0.724 10 19 11
-34.7893 97.5600 7.2596 -0.336 -0.599 0.727 15 25 4
-34.5193 97.3498 7.2381 -0.329 -0.602 0.728 71 82 46
-34.2040 97.0641 7.2166 -0.514 -0.637 0.574 94 106 59
-33.8782 96.7595 7.1953 -0.478 -0.636 0.606 83 96 44
-32.3449 99.4515 6.7228 0.063 -0.224 0.973 69 78 35
-25.0155 92.5637 6.2458 -0.838 -0.518 -0.170 77 85 36
-11.6067 96.4632 3.8852 -0.666 -0.389 0.637 52 60 21
-8.8469 94.8588 3.6164 0.452 -0.808 0.378 47 56 30
-8.7135 94.8544 3.5968 0.413 -0.823 0.391 50 59 32
-8.6351 95.0434 3.5680 0.255 -0.891 0.376 51 57 30
-7.4886 95.2101 3.3812 0.662 -0.689 -0.296 52 57 35
-7.2523 99.0042 3.0036 -0.412 -0.878 -0.243 56 63 30
-3.8276 98.5602 2.5306 -0.174 -0.912 -0.370 52 56 31
-3.6947 98.5835 2.5086 0.043 -0.880 -0.473 53 57 32
-0.7479 93.7096 2.5066 0.223 -0.544 0.809 46 49 28
-0.6325 93.7846 2.4825 0.142 -0.484 0.863 42 45 24
-0.4945 93.7335 2.4665 0.104 -0.655 0.749 40 43 22
-0.3886 93.8640 2.4388 0.067 -0.672 0.737 40 43 22
-0.2583 93.8564 2.4200 0.067 -0.672 0.737 40 43 22
-0.1362 93.8966 2.3981 0.046 -0.658 0.752 42 45 24
-0.0051 93.8845 2.3795 0.046 -0.658 0.752 46 50 27
0.1003 94.0247 2.3511 -0.061 -0.751 0.658 46 50 27
0.2332 94.0030 2.3331 -0.073 -0.748 0.659 46 50 27
1.2702 96.5968 1.9439 -0.107 -0.994 0.013 46 50 27
1.5472 96.5272 1.9086 0.245 -0.892 -0.381 46 50 26
1.6666 96.6254 1.8819 0.250 -0.918 -0.308 46 50 24
1.7938 96.6701 1.8588 -0.721 -0.674 0.161 46 50 24
3.7020 95.1950 1.7059 0.305 -0.671 0.676 51 55 27
3.8352 95.1731 1.6879 0.182 -0.738 0.650 51 55 27
7.3307 84.2147 2.1524 -0.266 0.039 0.963 53 59 20
-35.8252 98.0131 7.2364 -0.299 -0.548 0.781 23 34 5
-35.5809 97.8492 7.2149 -0.299 -0.548 0.781 11 20 5
-35.3577 97.7181 7.1935 -0.223 -0.524 0.822 10 16 13
-35.1125 97.5508 7.1722 -0.262 -0.571 0.778 8 13 15
-34.8886 97.4169 7.1509 -0.272 -0.571 0.775 8 15 7
-34.6603 97.2750 7.1298 -0.385 -0.588 0.712 23 32 13
-34.3991 97.0786 7.1087 -0.385 -0.588 0.712 70 79 47
-34.1036 96.8251 7.0878 -0.477 -0.575 0.665 89 100 55
-33.8040 96.5631 7.0670 -0.459 -0.557 0.692 86 96 44
-25.9778 93.8209 6.1471 0.535 -0.133 0.834 82 90 41
-25.4407 93.3028 6.1143 -0.835 -0.523 -0.169 75 83 34
-24.8936 97.3263 5.6626 0.482 -0.792 0.374 81 88 43
-9.6470 95.2258 3.5725 0.362 -0.637 0.680 52 61 39
-8.8850 94.8880 3.4895 -0.492 -0.857 -0.151 49 57 34
-8.6830 95.1079 3.4390 0.232 -0.899 0.372 51 59 35
-7.5330 98.8974 2.9185 -0.395 -0.878 -0.269 54 61 31
-7.4129 98.9720 2.8937 -0.413 -0.859 -0.301 52 62 30
-7.2807 98.9994 2.8714 -0.397 -0.883 -0.252 52 61 32
-6.3408 98.5639 2.7707 0.452 -0.234 0.861 46 52 24
-6.2142 98.6124 2.7473 0.311 -0.285 0.907 46 52 27
-6.0995 98.7117 2.7210 -0.030 -0.356 0.934 46 51 29
-5.9508 98.6682 2.7027 0.131 -0.339 0.932 43 47 29
-5.8124 98.6682 2.6820 0.076 -0.489 0.869 42 46 31
-5.6735 98.6658 2.6614 0.606 -0.649 0.460 44 46 31
-5.5562 98.7569 2.6355 0.606 -0.649 0.460 43 46 29
-5.4534 98.9121 2.6058 0.823 -0.532 0.197 45 48 29
-5.3475 99.0565 2.5767 0.825 -0.529 0.200 44 49 27
-5.2724 99.3395 2.5394 0.525 -0.821 0.225 45 50 27
-3.5860 98.5923 2.3555 0.205 -0.843 -0.498 43 49 21
0.9735 79.5036 3.4272 -0.120 -0.313 0.942 35 40 21
-0.8353 97.8076 2.0158 0.533 -0.185 0.825 41 46 26
-0.0371 93.9315 2.2525 0.107 -0.692 0.714 40 45 24
0.1079 93.8377 2.2394 -0.096 -0.759 0.645 40 44 25
0.2422 93.8061 2.2222 -0.096 -0.759 0.645 40 44 25
0.8827 97.2333 1.8113 0.438 -0.211 0.874 40 45 23
1.0087 97.2914 1.7871 0.418 -0.204 0.885 40 45 23
1.3987 96.4682 1.8043 0.021 -0.992 0.127 40 45 23
1.5284 96.4934 1.7826 0.058 -0.987 0.149 40 45 23
3.4333 95.0716 1.6280 0.705 -0.335 0.626 46 52 28
3.5597 95.1067 1.6059 0.368 -0.407 0.836 46 52 28
6.9846 84.1599 2.0991 -0.089 0.046 0.995 60 66 28
27.7132 75.1322 -0.1752 -0.806 -0.592 0.016 135 144 89
-37.5311 101.1387 7.0613 -0.308 -0.341 0.888 9 15 11
-34.8257 97.2398 7.0215 -0.323 -0.551 0.769 7 14 8
-34.5862 97.0796 7.0007 -0.342 -0.550 0.762 32 40 24
-34.3304 96.8918 6.9800 -0.342 -0.550 0.762 69 79 48
-34.1222 96.7803 6.9592 -0.327 -0.528 0.784 82 94 50
-33.8675 96.5923 6.9387 -0.327 -0.528 0.784 86 96 44
-24.7998 97.0518 5.5386 0.342 -0.803 0.488 81 88 43
-24.5901 96.9059 5.5209 0.449 -0.814 0.368 78 85 45
-24.2199 96.9997 5.4567 0.474 -0.811 0.342 12 15 4
-9.6377 95.0926 3.4529 0.377 -0.635 0.675 55 64 45
-7.9323 95.1649 3.1908 -0.116 -0.826 -0.552 50 58 37
-7.7176 98.9585 2.8035 -0.427 -0.856 -0.290 39 47 23
-2.6536 95.8789 2.3340 -0.057 -0.607 0.793 41 46 23
-2.5058 95.8052 2.3188 -0.015 -0.591 0.807 39 43 26
-2.3290 95.5832 2.3131 0.261 -0.544 0.797 39 43 27
-2.2022 95.6122 2.2914 0.261 -0.544 0.797 38 42 27
-2.2847 97.4187 2.1346 0.116 -0.013 0.993 43 47 31
0.1681 94.8864 2.0046 0.420 -0.602 0.679 38 42 27
0.2807 94.9979 1.9773 0.303 -0.601 0.740 37 41 26
0.4059 95.0338 1.9552 0.303 -0.601 0.740 37 41 26
0.5268 95.0973 1.9312 0.356 -0.583 0.730 37 41 26
0.6506 95.1442 1.9083 0.356 -0.583 0.730 37 41 25
0.7380 95.4231 1.8691 0.562 -0.386 0.731 36 41 22
3.4266 94.9441 1.5115 0.696 -0.332 0.637 29 38 20
3.5673 94.8594 1.4984 0.167 -0.484 0.859 30 38 20
3.7060 94.7879 1.4843 0.081 -0.470 0.879 29 38 20
3.8352 94.7959 1.4642 0.091 -0.466 0.880 31 38 22
3.9632 94.8139 1.4434 0.122 -0.453 0.883 37 40 30
-38.5413 101.9621 6.9905 -0.603 -0.458 0.653 46 58 17
-37.5046 100.7805 6.9481 -0.337 -0.382 0.861 10 18 5
-37.1713 100.4817 6.9267 -0.340 -0.368 0.865 10 16 13
-36.7138 99.9811 6.9061 -0.276 -0.348 0.896 7 13 13
-36.3369 99.6077 6.8853 0.005 -0.281 0.960 11 17 12
-36.1505 99.5407 6.8638 -0.001 -0.283 0.959 40 48 31
-34.2425 96.6738 6.8518 -0.133 -0.461 0.878 72 83 50
-34.0417 96.5742 6.8313 -0.314 -0.522 0.793 82 93 49
-33.5887 96.0613 6.8124 -0.481 -0.514 0.710 84 96 46
-29.5867 97.3297 6.0928 0.570 -0.725 -0.386 77 87 37
-31.4028 103.3905 5.7865 0.591 -0.579 0.561 76 84 34
-24.8639 96.5365 5.4620 0.317 -0.382 0.868 84 92 41
-24.8383 96.7655 5.4364 0.134 -0.689 0.712 83 91 42
-24.7655 96.8996 5.4127 0.483 -0.662 0.573 79 87 39
-24.5764 96.7957 5.3943 0.490 -0.683 0.542 74 79 38
-24.4674 96.8562 5.3722 0.490 -0.683 0.542 44 49 18
-24.3216 96.8410 5.3519 0.473 -0.790 0.390 15 19 2
-24.2134 96.9035 5.3297 0.541 -0.770 0.340 12 15 5
-11.3200 99.2288 3.1793 0.567 -0.333 0.753 56 65 39
-9.4528 95.2652 3.2781 -0.390 -0.898 -0.203 45 56 39
-9.3600 95.4031 3.2510 0.417 -0.854 -0.312 46 56 39
-9.2388 95.4453 3.2289 0.437 -0.849 -0.295 48 57 38
-7.6815 98.7028 2.6853 -0.348 -0.278 0.895 35 40 20
-7.4640 98.3965 2.6819 -0.182 -0.296 0.938 35 40 20
-7.3458 98.4755 2.6567 -0.124 -0.263 0.957 34 38 21
-6.6415 98.4249 2.5562 0.860 -0.363 0.359 37 45 21
-6.4959 98.3948 2.5373 0.765 -0.469 0.441 37 45 21
-6.3645 98.4224 2.5150 -0.281 -0.479 0.832 37 46 19
-6.2053 98.3349 2.4995 -0.267 -0.502 0.822 37 45 21
-6.0601 98.3047 2.4807 -0.246 -0.523 0.816 37 45 24
-4.2622 97.0183 2.3344 -0.101 -0.102 0.990 43 48 28
-0.6790 96.6115 1.8372 -0.601 -0.403 0.690 38 43 23
0.3641 95.1432 1.8213 -0.353 -0.481 0.803 38 42 27
0.6419 95.0480 1.7888 0.510 -0.569 0.645 37 41 25
1.7386 95.6275 1.5695 -0.511 -0.767 -0.387 33 41 24
1.9164 95.3036 1.5738 -0.626 -0.671 -0.398 32 41 24
3.3270 94.5156 1.4379 0.786 -0.491 0.376 32 40 25
3.4295 94.7386 1.4013 0.696 -0.332 0.637 30 38 23
3.5926 94.4654 1.4030 0.383 -0.822 0.421 31 39 24
3.7133 94.5408 1.3777 0.173 -0.855 0.489 31 37 24
3.8347 94.6125 1.3527 -0.045 -0.768 0.639 30 36 24
3.9512 94.7288 1.3242 -0.146 -0.677 0.721 31 34 28
4.2029 94.8036 1.2794 0.261 -0.556 0.789 31 34 25
-37.9976 101.0176 6.8558 -0.692 -0.505 0.516 40 52 15
-36.8927 99.7228 6.8164 -0.396 -0.520 0.757 7 15 4
-36.8379 99.8684 6.7940 -0.351 -0.395 0.849 11 16 13
-36.1110 99.1654 6.7536 0.002 -0.310 0.951 13 20 12
-35.9428 99.1269 6.7322 0.010 -0.309 0.951 47 57 36
-30.3308 95.3696 6.2581 0.229 -0.097 0.969 73 82 39
-30.1750 95.5768 6.2147 0.261 -0.059 0.964 85 94 51
-29.7838 97.6098 5.9588 0.556 -0.765 -0.325 77 87 38
-29.5691 97.4746 5.9398 -0.122 -0.991 -0.059 82 90 40
-24.5682 95.8552 5.3494 0.259 -0.337 0.905 86 94 44
-24.6780 96.6387 5.2897 0.405 -0.483 0.776 75 83 36
-24.4426 96.7231 5.2464 0.410 -0.478 0.777 39 44 13
-24.3338 96.7839 5.2242 0.306 -0.677 0.670 18 22 4
-24.2118 96.8178 5.2026 0.306 -0.677 0.670 13 16 6
-24.0777 96.8268 5.1817 0.235 -0.717 0.657 17 20 10
-11.1328 98.5054 3.0834 0.777 -0.469 0.420 41 50 24
-9.5442 95.0217 3.1842 0.185 -0.967 0.174 34 43 24
-9.4664 95.2086 3.1544 0.118 -0.988 0.095 31 40 21
-9.3371 95.2221 3.1338 0.118 -0.988 0.095 31 39 21
-9.2106 95.2450 3.1127 0.117 -0.990 0.082 32 39 21
-9.4043 98.7876 2.7976 0.732 -0.055 0.679 38 46 25
-7.7812 98.4374 2.5890 -0.253 -0.253 0.934 36 44 21
-6.7296 98.1049 2.4641 0.876 -0.360 0.321 40 48 25
-5.6018 97.9918 2.3064 -0.270 -0.384 0.883 41 48 33
-5.2698 97.7433 2.2809 0.658 -0.736 -0.160 45 49 34
-5.0501 97.9817 2.2249 0.849 -0.526 -0.047 46 50 35
-4.9287 98.0523 2.1999 0.611 -0.789 0.066 45 49 34
-3.4326 93.1163 2.4556 0.042 -0.881 0.472 46 50 35
-3.3017 93.1055 2.4370 0.206 -0.921 0.330 47 51 33
-3.1865 93.1672 2.4138 0.218 -0.926 0.309 44 49 31
-3.0728 93.2367 2.3901 0.245 -0.952 0.184 44 49 27
-3.2439 95.9023 2.1568 0.642 -0.724 -0.253 43 48 27
-3.1409 96.0486 2.1272 0.781 -0.524 -0.339 43 48 28
-2.7585 96.8073 1.9964 0.494 -0.720 -0.487 51 56 33
-0.4982 96.1943 1.7180 -0.650 -0.312 0.693 38 43 22
-0.3244 95.9566 1.7151 -0.689 -0.292 0.664 38 43 23
0.4847 95.0603 1.6811 0.288 -0.568 0.771 37 42 23
0.6217 95.0248 1.6641 0.519 -0.634 0.573 37 41 23
1.1744 95.7090 1.5151 0.948 -0.293 0.126 37 42 20
1.2818 95.8764 1.4827 0.832 -0.357 0.426 36 41 19
1.3963 95.9993 1.4537 0.723 -0.454 0.521 36 41 19
2.0197 95.3386 1.4246 -0.582 -0.726 -0.366 32 41 22
2.4535 95.0469 1.3881 -0.603 -0.728 -0.327 34 43 24
2.6254 94.7391 1.3923 -0.490 -0.774 -0.401 34 43 24
2.7624 94.6886 1.3767 -0.499 -0.777 -0.385 34 43 24
2.8954 94.6669 1.3589 -0.508 -0.775 -0.377 33 41 25
3.0367 94.5805 1.3462 -0.508 -0.775 -0.377 33 42 26
3.1700 94.5545 1.3288 0.126 -0.989 -0.077 33 42 25
3.3210 94.3848 1.3227 0.778 -0.268 0.569 33 42 25
3.7048 94.4272 1.2612 0.495 -0.216 0.841 34 40 26
3.8350 94.4226 1.2422 0.267 -0.312 0.912 35 41 28
4.0843 94.5101 1.1964 0.169 -0.493 0.853 38 41 32
4.2093 94.5528 1.1736 0.297 -0.355 0.887 39 42 31
4.3332 94.6056 1.1500 0.416 -0.267 0.869 38 42 27
-37.8201 100.6570 6.7214 -0.736 -0.513 0.442 36 47 16
-36.7351 99.3933 6.6842 -0.388 -0.540 0.746 14 19 11
-36.6195 99.4406 6.6622 -0.539 -0.513 0.668 14 19 14
-36.0156 98.7026 6.6449 0.209 -0.307 0.928 10 15 10
-35.8941 98.7385 6.6232 0.206 -0.307 0.929 19 27 13
-35.8419 98.8865 6.6008 0.238 -0.298 0.924 53 63 38
-35.7176 98.9185 6.5790 0.238 -0.298 0.924 82 93 54
-35.7529 99.2105 6.5555 0.238 -0.272 0.932 80 92 43
-30.4524 95.0307 6.1766 -0.632 -0.593 0.499 60 68 27
-29.8494 94.6920 6.1200 -0.592 -0.709 0.383 81 90 48
-29.7180 94.6995 6.0996 -0.034 -0.990 0.133 84 92 51
-29.5063 94.5657 6.0812 0.126 -0.941 -0.314 84 92 50
-24.9295 96.5069 5.2055 -0.010 -0.380 0.925 85 94 43
-24.0315 96.6482 5.0573 0.231 -0.612 0.757 15 18 8
-11.2629 98.3709 2.9791 0.758 -0.475 0.447 36 43 13
-8.1377 99.1532 2.4349 -0.720 -0.371 0.587 43 51 28
-7.8920 98.7475 2.4382 -0.726 -0.364 0.583 42 50 27
-7.6854 98.4874 2.4331 -0.713 -0.395 0.579 42 50 29
-7.4450 98.0922 2.4362 -0.150 -0.318 0.936 41 51 27
-6.7928 97.6899 2.3785 0.839 -0.376 0.394 43 51 30
-6.7306 97.9916 2.3394 0.876 -0.360 0.321 42 50 27
-5.3967 97.5785 2.1809 0.542 -0.831 -0.127 45 50 30
-5.2870 97.6958 2.1530 0.661 -0.733 -0.164 46 51 31
-5.1804 97.8279 2.1240 0.849 -0.526 -0.060 45 50 31
-3.0940 96.3417 1.9591 0.541 -0.670 -0.508 41 46 25
-3.0017 96.5471 1.9250 0.531 -0.674 -0.513 41 46 24
-2.8938 96.6785 1.8959 0.520 -0.700 -0.490 35 41 17
-2.7999 96.8821 1.8618 0.485 -0.748 -0.452 33 39 10
-2.2134 96.6424 1.7978 -0.687 -0.668 -0.286 29 35 9
-2.0856 96.6778 1.7752 -0.675 -0.692 -0.256 28 34 9
-1.9213 96.5209 1.7662 -0.675 -0.692 -0.256 29 35 10
0.3812 94.7427 1.5979 -0.275 -0.482 0.832 38 43 18
0.6406 94.7562 1.5578 0.508 -0.468 0.723 36 42 17
2.2181 95.6425 1.2345 -0.518 -0.732 -0.443 37 46 23
3.3518 91.9442 1.4306 -0.158 -0.935 -0.316 33 42 22
3.8544 94.0710 1.1453 0.298 -0.239 0.924 35 42 25
3.9693 94.1937 1.1160 0.232 -0.280 0.932 24 28 13
4.0950 94.2250 1.0941 0.232 -0.280 0.932 24 28 13
4.2208 94.2563 1.0723 0.232 -0.280 0.932 24 29 10
7.3034 92.6832 0.7671 0.972 0.034 0.233 55 58 32
-36.5749 99.0604 6.5529 -0.394 -0.569 0.722 16 21 15
-36.4154 99.0364 6.5315 -0.550 -0.559 0.621 15 20 14
-35.8595 98.3752 6.5150 -0.227 -0.684 0.694 12 18 9
-35.7729 98.4664 6.4929 0.285 -0.347 0.893 23 32 13
-35.6709 98.5334 6.4709 0.281 -0.352 0.893 58 67 38
-35.5750 98.6103 6.4488 0.255 -0.325 0.911 86 97 53
-30.2036 94.5255 6.0575 -0.423 -0.505 0.752 61 69 32
-30.3463 95.0085 6.0303 -0.602 -0.715 0.356 63 71 31
-29.7708 94.7171 5.9736 -0.053 -0.994 0.091 75 83 45
-29.0693 93.9592 5.9451 -0.184 -0.898 -0.400 79 87 47
-30.9404 97.7570 5.8425 -0.087 -0.589 -0.804 75 83 41
-11.2697 98.2884 2.8515 0.773 -0.453 0.445 36 43 13
-10.4261 98.7273 2.6814 0.098 -0.124 0.987 51 60 39
-10.2768 98.6942 2.6624 0.098 -0.124 0.987 53 62 41
-9.8933 98.3313 2.6416 0.811 -0.474 0.343 46 56 36
-9.7985 98.4852 2.6120 0.762 -0.594 0.259 48 56 35
-9.7114 98.6680 2.5806 0.760 -0.593 0.267 48 56 35
-9.6182 98.8313 2.5503 0.763 -0.589 0.267 48 56 35
-9.5320 99.0216 2.5182 0.461 -0.638 0.616 49 57 36
-9.4266 99.1452 2.4901 0.422 -0.632 0.650 49 57 36
-7.8806 98.5892 2.3151 -0.868 -0.453 0.201 41 49 28
-6.7716 97.4890 2.2601 0.862 -0.356 0.362 41 49 28
-5.6023 93.8640 2.4501 0.215 -0.923 -0.319 40 48 25
-5.5007 93.9811 2.4232 0.231 -0.911 -0.342 36 44 20
-5.5262 97.4273 2.0804 -0.399 -0.915 0.053 33 42 11
-5.4100 97.5145 2.0542 0.593 -0.767 -0.247 35 41 10
-3.4843 93.1150 2.2092 0.079 -0.802 -0.592 34 40 13
-3.3618 96.2115 1.8794 0.576 -0.645 -0.503 45 50 26
-3.0367 96.5883 1.7930 0.537 -0.691 -0.484 53 59 31
0.4053 94.4482 1.4942 -0.224 -0.419 0.880 64 71 35
0.5376 94.4362 1.4756 0.054 -0.390 0.919 59 67 32
0.6496 94.5507 1.4474 0.513 -0.475 0.715 61 68 34
3.5786 91.9650 1.2701 0.058 -0.881 -0.469 57 69 45
4.1020 93.9739 0.9898 0.225 -0.231 0.947 87 92 68
-36.7779 99.0768 6.4411 -0.654 -0.515 0.554 12 18 9
-36.4331 98.7575 6.4224 -0.371 -0.580 0.725 12 17 12
-36.2645 98.7182 6.4012 -0.566 -0.556 0.609 14 16 11
-35.7675 98.1514 6.3850 -0.231 -0.687 0.688 11 14 5
-35.5708 98.0646 6.3645 -0.231 -0.687 0.688 24 31 11
-35.4263 98.0618 6.3433 0.114 -0.670 0.734 56 66 33
-30.1504 94.3593 5.9346 -0.447 -0.527 0.722 61 71 35
-30.2905 94.8368 5.9067 -0.547 -0.729 0.411 60 70 34
-30.1524 94.8335 5.8864 -0.540 -0.723 0.430 60 70 34
-29.9230 94.6707 5.8688 -0.534 -0.717 0.448 58 68 33
-29.8028 94.6981 5.8481 -0.027 -0.995 0.097 59 69 33
-29.1333 93.9975 5.8198 0.013 -0.807 0.591 67 77 40
-29.0238 94.0417 5.7990 0.106 -0.966 -0.238 69 79 40
-25.4718 95.5090 5.1187 0.943 -0.125 0.310 76 86 33
-25.4268 95.6902 5.0934 0.934 -0.114 0.339 77 87 34
-25.5618 96.2300 5.0583 0.904 -0.109 0.414 79 88 35
-23.9737 96.3638 4.8076 0.274 -0.463 0.843 10 13 5
-11.3920 98.1302 2.7489 0.761 0.008 0.649 67 73 40
-10.3590 98.3914 2.5680 -0.451 -0.378 0.809 51 58 41
-10.1302 98.0843 2.5653 0.221 -0.229 0.948 46 53 35
-10.0161 98.1685 2.5397 0.614 -0.512 0.601 44 52 31
-9.9143 98.2961 2.5114 0.770 -0.505 0.390 48 56 35
-9.8530 98.5665 2.4746 0.515 -0.488 0.704 49 56 37
-9.6822 98.4560 2.4604 -0.223 -0.913 0.340 49 56 38
-9.5527 98.4900 2.4376 -0.305 -0.881 0.363 47 51 34
-9.2920 98.0579 2.4429 -0.634 -0.540 0.554 41 45 28
-7.4383 97.8365 2.1889 -0.561 -0.694 -0.452 40 48 27
-7.1086 97.0874 2.2163 0.196 -0.864 -0.464 40 48 27
-6.9458 96.9830 2.2027 0.421 -0.778 -0.466 40 47 29
-6.8060 96.9683 2.1833 0.619 -0.783 0.063 46 53 35
-6.7628 97.3382 2.1390 0.862 -0.352 0.366 48 52 35
-5.5387 97.3600 1.9541 -0.346 -0.906 0.245 81 92 52
-5.4275 97.4683 1.9264 0.559 -0.789 -0.255 83 92 49
-3.1766 93.3586 2.0110 0.177 -0.798 -0.576 109 116 80
-3.0376 93.3124 1.9949 -0.151 -0.740 -0.655 108 116 80
-2.8872 93.2114 1.9828 -0.190 -0.724 -0.663 109 116 81
0.7768 94.4218 1.3121 0.700 -0.258 0.665 70 77 43
1.0085 95.4604 1.1712 0.957 -0.237 0.170 71 78 45
1.1173 95.6143 1.1392 0.944 -0.265 0.195 73 80 47
-36.6828 98.8490 6.3101 -0.637 -0.512 0.577 10 16 7
-36.3372 98.5280 6.2919 -0.374 -0.573 0.729 8 13 9
-36.0772 98.3421 6.2725 -0.484 -0.521 0.703 9 14 8
-35.6550 97.8950 6.2560 -0.169 -0.651 0.740 7 13 3
-35.4764 97.8369 6.2354 0.172 -0.568 0.805 23 30 9
-35.3502 97.8629 6.2139 0.180 -0.567 0.804 55 64 30
-30.2835 94.7499 5.7820 0.165 -0.795 -0.584 60 70 36
-29.9790 94.9313 5.7177 0.437 -0.818 -0.374 50 60 26
-29.9282 95.0814 5.6945 0.500 -0.767 -0.402 53 63 29
-31.4901 98.0705 5.6164 -0.009 -0.575 -0.818 57 67 31
-26.2179 95.2879 5.1195 0.719 -0.637 0.279 74 84 33
-26.1839 95.4862 5.0938 0.564 -0.631 0.532 80 90 39
-26.0740 95.5381 5.0720 0.541 -0.643 0.542 81 91 40
-25.5225 95.2612 5.0186 -0.171 -0.985 0.022 83 93 42
-25.5884 95.6592 4.9870 0.530 -0.722 0.445 85 95 42
-25.4837 96.2684 4.9080 0.860 -0.504 0.074 85 95 45
-24.3713 96.2494 4.7440 0.173 -0.667 0.725 29 36 17
-24.0550 96.1652 4.7056 0.493 -0.459 0.739 16 18 12
-23.9183 96.1669 4.6850 0.070 -0.646 0.760 11 14 5
-11.3110 97.7635 2.6381 0.764 0.005 0.646 102 108 70
-10.2680 97.9753 2.4605 -0.327 -0.848 0.417 27 37 22
-10.0541 97.7172 2.4555 0.493 -0.850 0.186 28 37 19
-9.9862 97.9582 2.4202 0.831 -0.500 0.243 35 42 20
-9.9119 98.1799 2.3861 0.849 -0.501 0.169 44 50 27
-9.2422 97.7718 2.3286 -0.740 -0.518 0.429 47 52 31
-9.1464 97.9222 2.2987 -0.630 -0.529 0.569 48 53 32
-7.2715 97.6082 2.0517 -0.580 -0.696 -0.423 70 80 57
-5.5502 97.2886 1.8282 -0.342 -0.911 0.228 97 109 60
-5.4263 97.3422 1.8041 0.389 -0.909 -0.150 97 110 58
-3.2238 93.4571 1.8799 0.180 -0.798 -0.575 98 108 60
0.6109 93.6908 1.2835 0.053 -0.329 0.943 84 93 45
1.2259 95.6147 0.9915 0.944 -0.263 0.200 73 81 45
1.3656 95.5653 0.9758 0.729 -0.482 0.486 73 81 45
1.4932 95.5975 0.9534 0.598 -0.486 0.638 73 82 47
2.1551 92.8213 1.1436 -0.347 -0.876 0.335 72 83 49
7.3395 94.9754 0.1460 0.963 0.039 0.268 170 177 125
-36.6106 98.6579 6.1792 -0.649 -0.525 0.551 10 15 6
-36.2737 98.3507 6.1614 -0.366 -0.576 0.731 7 12 7
-35.9095 97.9981 6.1445 -0.509 -0.496 0.703 8 13 7
-35.5026 97.5749 6.1286 0.009 -0.378 0.926 7 14 3
-35.3318 97.5287 6.1080 0.009 -0.378 0.926 24 32 11
-35.2532 97.6308 6.0855 0.174 -0.385 0.906 56 65 31
-26.4836 94.4219 5.1175 0.599 -0.651 -0.466 70 80 30
-26.5231 94.7533 5.0883 0.507 -0.760 -0.406 69 79 29
-26.4244 95.0829 5.0387 0.716 -0.639 0.283 71 81 31
-26.3499 95.2012 5.0151 0.709 -0.624 0.327 75 85 35
-26.3045 95.3764 4.9898 0.725 -0.689 0.016 78 88 40
-26.2297 95.4959 4.9660 0.717 -0.697 0.008 78 87 41
-25.5651 95.2658 4.8913 -0.171 -0.985 0.022 83 92 47
-25.5709 95.5452 4.8625 0.546 -0.701 0.458 84 93 48
-25.6931 96.0566 4.8267 0.862 -0.179 0.475 80 89 44
-25.6744 96.2925 4.7989 0.868 -0.162 0.470 77 86 40
-25.5382 96.2963 4.7782 0.856 -0.517 0.003 74 82 41
-25.2159 96.4812 4.7106 -0.524 -0.695 -0.493 63 72 43
-25.0712 96.4685 4.6904 -0.606 -0.747 0.274 61 70 43
-24.1668 96.0306 4.6018 0.036 -0.683 0.729 13 16 10
-24.0299 96.0317 4.5813 0.078 -0.655 0.752 16 18 12
-23.8904 96.0273 4.5610 0.080 -0.648 0.757 11 14 3
-23.7499 96.0209 4.5407 0.080 -0.648 0.757 64 69 49
-11.2412 97.8827 2.4787 0.796 -0.090 0.599 142 151 109
-10.6291 98.1515 2.3590 -0.473 -0.439 0.764 56 78 63
-10.2629 97.8513 2.3362 -0.297 -0.844 0.446 71 95 79
-10.0780 97.6923 2.3254 0.479 -0.854 0.206 76 96 75
-9.9855 97.8484 2.2951 0.832 -0.496 0.249 80 96 71
-9.1170 97.7079 2.1805 -0.661 -0.473 0.582 69 78 49
-6.8674 96.9817 1.9219 0.582 -0.813 0.015 68 81 56
-5.7302 94.0458 2.0630 0.213 -0.912 -0.350 69 81 54
-5.6156 94.1119 2.0389 -0.194 -0.948 0.253 71 82 55
-5.5930 94.5551 1.9887 0.275 -0.869 -0.412 79 89 57
-5.5236 97.0556 1.7138 0.493 -0.857 -0.149 91 103 51
-3.7184 93.8183 1.7872 -0.064 -0.784 -0.617 100 111 52
-3.5149 93.4844 1.7921 0.067 -0.796 -0.602 100 111 53
-3.4349 93.7121 1.7561 -0.064 -0.949 -0.309 99 110 53
2.8993 94.7748 0.6993 -0.769 -0.500 0.399 69 79 44
3.0503 94.6163 0.6935 -0.763 -0.519 0.386 69 80 45
29.2249 71.1511 -0.7261 -0.659 -0.715 -0.232 143 152 99
-36.5909 98.5503 6.0476 -0.638 -0.523 0.566 11 16 7
-36.1604 98.0943 6.0325 -0.357 -0.577 0.735 10 15 10
-35.6109 97.4457 6.0204 -0.328 -0.392 0.859 10 15 9
-35.4470 97.4104 5.9998 -0.225 -0.391 0.892 10 17 7
-35.2293 97.2886 5.9804 -0.203 -0.386 0.900 31 39 18
-33.7916 95.6475 5.9427 -0.642 -0.474 0.603 86 96 44
-29.3598 97.6479 5.0671 -0.021 -0.492 0.870 72 79 37
-29.1957 97.6057 5.0472 -0.021 -0.492 0.870 78 85 43
-29.0307 97.5614 5.0274 -0.022 -0.516 0.856 78 85 43
-28.8552 97.4972 5.0082 -0.018 -0.524 0.852 78 85 43
-27.4827 95.2008 5.0506 -0.328 -0.922 -0.208 78 85 43
-27.1782 94.8868 5.0390 -0.373 -0.919 -0.126 73 82 33
-27.0065 94.8197 5.0207 -0.373 -0.919 -0.126 70 80 29
-26.5448 94.4605 4.9905 0.598 -0.654 -0.464 70 80 29
-26.3813 94.9225 4.9164 0.558 -0.680 -0.475 74 84 33
-26.3140 95.0541 4.8923 0.516 -0.688 -0.510 78 88 38
-25.9087 95.5912 4.7741 -0.307 -0.613 -0.728 75 82 45
-25.6172 95.5569 4.7344 0.563 -0.679 0.471 70 78 40
-23.9880 95.8639 4.4586 0.152 -0.780 0.607 16 19 13
-23.8672 95.8977 4.4369 0.020 -0.723 0.691 9 13 2
-23.7227 95.8826 4.4170 0.020 -0.723 0.691 63 68 47
-23.5917 95.8954 4.3961 0.026 -0.727 0.687 93 99 70
-11.2449 97.3433 2.4005 0.876 -0.156 0.457 115 123 72
-11.1867 97.6017 2.3641 0.796 -0.090 0.599 159 168 119
-11.1347 97.8829 2.3261 0.809 -0.125 0.575 152 164 123
-10.2756 97.7882 2.2082 -0.297 -0.844 0.446 77 115 97
-10.1597 97.8644 2.1828 0.501 -0.865 -0.028 81 114 91
-10.0253 97.8779 2.1613 0.829 -0.514 0.221 81 111 79
-9.4828 97.9162 2.0763 -0.620 -0.598 0.508 78 96 59
-9.1075 97.5653 2.0582 -0.651 -0.480 0.588 70 82 47
-7.8725 93.6317 2.2972 0.750 -0.586 0.306 66 78 43
-6.1480 93.5216 2.0521 0.701 -0.655 0.281 67 83 54
-6.0664 93.7126 2.0194 0.707 -0.644 0.292 70 86 57
-4.4519 92.3959 1.9204 0.076 -0.766 -0.638 93 107 54
-36.4382 98.2321 5.9195 -0.599 -0.516 0.612 10 16 5
