ply
format ascii 1.0
element vertex 885
property float x
property float y
property float z
property float nx
property float ny
property float nz
property uchar diffuse_red
property uchar diffuse_green
property uchar diffuse_blue
end_header
40.5708 55.1805 -63.8461 0.550 -0.827 0.116 42 10 16
58.6600 45.7522 -75.0025 -0.308 -0.838 -0.451 46 48 41
58.9317 45.8914 -75.4004 -0.235 -0.864 -0.446 37 44 24
54.1123 33.3376 -60.0673 -0.376 -0.640 0.670 108 118 69
54.2131 33.2791 -60.1245 -0.432 -0.576 0.694 95 100 67
54.3088 33.2140 -60.1711 -0.414 -0.553 0.723 35 39 23
57.6114 37.2553 -66.9360 -0.104 -0.885 0.453 18 20 18
57.7310 37.2004 -67.0159 -0.104 -0.885 0.453 13 14 18
57.8337 37.1239 -67.0603 -0.090 -0.781 0.618 8 12 14
57.9781 37.1003 -67.1918 -0.134 -0.895 0.426 10 14 15
58.1425 37.1012 -67.3642 -0.208 -0.564 0.799 11 15 15
58.2122 36.9830 -67.3400 -0.209 -0.734 0.646 12 17 12
58.3321 36.9280 -67.4202 -0.173 -0.757 0.630 7 13 5
58.4399 36.8577 -67.4751 -0.173 -0.757 0.630 17 24 7
55.3875 32.8971 -61.0376 -0.245 -0.896 0.370 43 52 23
55.4921 32.8420 -61.1017 -0.245 -0.896 0.370 83 94 53
55.5689 32.7528 -61.1087 -0.297 -0.575 0.762 97 109 59
55.6441 32.6619 -61.1127 -0.274 -0.628 0.728 104 115 55
55.7378 32.5938 -61.1547 -0.283 -0.604 0.745 105 117 56
57.1019 31.5318 -61.7080 0.258 -0.868 0.423 9 13 14
57.2369 31.5109 -61.8318 0.200 -0.835 0.513 18 19 21
57.3650 31.4821 -61.9419 -0.015 -0.822 0.569 29 31 28
57.4732 31.4309 -62.0129 -0.015 -0.822 0.569 39 41 37
57.5794 31.3773 -62.0798 -0.017 -0.815 0.580 42 47 41
57.7168 31.3579 -62.2074 -0.245 -0.820 0.517 28 34 27
57.8210 31.3019 -62.2704 -0.253 -0.803 0.539 15 21 15
57.9137 31.2332 -62.3108 -0.216 -0.768 0.603 7 16 10
79.4769 54.3891 -103.8293 -0.007 -0.879 0.477 9 15 14
81.5102 53.5179 -105.2381 -0.435 -0.056 0.899 112 126 67
62.6925 34.0024 -69.5737 0.075 -0.752 0.655 113 127 70
62.7850 33.9176 -69.6006 0.059 -0.730 0.681 117 131 75
62.9042 33.8600 -69.6779 0.048 -0.735 0.676 99 111 64
63.0250 33.8039 -69.7581 0.046 -0.732 0.680 59 69 32
63.1460 33.7479 -69.8384 0.040 -0.738 0.674 26 34 12
63.2484 33.6732 -69.8841 0.032 -0.729 0.684 16 22 11
63.5038 33.5741 -70.0695 0.006 -0.710 0.704 11 16 12
63.6144 33.5075 -70.1304 0.012 -0.732 0.681 9 14 8
63.7342 33.4498 -70.2082 -0.000 -0.730 0.683 13 18 8
67.7943 37.2406 -77.5587 0.183 -0.729 0.660 45 53 32
67.9344 37.1848 -77.6592 0.183 -0.729 0.660 60 69 38
68.0745 37.1290 -77.7598 0.183 -0.729 0.660 56 66 32
68.1509 37.0116 -77.7432 -0.025 -0.490 0.871 31 41 7
68.4965 36.5837 -77.7530 0.157 -0.889 0.430 19 29 4
68.6220 36.5142 -77.8271 0.411 -0.676 0.612 34 42 18
68.7874 36.4822 -77.9736 0.411 -0.676 0.612 54 62 39
68.9533 36.4501 -78.1205 0.411 -0.676 0.612 45 54 30
69.5358 36.2440 -78.5598 -0.059 -0.580 0.813 14 19 13
74.0886 40.2123 -86.5704 0.173 -0.663 0.729 10 16 7
74.2360 40.1435 -86.6679 0.173 -0.663 0.729 44 54 31
74.3813 40.0728 -86.7617 0.035 -0.494 0.869 85 97 59
74.5392 40.0132 -86.8777 0.051 -0.571 0.819 103 114 64
74.6480 39.9094 -86.9061 -0.056 -0.376 0.925 115 128 72
74.7646 39.8128 -86.9486 0.103 -0.423 0.900 117 131 69
74.8889 39.7232 -87.0050 0.103 -0.423 0.900 114 128 67
5.3317 69.4149 -38.9502 0.659 -0.744 -0.111 65 77 37
5.7932 70.1254 -40.0187 0.773 -0.633 -0.042 64 75 40
5.7350 70.7241 -40.4513 0.716 -0.692 -0.094 69 81 44
16.2583 68.4091 -49.5577 -0.914 -0.400 0.072 71 78 37
16.5653 67.6579 -49.2599 -0.919 -0.328 0.221 70 76 43
16.8658 66.9330 -48.9770 -0.829 -0.526 0.188 23 27 5
26.4720 78.9305 -68.9190 -0.764 -0.637 0.103 52 55 34
26.9237 78.8757 -69.3466 -0.706 -0.700 -0.107 42 47 25
27.4013 79.5850 -70.4310 -0.962 -0.137 0.235 30 32 19
30.3360 58.5050 -56.1298 -0.215 0.298 0.930 54 20 19
30.8137 62.4801 -59.9059 0.136 -0.828 0.545 62 20 21
33.3516 58.2809 -59.1015 -0.183 -0.946 -0.267 56 16 24
33.4719 58.2086 -59.1678 -0.228 -0.932 -0.280 55 16 21
33.5859 58.0917 -59.1908 -0.223 -0.953 -0.207 55 15 20
33.8901 57.4873 -59.0111 -0.264 -0.869 0.419 57 15 19
34.0134 57.4414 -59.1023 -0.277 -0.883 0.380 56 15 19
34.2255 57.9867 -59.7737 -0.748 -0.648 0.146 58 17 22
34.8985 60.6417 -62.6661 -0.462 -0.858 -0.225 57 17 22
58.7084 45.9170 -75.4518 -0.267 -0.861 -0.432 33 36 29
59.0070 46.0954 -75.9113 -0.259 -0.864 -0.432 46 54 31
54.0332 33.2929 -60.1544 -0.376 -0.640 0.670 109 117 76
54.1338 33.2341 -60.2112 -0.432 -0.576 0.694 71 77 50
54.2276 33.1666 -60.2539 -0.414 -0.553 0.723 31 34 25
54.3200 33.0972 -60.2933 -0.430 -0.543 0.721 12 13 16
57.6475 37.1562 -67.1213 -0.104 -0.885 0.453 10 13 17
57.7672 37.1013 -67.2013 -0.104 -0.885 0.453 8 12 12
57.9417 37.1156 -67.3957 -0.104 -0.611 0.785 9 14 11
58.0425 37.0364 -67.4359 -0.208 -0.564 0.799 11 16 14
58.1200 36.9281 -67.4279 -0.192 -0.747 0.636 10 15 10
58.2354 36.8674 -67.4986 -0.149 -0.756 0.637 16 22 9
58.3436 36.7978 -67.5545 -0.134 -0.757 0.640 40 49 20
55.3109 32.8559 -61.1316 -0.243 -0.889 0.388 71 82 40
55.4050 32.7879 -61.1741 -0.278 -0.640 0.716 99 111 60
55.4825 32.6997 -61.1825 -0.297 -0.575 0.762 101 115 58
55.5649 32.6176 -61.2011 -0.283 -0.604 0.745 102 114 51
55.6521 32.5416 -61.2297 -0.283 -0.604 0.745 102 113 54
76.5812 57.2389 -103.4893 -0.590 -0.630 0.505 64 69 37
76.7138 57.0971 -103.5112 -0.590 -0.630 0.505 19 22 7
76.8462 56.9556 -103.5331 -0.590 -0.630 0.505 15 17 12
56.9433 31.5709 -61.7812 -0.098 -0.892 0.442 9 15 11
57.0916 31.5651 -61.9316 -0.153 -0.885 0.440 9 11 9
57.1985 31.5125 -62.0002 -0.153 -0.885 0.440 13 15 13
57.3002 31.4540 -62.0584 -0.114 -0.860 0.498 12 13 14
57.3878 31.3798 -62.0889 -0.015 -0.822 0.569 13 14 18
57.4960 31.3286 -62.1600 -0.015 -0.822 0.569 16 18 23
57.6143 31.2883 -62.2506 -0.128 -0.795 0.593 14 18 23
57.7378 31.2536 -62.3512 -0.257 -0.801 0.541 8 16 17
79.2221 54.4604 -103.9635 0.002 -0.869 0.495 7 16 14
79.3753 54.3480 -104.0313 -0.006 -0.871 0.492 6 15 14
62.6911 33.8626 -69.6858 0.040 -0.738 0.674 108 120 74
62.8078 33.8025 -69.7584 0.040 -0.738 0.674 70 80 46
62.9246 33.7424 -69.8312 0.040 -0.738 0.674 39 46 26
63.0414 33.6823 -69.9039 0.040 -0.738 0.674 17 23 10
63.1534 33.6174 -69.9676 0.046 -0.732 0.680 11 15 11
63.5105 33.4431 -70.1977 0.012 -0.732 0.681 10 15 7
63.6293 33.3845 -70.2739 0.046 -0.809 0.586 15 22 6
67.6694 37.1595 -77.6135 0.183 -0.729 0.660 68 77 47
67.8093 37.1038 -77.7140 0.183 -0.729 0.660 97 108 65
67.9493 37.0480 -77.8145 0.183 -0.729 0.660 101 110 62
68.0234 36.9285 -77.7936 -0.025 -0.490 0.871 82 94 44
68.2052 36.7228 -77.8144 -0.063 -0.487 0.871 28 39 8
68.5390 36.4738 -77.9585 0.246 -0.860 0.446 16 25 7
68.7065 36.4436 -78.1090 0.246 -0.860 0.446 20 28 16
68.8886 36.4268 -78.2857 0.225 -0.867 0.446 21 29 19
69.2664 36.2178 -78.5089 -0.030 -0.489 0.872 15 17 10
73.8640 40.2492 -86.6434 0.205 -0.634 0.745 11 14 5
73.9444 40.1194 -86.6207 0.173 -0.663 0.729 28 35 19
74.0917 40.0506 -86.7181 0.173 -0.663 0.729 71 82 50
74.2355 39.9786 -86.8092 0.035 -0.494 0.869 98 113 64
74.3897 39.9160 -86.9190 -0.056 -0.376 0.925 111 123 65
74.5017 39.8152 -86.9532 -0.056 -0.376 0.925 119 130 70
74.7331 39.6209 -87.0352 0.103 -0.423 0.900 116 130 70
5.7188 70.0400 -40.1024 0.773 -0.633 -0.042 67 81 46
5.7791 70.5387 -40.5784 0.711 -0.695 -0.108 65 79 44
16.7669 66.9664 -49.1470 -0.829 -0.497 0.255 25 29 5
16.8933 66.8118 -49.1515 -0.829 -0.502 0.246 49 53 30
26.2169 79.4165 -69.3659 -0.775 -0.625 0.090 56 60 37
26.3647 79.2328 -69.3689 -0.775 -0.625 0.090 52 55 34
26.5150 79.1869 -69.4886 -0.772 -0.628 0.100 49 52 31
26.8116 78.9037 -69.5653 -0.720 -0.689 -0.084 42 47 26
27.2914 79.7166 -70.7414 -0.933 -0.293 0.207 31 33 20
30.7182 62.4277 -60.0238 0.132 -0.839 0.527 59 21 20
53.3556 34.1943 -60.3970 -0.807 -0.313 0.500 17 22 15
53.8587 33.3136 -60.1956 -0.381 -0.631 0.676 97 104 67
53.9542 33.2481 -60.2416 -0.376 -0.640 0.670 101 107 77
54.0545 33.1891 -60.2979 -0.432 -0.576 0.694 51 55 39
54.1814 33.1643 -60.4106 -0.636 -0.670 0.383 23 24 23
57.5693 37.1187 -67.2378 -0.228 -0.863 0.451 10 13 20
57.6837 37.0571 -67.3068 -0.104 -0.885 0.453 8 12 14
57.8346 37.0416 -67.4523 -0.163 -0.748 0.644 9 13 8
57.9426 36.9716 -67.5076 -0.208 -0.564 0.799 10 15 10
58.0291 36.8747 -67.5181 -0.192 -0.747 0.636 12 17 10
58.1430 36.8122 -67.5858 -0.149 -0.756 0.637 33 40 21
58.2505 36.7417 -67.6403 -0.134 -0.757 0.640 67 77 41
58.3598 36.6734 -67.6983 -0.134 -0.757 0.640 92 105 55
55.3222 32.7392 -61.2553 -0.302 -0.558 0.773 99 112 57
55.3962 32.6466 -61.2562 -0.297 -0.575 0.762 106 117 59
55.4859 32.5735 -61.2898 -0.297 -0.601 0.742 103 114 53
55.5664 32.4894 -61.3046 -0.283 -0.604 0.745 107 116 61
76.3228 57.3146 -103.6279 -0.585 -0.645 0.492 98 105 63
76.4703 57.1903 -103.6797 -0.590 -0.630 0.505 49 54 26
55.8616 32.3023 -61.4594 -0.042 -0.884 0.466 16 18 3
55.9732 32.2557 -61.5379 -0.042 -0.884 0.466 11 14 7
56.5473 31.6872 -61.6694 -0.110 -0.900 0.422 7 11 13
56.6321 31.6100 -61.6945 -0.208 -0.894 0.397 8 12 10
56.7311 31.5491 -61.7480 -0.199 -0.887 0.417 11 18 10
56.8361 31.4949 -61.8132 -0.199 -0.887 0.417 13 20 11
56.9842 31.4892 -61.9638 -0.097 -0.840 0.533 14 16 10
57.1049 31.4522 -62.0598 -0.033 -0.863 0.505 10 12 7
57.1965 31.3825 -62.0982 0.038 -0.826 0.562 9 11 11
57.2960 31.3218 -62.1523 0.060 -0.808 0.587 11 12 17
57.3772 31.2408 -62.1705 0.108 -0.743 0.661 13 15 23
57.4847 31.1889 -62.2403 0.100 -0.724 0.682 9 13 22
57.6052 31.1511 -62.3353 -0.019 -0.807 0.590 5 12 20
81.5125 52.8368 -105.3648 -0.275 -0.275 0.921 38 46 24
81.5746 52.6333 -105.2615 -0.435 -0.056 0.899 23 28 20
81.7537 52.5482 -105.3789 -0.275 -0.275 0.921 11 18 12
63.0615 33.5646 -70.0567 0.068 -0.733 0.677 10 16 15
63.1810 33.5070 -70.1344 0.006 -0.710 0.704 10 16 16
63.2940 33.4430 -70.2000 0.006 -0.710 0.704 15 19 16
63.3979 33.3699 -70.2484 0.076 -0.836 0.544 8 14 4
63.5239 33.3187 -70.3382 0.071 -0.856 0.512 24 31 10
63.6538 33.2710 -70.4350 0.040 -0.815 0.578 85 96 58
63.7588 33.1989 -70.4853 -0.035 -0.594 0.803 110 123 71
67.8242 36.9671 -77.8692 0.183 -0.729 0.660 112 122 70
67.8960 36.8455 -77.8439 -0.025 -0.490 0.871 108 119 66
68.0196 36.7741 -77.9144 -0.027 -0.483 0.875 93 105 56
68.1220 36.6823 -77.9459 -0.038 -0.487 0.872 74 86 46
68.0166 36.3929 -77.5957 -0.092 -0.976 0.198 38 52 19
68.7904 36.3722 -78.3902 0.181 -0.880 0.440 12 18 16
69.0500 36.2401 -78.5531 -0.226 -0.759 0.610 12 17 14
69.1536 36.1497 -78.5870 -0.238 -0.740 0.629 12 15 8
73.7154 40.1520 -86.6853 0.205 -0.634 0.745 12 15 4
73.8025 40.0284 -86.6743 0.274 -0.739 0.615 53 61 40
73.9605 39.9696 -86.7914 0.213 -0.636 0.741 91 103 65
74.1366 39.9270 -86.9409 0.224 -0.633 0.741 105 121 66
74.2824 39.8568 -87.0357 -0.005 -0.388 0.922 113 126 65
74.3679 39.7322 -87.0222 -0.060 -0.356 0.932 118 130 67
74.4784 39.6305 -87.0539 -0.060 -0.356 0.932 118 130 66
74.5733 39.5151 -87.0579 0.069 -0.420 0.905 120 134 74
74.7327 39.4570 -87.1770 0.205 -0.645 0.736 106 118 69
5.3825 69.1918 -39.2762 0.800 -0.557 0.223 66 78 40
5.6426 69.9617 -40.1898 0.736 -0.668 -0.112 68 81 54
5.6672 70.5973 -40.7442 0.687 -0.717 -0.117 66 80 48
16.6664 67.0126 -49.3264 -0.834 -0.479 0.273 41 45 20
16.7994 66.8014 -49.2905 -0.834 -0.479 0.273 31 34 13
16.9310 66.5984 -49.2601 -0.836 -0.477 0.270 69 75 48
25.0560 80.1687 -69.0855 0.539 -0.740 0.402 51 52 36
25.3578 80.3199 -69.5284 0.469 -0.778 0.418 53 55 33
25.5089 80.3148 -69.6831 0.465 -0.776 0.426 52 56 31
25.6603 80.2973 -69.8276 0.348 -0.533 0.771 55 59 34
25.8090 80.0327 -69.7639 -0.429 -0.441 0.788 58 62 37
25.9589 79.9027 -69.8134 -0.129 -0.612 0.780 58 62 39
26.5558 79.3120 -69.9497 -0.259 -0.944 -0.204 46 49 30
26.7043 79.1539 -69.9744 -0.715 -0.685 -0.140 43 46 30
27.1787 79.7686 -70.9842 -0.936 -0.314 0.162 33 35 22
30.2602 62.7471 -60.0698 -0.314 -0.732 0.604 29 10 13
30.6206 62.3518 -60.1200 0.132 -0.839 0.527 50 21 20
53.2385 34.2964 -60.5682 -0.104 -0.662 0.742 40 46 32
53.6938 33.3470 -60.2575 -0.381 -0.631 0.676 43 48 30
53.7890 33.2811 -60.3028 -0.376 -0.640 0.670 68 72 55
53.8751 33.2034 -60.3287 -0.376 -0.640 0.670 72 76 61
57.4741 37.0596 -67.3186 -0.204 -0.884 0.422 9 13 20
57.5936 37.0045 -67.3983 -0.103 -0.894 0.436 6 11 19
57.7150 36.9518 -67.4822 -0.119 -0.902 0.415 8 14 11
57.8401 36.9035 -67.5736 -0.145 -0.748 0.647 11 19 7
57.9395 36.8228 -67.6110 -0.175 -0.751 0.637 29 37 15
58.0493 36.7552 -67.6702 -0.156 -0.760 0.631 64 74 40
58.1572 36.6853 -67.7255 -0.137 -0.766 0.628 90 101 58
55.1557 32.7711 -61.3154 -0.299 -0.618 0.727 98 110 60
55.2328 32.6822 -61.3225 -0.299 -0.577 0.760 99 112 59
55.3187 32.6043 -61.3480 -0.299 -0.577 0.760 103 115 62
55.4007 32.5218 -61.3656 -0.297 -0.601 0.742 101 111 58
55.4808 32.4372 -61.3795 -0.283 -0.604 0.745 103 110 70
76.2025 57.2549 -103.7996 -0.451 -0.537 0.713 89 95 67
55.6701 32.3036 -61.4675 -0.046 -0.891 0.452 36 40 22
55.7821 32.2576 -61.5469 -0.046 -0.891 0.452 16 19 11
76.6247 56.8584 -103.9137 -0.541 -0.647 0.538 13 15 14
76.6244 56.5599 -103.6652 -0.580 -0.634 0.511 9 11 11
56.4740 31.6497 -61.7688 -0.110 -0.900 0.422 9 13 13
56.5838 31.6010 -61.8438 -0.110 -0.900 0.422 6 13 4
56.6610 31.5151 -61.8535 -0.199 -0.887 0.417 17 25 9
56.7660 31.4609 -61.9188 -0.199 -0.887 0.417 22 32 10
56.9279 31.4708 -62.0972 -0.100 -0.717 0.690 21 25 7
57.0312 31.4143 -62.1589 -0.048 -0.636 0.770 17 21 11
57.1274 31.3497 -62.2062 -0.048 -0.636 0.770 10 12 9
57.2106 31.2708 -62.2280 0.087 -0.807 0.585 13 14 16
57.2602 31.1549 -62.1839 0.116 -0.761 0.638 10 13 16
57.3003 31.0289 -62.1212 -0.121 -0.786 0.606 8 12 21
82.0675 52.6570 -106.1420 -0.186 -0.964 0.191 11 15 15
63.0763 33.4416 -70.1995 0.006 -0.710 0.704 9 13 12
63.2980 33.3093 -70.3225 0.071 -0.856 0.512 3 11 2
63.4279 33.2620 -70.4197 0.071 -0.856 0.512 38 46 19
63.5674 33.2238 -70.5346 0.090 -0.865 0.493 96 107 61
63.6653 33.1449 -70.5719 -0.077 -0.626 0.776 112 126 68
63.7828 33.0850 -70.6457 -0.062 -0.560 0.826 112 126 66
63.9045 33.0291 -70.7272 -0.033 -0.578 0.815 113 126 70
64.2169 32.9831 -71.0173 0.377 -0.420 0.825 99 113 61
67.9763 36.3931 -77.8049 -0.045 -0.975 0.219 85 98 50
68.6315 36.2606 -78.3834 0.128 -0.920 0.371 10 19 14
68.8089 36.2393 -78.5522 -0.338 -0.529 0.778 12 18 15
68.9517 36.1854 -78.6575 -0.226 -0.759 0.610 14 19 15
69.0555 36.0952 -78.6916 -0.240 -0.743 0.625 9 14 9
73.5671 40.0550 -86.7270 0.205 -0.634 0.745 10 16 6
73.6850 39.9597 -86.7717 0.226 -0.640 0.734 59 66 45
73.9290 39.9793 -87.0446 0.398 -0.852 0.340 96 108 71
74.0059 39.8466 -87.0151 0.286 -0.604 0.744 104 119 70
74.1106 39.7394 -87.0360 -0.060 -0.356 0.932 111 124 68
74.2213 39.6377 -87.0678 -0.060 -0.356 0.932 114 128 66
74.3318 39.5361 -87.0995 -0.060 -0.356 0.932 114 129 62
74.4422 39.4346 -87.1311 -0.060 -0.356 0.932 121 132 72
74.5734 39.3517 -87.2001 0.196 -0.640 0.743 98 107 63
5.3342 69.3603 -39.5955 0.714 -0.686 -0.141 64 75 42
5.6145 70.4230 -40.7784 0.701 -0.706 -0.106 68 81 49
24.7916 79.9001 -68.8980 0.533 -0.738 0.415 52 53 34
24.9412 80.0384 -69.1712 0.539 -0.740 0.402 52 53 35
25.0913 80.0572 -69.3450 0.538 -0.737 0.409 54 56 34
25.2417 80.0786 -69.5214 0.537 -0.710 0.455 56 59 32
25.6932 79.9111 -69.8571 -0.251 -0.490 0.835 66 70 43
25.8432 79.7944 -69.9176 -0.129 -0.612 0.780 62 66 41
26.4426 79.3326 -70.1634 -0.181 -0.918 -0.354 45 48 29
26.6026 79.7102 -70.6473 -0.239 -0.917 -0.318 44 46 32
26.7576 79.7930 -70.8798 -0.248 -0.915 -0.317 43 46 29
27.0705 79.9977 -71.3804 -0.932 -0.294 0.213 35 37 24
30.2850 62.5643 -60.2062 -0.279 -0.728 0.627 34 14 16
30.4031 62.4067 -60.1990 -0.241 -0.748 0.619 40 18 18
30.5231 62.2755 -60.2158 -0.278 -0.731 0.623 49 23 23
54.0700 39.6959 -66.1645 -0.374 -0.411 0.831 4 6 3
54.1592 39.5951 -66.1742 -0.374 -0.411 0.831 6 8 4
55.3121 38.9798 -66.8750 -0.322 -0.937 -0.136 14 17 7
53.1012 34.1721 -60.5301 -0.063 -0.582 0.811 76 85 57
53.1785 34.0796 -60.5342 -0.354 -0.701 0.619 75 85 52
53.4529 33.0884 -59.9955 0.316 -0.926 0.207 17 20 10
53.6004 33.0923 -60.1542 0.311 -0.929 0.201 26 29 20
53.7961 33.1587 -60.4158 -0.376 -0.640 0.670 33 36 28
57.3895 37.0140 -67.4217 -0.194 -0.890 0.413 6 10 14
57.4983 36.9453 -67.4789 -0.086 -0.933 0.350 7 12 16
57.7403 36.8388 -67.6450 -0.081 -0.748 0.659 25 32 13
57.8431 36.7624 -67.6895 -0.115 -0.746 0.656 60 69 37
57.9524 36.6943 -67.7478 -0.115 -0.746 0.656 85 96 55
58.0617 36.6262 -67.8060 -0.115 -0.746 0.656 98 107 62
55.0691 32.7177 -61.3887 -0.296 -0.618 0.729 101 110 64
55.1411 32.6224 -61.3849 -0.276 -0.618 0.737 101 113 65
55.2292 32.5472 -61.4149 -0.276 -0.618 0.737 102 114 65
55.3034 32.4553 -61.4163 -0.270 -0.614 0.741 102 111 64
76.0680 57.1782 -103.9423 -0.451 -0.537 0.713 68 73 53
76.2013 57.0367 -103.9646 -0.451 -0.537 0.713 21 25 13
76.3732 56.9419 -104.0665 -0.541 -0.647 0.538 14 17 12
56.4035 31.6154 -61.8738 -0.150 -0.855 0.496 6 11 5
56.5105 31.5635 -61.9432 -0.110 -0.900 0.422 20 29 13
56.6119 31.5051 -62.0012 -0.150 -0.855 0.496 43 53 28
56.7162 31.4499 -62.0650 -0.150 -0.855 0.496 62 73 41
56.8418 31.4188 -62.1714 -0.095 -0.763 0.640 61 68 39
56.9416 31.3584 -62.2260 -0.121 -0.713 0.691 37 41 25
57.0384 31.2946 -62.2748 -0.121 -0.713 0.691 15 18 11
57.1199 31.2138 -62.2931 0.087 -0.807 0.585 13 15 12
81.9309 52.5790 -106.2777 -0.247 -0.944 0.221 12 17 14
62.9701 33.3745 -70.2613 -0.017 -0.749 0.662 9 14 11
63.0748 33.3024 -70.3114 0.048 -0.832 0.552 9 15 14
63.2021 33.2527 -70.4039 0.071 -0.856 0.512 8 15 4
63.3386 33.2119 -70.5138 0.090 -0.865 0.493 59 68 37
63.4714 33.1672 -70.6163 0.090 -0.865 0.493 99 112 61
63.5603 33.0795 -70.6368 -0.082 -0.629 0.773 108 122 61
63.6903 33.0319 -70.7339 -0.033 -0.578 0.815 114 128 67
63.7971 32.9617 -70.7878 0.284 -0.474 0.833 114 128 68
63.9326 32.9191 -70.8951 0.303 -0.406 0.862 114 128 68
64.0690 32.8772 -71.0037 0.377 -0.420 0.825 116 131 71
68.3976 36.2660 -78.3945 -0.014 -0.923 0.385 8 15 10
68.5175 36.1912 -78.4584 0.019 -0.927 0.375 7 16 11
68.7173 36.1908 -78.6685 -0.029 -0.943 0.333 10 16 12
68.8475 36.1252 -78.7509 0.045 -0.939 0.340 13 19 15
68.9556 36.0391 -78.7929 -0.132 -0.798 0.589 15 20 15
73.4191 39.9581 -86.7687 0.205 -0.634 0.745 14 19 10
73.5507 39.8756 -86.8385 0.218 -0.639 0.737 37 44 26
73.7898 39.8910 -87.1032 0.398 -0.852 0.340 73 83 54
73.8480 39.7414 -87.0397 0.286 -0.604 0.744 98 110 73
73.9318 39.6155 -87.0227 0.089 -0.347 0.934 108 120 73
74.0626 39.5323 -87.0910 -0.041 -0.376 0.926 110 123 67
74.1729 39.4307 -87.1224 0.005 -0.393 0.920 115 129 68
74.3022 39.3463 -87.1881 0.086 -0.439 0.894 114 127 71
74.4360 39.2658 -87.2619 0.205 -0.645 0.736 79 89 49
5.2852 69.1846 -39.6269 0.710 -0.688 -0.149 63 74 40
16.4407 67.3110 -49.8338 -0.923 -0.290 0.252 66 71 43
16.6006 66.8733 -49.6355 -0.772 -0.607 0.192 27 31 12
16.7275 66.7177 -49.6389 -0.783 -0.588 0.203 38 43 21
24.5283 79.8439 -68.8878 0.540 -0.747 0.387 50 54 31
24.6773 79.8622 -69.0604 0.540 -0.747 0.387 53 57 33
24.8266 79.8625 -69.2184 0.541 -0.719 0.437 55 58 35
24.9763 79.8735 -69.3856 0.541 -0.719 0.437 55 60 32
25.1265 79.9407 -69.6006 0.537 -0.710 0.455 61 66 34
25.5777 79.7990 -69.9581 -0.129 -0.612 0.780 68 73 43
25.7277 79.6861 -70.0218 -0.129 -0.612 0.780 65 69 44
26.0262 79.3701 -70.0718 -0.649 -0.340 0.681 51 54 33
26.3386 79.8865 -70.8349 -0.161 -0.915 -0.369 44 47 28
26.4936 79.9830 -71.0795 -0.155 -0.914 -0.375 43 44 30
26.8085 80.3004 -71.6783 -0.819 -0.570 0.067 39 40 26
26.9587 80.1176 -71.6835 -0.886 -0.432 0.168 34 34 22
30.1889 62.5050 -60.3180 -0.279 -0.728 0.627 32 13 15
30.3048 62.3203 -60.2854 -0.015 -0.268 0.963 37 19 19
30.4188 62.1167 -60.2350 0.137 -0.330 0.934 44 22 23
30.5443 62.0539 -60.3148 0.650 -0.438 0.621 52 23 23
54.2890 41.3319 -68.0011 -0.681 -0.256 0.686 14 18 5
54.5703 41.2737 -68.2494 0.360 -0.672 0.647 35 38 28
53.9117 39.5387 -66.0984 -0.147 -0.933 0.329 10 12 7
54.0341 39.4887 -66.1856 -0.147 -0.933 0.329 7 9 3
54.1554 39.4370 -66.2704 -0.141 -0.938 0.316 43 47 32
52.9510 34.2290 -60.6294 0.001 -0.665 0.747 58 68 42
53.0064 34.1061 -60.5848 -0.063 -0.582 0.811 91 102 59
53.1601 34.1183 -60.7573 0.223 -0.845 0.486 93 105 58
53.5097 33.0320 -60.2151 0.296 -0.928 0.225 8 13 7
53.7171 33.1140 -60.5029 -0.376 -0.640 0.670 9 13 10
54.5951 32.9225 -61.2693 0.019 -0.720 0.694 52 61 32
54.6984 32.8660 -61.3309 0.019 -0.720 0.694 85 93 52
54.8017 32.8094 -61.3925 0.019 -0.720 0.694 95 105 57
54.9050 32.7528 -61.4541 0.019 -0.720 0.694 100 109 63
54.9847 32.6668 -61.4661 -0.296 -0.618 0.729 101 110 66
55.0581 32.5733 -61.4652 -0.277 -0.623 0.731 101 110 67
55.1439 32.4954 -61.4904 -0.276 -0.618 0.737 101 110 65
75.6637 57.3814 -104.0348 -0.537 -0.505 0.676 101 109 67
75.9190 57.0837 -104.0545 -0.537 -0.505 0.676 48 51 37
55.5162 32.2202 -61.6527 -0.077 -0.887 0.456 15 18 11
55.6261 32.1718 -61.7281 -0.042 -0.884 0.466 10 11 10
55.9747 31.6926 -61.6941 -0.224 -0.926 0.305 11 13 10
56.3273 31.5745 -61.9673 -0.150 -0.855 0.496 9 16 1
56.4315 31.5193 -62.0310 -0.150 -0.855 0.496 41 50 23
56.5357 31.4642 -62.0948 -0.150 -0.855 0.496 75 85 49
56.6399 31.4090 -62.1586 -0.150 -0.855 0.496 91 104 60
56.7448 31.3545 -62.2235 -0.151 -0.854 0.497 89 98 57
56.8539 31.3046 -62.2969 -0.121 -0.713 0.691 56 62 34
56.9507 31.2409 -62.3456 -0.121 -0.713 0.691 21 25 11
81.8276 52.5345 -106.4766 -0.239 -0.949 0.206 12 17 12
62.8527 33.2962 -70.3016 0.048 -0.832 0.552 12 17 13
62.9779 33.2447 -70.3906 0.090 -0.865 0.493 9 15 12
63.1102 33.2000 -70.4930 0.090 -0.865 0.493 17 25 9
63.2428 33.1554 -70.5954 0.090 -0.865 0.493 77 88 51
63.3754 33.1107 -70.6980 0.090 -0.865 0.493 105 119 62
63.4552 33.0141 -70.7012 -0.082 -0.629 0.773 111 126 62
63.5493 32.9317 -70.7314 -0.063 -0.618 0.784 114 128 67
63.6747 32.8797 -70.8202 0.289 -0.413 0.864 115 129 68
63.8008 32.8282 -70.9101 0.279 -0.403 0.871 113 128 63
63.9443 32.7933 -71.0324 0.349 -0.427 0.834 115 129 66
67.8273 36.3283 -78.0980 0.002 -0.970 0.245 104 118 65
68.3070 36.2183 -78.5122 -0.014 -0.923 0.385 13 19 13
68.4259 36.1426 -78.5742 0.019 -0.927 0.375 10 19 16
68.6239 36.1407 -78.7817 -0.025 -0.938 0.344 10 19 14
68.9486 36.0689 -79.0643 0.064 -0.990 0.125 17 22 14
69.3024 36.0223 -79.3987 0.105 -0.980 0.171 21 27 15
69.4175 35.9419 -79.4529 0.131 -0.977 0.171 31 38 21
73.6841 39.6307 -87.0526 0.231 -0.632 0.739 59 69 46
73.7740 39.5105 -87.0467 0.089 -0.347 0.934 79 89 56
73.9163 39.4378 -87.1358 -0.041 -0.376 0.926 102 113 72
74.0242 39.3343 -87.1629 0.005 -0.393 0.920 114 126 77
74.1255 39.2250 -87.1782 0.218 -0.641 0.736 107 119 72
74.2881 39.1705 -87.3043 0.205 -0.645 0.736 65 75 40
5.2589 69.2683 -39.9003 0.712 -0.681 -0.171 65 75 40
5.3226 69.3742 -40.0570 0.712 -0.681 -0.171 57 66 33
16.0124 68.2514 -50.4225 -0.927 -0.283 0.247 70 76 38
16.4939 66.9698 -49.8521 -0.774 -0.593 0.220 44 48 24
16.6223 66.8037 -49.8479 -0.774 -0.593 0.220 23 28 8
17.0052 66.3105 -49.8376 -0.768 -0.601 0.219 71 76 44
24.2667 79.6130 -68.7314 -0.020 -0.901 0.433 52 56 33
24.4142 79.7644 -69.0151 0.546 -0.742 0.389 53 57 32
24.5631 79.7346 -69.1475 0.540 -0.747 0.387 56 61 33
24.7121 79.7984 -69.3590 0.534 -0.727 0.432 63 68 38
24.8617 79.8112 -69.5280 0.536 -0.704 0.466 68 73 41
25.3119 79.7389 -69.9435 -0.220 -0.431 0.875 67 72 40
25.4616 79.5922 -69.9782 -0.220 -0.431 0.875 65 70 40
26.2282 80.1473 -71.2572 -0.145 -0.916 -0.374 45 48 32
26.3815 80.1382 -71.4119 -0.155 -0.914 -0.375 45 44 31
26.8480 80.3040 -72.0452 -0.871 -0.453 0.190 31 28 17
30.0923 62.4408 -60.4251 -0.396 -0.686 0.610 28 12 15
30.1977 62.1233 -60.2691 -0.010 -0.263 0.965 34 16 18
30.3156 61.9690 -60.2639 0.116 -0.293 0.949 42 22 23
30.4395 61.8898 -60.3282 0.651 -0.401 0.645 49 22 23
54.1646 41.4767 -68.2319 -0.787 -0.232 0.571 17 24 9
54.2905 41.1757 -68.1114 -0.773 -0.230 0.592 31 33 19
54.4539 41.1822 -68.2898 0.386 -0.560 0.733 42 45 33
53.8134 39.4726 -66.1714 -0.116 -0.929 0.352 11 14 6
53.9363 39.4236 -66.2602 -0.116 -0.929 0.352 11 15 5
55.3498 38.2836 -66.7952 0.008 -0.447 0.895 5 10 6
52.7998 34.2852 -60.7275 -0.011 -0.646 0.763 36 45 27
52.8574 34.1645 -60.6867 0.001 -0.665 0.747 76 88 53
52.9001 34.0239 -60.6134 -0.076 -0.577 0.813 93 105 54
53.1900 33.8270 -60.7542 -0.869 -0.329 0.368 89 97 60
53.2789 33.1685 -60.2934 0.087 -0.981 -0.173 10 16 4
53.6524 33.0879 -60.6207 -0.532 -0.776 0.337 8 12 11
54.5123 32.8735 -61.3500 0.076 -0.692 0.718 79 86 55
54.6168 32.8185 -61.4141 0.076 -0.692 0.718 95 103 59
54.9005 32.6161 -61.5438 -0.161 -0.439 0.884 100 109 66
54.9705 32.5186 -61.5358 -0.276 -0.618 0.737 99 108 65
55.0587 32.4435 -61.5658 -0.276 -0.618 0.737 101 110 65
55.1385 32.3585 -61.5786 -0.286 -0.652 0.702 100 109 69
75.6857 57.1905 -104.2470 -0.566 -0.647 0.510 79 84 60
76.1627 56.5581 -104.2188 -0.576 -0.605 0.549 9 10 15
55.9210 31.6781 -61.8333 -0.214 -0.933 0.290 11 13 9
56.2511 31.5336 -62.0608 -0.150 -0.855 0.496 32 41 16
77.1636 55.3723 -104.2787 -0.338 -0.552 0.762 73 83 46
77.4178 55.3736 -104.5488 0.046 -0.723 0.689 93 105 59
77.5654 55.2526 -104.6030 0.061 -0.781 0.621 97 110 59
56.6694 31.3146 -62.3189 -0.121 -0.713 0.691 100 112 63
56.7662 31.2509 -62.3676 -0.121 -0.713 0.691 61 68 34
56.8630 31.1872 -62.4164 -0.121 -0.713 0.691 20 25 7
78.3317 54.9668 -105.1731 0.033 -0.694 0.719 5 11 2
80.3558 52.9726 -105.6344 0.346 -0.697 0.628 74 83 53
81.7097 52.7427 -106.8734 -0.095 -0.993 0.075 10 14 12
62.6309 33.2900 -70.2919 0.048 -0.832 0.552 10 15 11
62.7317 33.2142 -70.3347 0.116 -0.862 0.494 13 17 16
62.8739 33.1798 -70.4562 0.113 -0.855 0.506 5 11 7
63.0069 33.1360 -70.5601 0.113 -0.855 0.506 29 38 18
63.1391 33.0911 -70.6621 0.091 -0.849 0.520 94 105 63
63.2379 33.0132 -70.7010 -0.042 -0.627 0.778 109 122 64
63.3503 32.9487 -70.7656 -0.082 -0.629 0.773 110 125 61
63.4427 32.8648 -70.7927 -0.063 -0.618 0.784 111 125 64
63.5546 32.7998 -70.8563 0.017 -0.648 0.762 110 124 62
63.6704 32.7386 -70.9272 0.265 -0.735 0.624 112 127 64
67.5719 36.3118 -78.0669 0.016 -0.971 0.240 108 121 65
67.7349 36.2789 -78.2116 0.016 -0.971 0.240 84 95 53
67.8982 36.2459 -78.3566 0.016 -0.971 0.240 41 49 22
68.0635 36.2143 -78.5049 0.011 -0.934 0.357 16 25 9
68.2163 36.1707 -78.6298 -0.014 -0.923 0.385 12 19 11
68.5374 36.0969 -78.9074 -0.025 -0.938 0.344 8 17 11
69.2268 35.9886 -79.5456 0.105 -0.980 0.171 15 21 11
69.3802 35.9431 -79.6697 0.130 -0.979 0.157 22 28 18
73.5068 39.5076 -87.0401 -0.029 -0.618 0.786 24 30 21
73.8269 39.1943 -87.1149 0.200 -0.642 0.741 96 105 75
73.9767 39.1287 -87.2181 0.218 -0.641 0.736 91 101 68
74.1258 39.0623 -87.3199 0.218 -0.641 0.736 57 66 40
5.2450 69.3052 -40.1484 0.726 -0.682 -0.091 62 72 37
16.5217 66.8468 -50.0266 -0.771 -0.569 0.286 19 24 5
24.0037 79.7032 -68.8434 -0.067 -0.923 0.378 51 55 32
24.1528 79.5693 -68.8881 -0.035 -0.914 0.403 55 59 34
24.2999 79.7225 -69.1739 0.544 -0.728 0.418 60 64 37
24.4486 79.7364 -69.3433 0.544 -0.728 0.418 69 74 43
24.5978 79.6826 -69.4560 0.531 -0.699 0.479 71 76 44
25.8093 80.3518 -71.3072 -0.145 -0.839 -0.525 48 51 32
26.2698 80.3453 -71.7901 -0.157 -0.909 -0.386 45 42 32
26.5870 80.7567 -72.4747 -0.782 -0.622 0.033 37 35 23
26.7371 80.5123 -72.4270 -0.891 -0.423 0.166 24 21 12
30.4679 61.7542 -60.5062 0.654 -0.394 0.645 56 22 25
54.3273 41.0745 -68.3053 0.386 -0.560 0.733 41 45 32
53.6591 39.3208 -66.1122 0.406 -0.886 0.223 5 7 3
53.8430 39.3650 -66.3447 0.415 -0.868 0.272 20 23 11
52.6067 34.2828 -60.7318 -0.025 -0.648 0.761 9 14 5
52.7053 34.2193 -60.7827 -0.025 -0.648 0.761 47 55 31
52.7868 34.1319 -60.7950 -0.011 -0.664 0.747 93 104 63
52.8289 33.9903 -60.7199 -0.106 -0.738 0.667 91 103 51
53.2776 33.4208 -60.7137 -0.155 -0.987 0.040 61 71 41
53.4023 33.3936 -60.8229 -0.147 -0.989 0.034 25 33 12
53.5463 33.3916 -60.9739 -0.139 -0.990 0.026 12 18 7
53.6223 33.2993 -60.9765 -0.302 -0.934 0.188 8 15 9
53.5667 33.0344 -60.6932 -0.520 -0.770 0.368 7 13 11
53.9706 32.9904 -61.0843 0.099 -0.738 0.668 8 12 15
54.4269 32.8211 -61.4249 0.046 -0.578 0.815 81 87 61
54.5248 32.7579 -61.4753 0.046 -0.578 0.815 98 106 67
54.6080 32.6762 -61.4943 -0.088 -0.322 0.943 100 107 62
54.9490 32.3615 -61.5896 -0.110 -0.763 0.637 99 108 63
55.0416 32.2923 -61.6293 -0.119 -0.769 0.628 95 105 67
55.1415 32.2320 -61.6842 -0.119 -0.769 0.628 59 67 44
75.6978 56.9879 -104.4385 -0.603 -0.626 0.495 19 24 15
75.8451 56.8632 -104.4891 -0.606 -0.627 0.490 9 14 9
55.7834 31.7423 -61.9504 -0.234 -0.831 0.505 8 10 8
55.8593 31.6541 -61.9562 -0.214 -0.933 0.290 12 14 8
77.2618 55.2720 -104.6448 0.046 -0.723 0.689 100 113 62
77.4142 55.1568 -104.7089 0.061 -0.781 0.621 96 109 56
77.5952 55.0739 -104.8307 0.061 -0.781 0.621 99 111 63
77.8122 55.0315 -105.0249 0.111 -0.795 0.596 53 62 30
78.0003 54.9561 -105.1605 0.111 -0.795 0.596 19 26 9
78.1732 54.8635 -105.2656 0.033 -0.694 0.719 7 13 4
79.4438 53.9982 -105.8806 -0.504 -0.367 0.782 8 12 14
80.3636 52.5038 -105.5912 -0.087 -0.277 0.957 15 19 16
80.5177 52.3939 -105.6616 -0.277 -0.285 0.918 15 19 18
81.3343 52.6911 -106.7792 -0.071 -0.964 0.257 11 16 13
81.7581 52.5836 -107.1376 -0.131 -0.974 0.186 9 13 12
62.6237 33.1452 -70.3920 0.154 -0.862 0.483 13 17 18
62.7613 33.1064 -70.5051 0.154 -0.862 0.483 4 11 6
62.9091 33.0773 -70.6373 0.113 -0.855 0.506 47 57 32
63.0200 33.0115 -70.6992 0.050 -0.705 0.707 106 118 71
63.1309 32.9458 -70.7612 -0.042 -0.627 0.778 108 122 63
63.2376 32.8758 -70.8151 -0.062 -0.620 0.782 115 129 69
63.3418 32.8034 -70.8643 -0.062 -0.620 0.782 112 126 66
63.4455 32.7306 -70.9127 0.017 -0.648 0.762 115 129 71
63.5600 32.6682 -70.9813 0.097 -0.826 0.555 116 126 75
63.6906 32.6214 -71.0802 0.112 -0.699 0.706 96 104 64
63.8095 32.5630 -71.1568 0.112 -0.699 0.706 51 57 30
63.9283 32.5046 -71.2334 0.112 -0.699 0.706 26 33 15
64.0490 32.4478 -71.3133 0.086 -0.782 0.617 16 22 9
64.1888 32.4089 -71.4286 0.090 -0.763 0.641 11 19 9
68.2590 36.0608 -78.8362 0.004 -0.931 0.366 9 18 14
68.4431 36.0459 -79.0189 -0.015 -0.940 0.340 9 20 10
69.0025 36.0045 -79.5771 0.135 -0.979 0.154 35 42 22
69.1114 35.9184 -79.6196 0.198 -0.882 0.427 22 28 13
73.5021 39.3399 -87.1721 -0.029 -0.618 0.786 18 24 18
73.5274 39.1620 -87.0484 0.240 -0.625 0.743 30 36 26
73.6802 39.0995 -87.1575 0.200 -0.642 0.741 48 55 40
73.8283 39.0326 -87.2579 0.218 -0.641 0.736 55 62 44
73.9835 38.9718 -87.3711 0.081 -0.440 0.894 39 45 29
5.1722 68.5374 -39.6507 0.417 -0.834 -0.361 64 79 40
5.1441 69.3245 -40.2899 0.728 -0.675 0.118 65 75 38
5.2103 69.4210 -40.4423 0.705 -0.686 -0.181 57 66 34
5.5875 70.1115 -41.4302 0.746 -0.666 0.016 72 78 43
16.4275 66.8334 -50.1645 -0.770 -0.574 0.277 34 39 17
16.5565 66.6638 -50.1574 -0.770 -0.574 0.277 35 38 17
23.5941 79.6936 -68.7151 -0.141 -0.923 0.359 55 59 33
23.7411 79.7284 -68.9009 -0.031 -0.927 0.374 55 59 33
23.8897 79.6505 -68.9926 -0.067 -0.923 0.378 59 63 37
24.0389 79.5101 -69.0319 -0.035 -0.914 0.403 68 72 45
24.1863 79.5910 -69.2573 0.436 -0.799 0.414 74 79 49
26.4750 80.9807 -72.8713 -0.824 -0.561 -0.084 38 35 26
26.6262 80.7535 -72.8389 -0.824 -0.561 -0.084 25 22 15
29.8684 61.9041 -60.2594 0.082 -0.426 0.901 28 9 15
30.2382 61.6508 -60.4370 -0.006 -0.268 0.963 42 19 22
54.2271 41.0078 -68.3830 0.357 -0.504 0.786 36 40 27
55.0879 38.2849 -66.9830 -0.265 -0.710 0.653 8 10 10
55.1850 38.1987 -67.0128 -0.254 -0.614 0.747 5 7 3
52.5302 34.2421 -60.8273 -0.080 -0.794 0.602 17 20 8
52.6117 34.1545 -60.8395 -0.074 -0.690 0.720 68 77 48
52.6951 34.0700 -60.8563 -0.111 -0.763 0.637 88 100 54
52.7429 33.9363 -60.7934 -0.106 -0.738 0.667 96 106 54
52.8331 33.8617 -60.8259 0.234 -0.835 0.498 96 106 53
53.0874 33.6167 -60.8878 -0.724 -0.683 0.101 99 107 66
53.1403 33.4925 -60.8385 -0.727 -0.682 0.082 96 104 64
53.2384 33.4295 -60.8892 -0.178 -0.984 0.021 79 86 54
53.2914 33.3063 -60.8407 -0.382 -0.922 -0.069 38 46 22
53.4457 33.3185 -61.0151 -0.738 -0.520 0.430 11 17 6
53.5319 33.2398 -61.0398 -0.701 -0.501 0.507 9 14 8
53.9140 32.9750 -61.2208 0.066 -0.660 0.749 9 13 16
54.3451 32.7733 -61.5075 0.178 -0.664 0.726 71 75 59
54.4533 32.7231 -61.5799 0.178 -0.664 0.726 96 102 75
54.5433 32.6499 -61.6132 0.042 -0.591 0.806 94 102 66
54.8573 32.3016 -61.6509 -0.145 -0.758 0.636 101 112 69
54.9557 32.2395 -61.7026 -0.145 -0.758 0.636 86 96 60
55.0575 32.1817 -61.7617 -0.119 -0.769 0.628 40 47 28
55.1758 32.1438 -61.8553 -0.074 -0.813 0.578 13 17 13
55.2516 32.0544 -61.8598 -0.171 -0.777 0.606 8 13 11
55.7848 31.6151 -62.0530 -0.208 -0.931 0.301 14 18 7
77.1056 55.1702 -104.7400 0.079 -0.803 0.591 106 116 64
77.2907 55.0923 -104.8705 0.079 -0.803 0.591 102 112 61
77.4759 55.0144 -105.0012 0.079 -0.803 0.591 88 99 56
77.6613 54.9363 -105.1319 0.079 -0.803 0.591 39 48 20
78.0149 54.7603 -105.3579 0.033 -0.694 0.719 9 14 8
79.2748 53.8848 -105.9527 -0.334 -0.337 0.880 10 14 13
81.7192 52.6043 -107.4621 -0.281 -0.851 0.443 10 14 15
62.6626 33.0467 -70.5802 0.154 -0.862 0.483 5 11 3
62.7982 33.0057 -70.6894 0.050 -0.705 0.707 64 74 46
62.9131 32.9440 -70.7591 0.050 -0.705 0.707 109 121 71
63.0241 32.8784 -70.8213 -0.042 -0.627 0.778 110 124 65
63.1314 32.8091 -70.8764 -0.062 -0.620 0.782 113 126 71
63.2355 32.7367 -70.9255 -0.062 -0.620 0.782 113 126 70
63.3405 32.6652 -70.9763 0.045 -0.754 0.655 115 127 78
63.4597 32.6076 -71.0541 0.097 -0.826 0.555 103 111 74
63.5803 32.5511 -71.1342 0.084 -0.793 0.604 67 73 48
63.7045 32.4980 -71.2210 0.084 -0.793 0.604 30 34 18
63.8170 32.4337 -71.2860 0.112 -0.699 0.706 19 25 15
63.9450 32.3839 -71.3797 0.086 -0.782 0.617 14 19 11
64.0828 32.3434 -71.4917 0.090 -0.763 0.641 12 19 12
68.1689 36.0137 -78.9551 0.004 -0.931 0.366 10 16 11
68.3393 35.9860 -79.1126 0.048 -0.924 0.381 19 27 14
68.6710 35.9209 -79.4098 0.056 -0.910 0.412 82 93 60
68.8146 35.8673 -79.5169 -0.012 -0.922 0.388 82 91 59
68.9248 35.7827 -79.5620 -0.138 -0.917 0.376 58 67 40
73.6311 39.0922 -87.3778 -0.136 -0.506 0.852 17 23 15
73.7457 38.9952 -87.4171 -0.136 -0.506 0.852 23 29 20
73.8602 38.8982 -87.4564 -0.136 -0.506 0.852 19 25 16
5.1294 69.3637 -40.5407 0.705 -0.686 -0.181 63 74 40
16.3226 66.9095 -50.3678 -0.854 -0.461 0.242 49 54 30
16.4608 66.6633 -50.3048 -0.833 -0.493 0.252 24 28 5
23.3338 79.6148 -68.6858 -0.148 -0.921 0.359 54 58 29
23.4802 79.6466 -68.8689 -0.012 -0.942 0.336 55 60 30
23.6281 79.6021 -68.9885 -0.012 -0.942 0.336 62 67 36
23.7761 79.5578 -69.1084 -0.026 -0.917 0.398 70 75 44
23.9247 79.4840 -69.2035 -0.014 -0.914 0.406 72 77 47
24.0726 79.4868 -69.3635 0.361 -0.851 0.381 73 78 46
24.2209 79.4812 -69.5167 0.361 -0.851 0.381 71 77 43
24.6667 79.9969 -70.4319 0.054 -0.853 -0.520 57 60 39
25.4338 81.6026 -72.6202 -0.111 -0.783 -0.612 46 49 32
25.5896 81.6838 -72.8555 -0.188 -0.808 -0.559 44 46 32
26.0540 81.4577 -73.1572 -0.752 -0.615 -0.237 42 42 35
26.3616 81.1737 -73.2423 -0.697 -0.678 -0.234 37 37 29
26.5135 80.9492 -73.2124 -0.815 -0.567 -0.117 25 25 18
30.0183 61.6608 -60.4741 -0.000 -0.287 0.958 29 14 17
54.1450 40.9691 -68.5037 -0.278 -0.419 0.865 26 29 17
54.8458 38.2392 -66.9189 -0.281 -0.614 0.738 11 12 15
54.9681 38.1893 -67.0066 -0.262 -0.617 0.742 9 10 10
55.0904 38.1391 -67.0940 -0.254 -0.614 0.747 5 7 2
55.1881 38.0540 -67.1254 -0.213 -0.611 0.762 35 39 25
52.5415 34.1226 -60.9491 -0.117 -0.820 0.561 82 89 57
52.6214 34.0330 -60.9576 -0.085 -0.792 0.604 94 104 52
52.6867 33.9235 -60.9337 -0.096 -0.751 0.653 93 102 47
52.7575 33.8219 -60.9223 -0.386 -0.888 0.250 101 110 56
53.0042 33.5665 -60.9670 -0.484 -0.874 0.051 99 105 65
53.0630 33.4502 -60.9304 -0.368 -0.926 -0.079 107 115 77
53.3750 33.2850 -61.1216 -0.750 -0.526 0.400 10 15 8
53.6674 33.0936 -61.2697 -0.152 -0.751 0.643 5 11 11
53.7379 32.9946 -61.2601 -0.290 -0.709 0.643 5 11 11
53.8457 32.9444 -61.3321 -0.257 -0.769 0.585 7 13 13
53.9621 32.9053 -61.4228 -0.242 -0.722 0.648 9 13 14
54.0559 32.8368 -61.4642 -0.242 -0.722 0.648 12 14 14
54.1680 32.7920 -61.5453 -0.257 -0.741 0.620 20 25 19
54.6042 32.4097 -61.6835 -0.159 -0.437 0.885 93 104 64
54.7796 32.2588 -61.7415 -0.215 -0.820 0.531 101 112 74
54.8858 32.2064 -61.8099 -0.211 -0.817 0.537 72 82 49
54.9905 32.1521 -61.8750 -0.234 -0.799 0.555 27 34 17
55.0982 32.1013 -61.9462 -0.217 -0.803 0.555 14 18 17
55.1716 32.0088 -61.9455 -0.142 -0.775 0.615 8 12 12
75.6705 56.5213 -104.7134 -0.628 -0.610 0.483 10 15 12
75.9073 56.2047 -104.6951 -0.595 -0.632 0.497 8 12 13
55.6192 31.6465 -62.1129 -0.147 -0.828 0.541 15 18 10
55.7213 31.5892 -62.1727 -0.147 -0.828 0.541 24 28 10
76.6407 55.2944 -104.6991 -0.256 -0.778 0.574 98 108 54
76.7992 55.1861 -104.7753 -0.256 -0.778 0.574 103 114 57
76.9746 55.0973 -104.8865 0.005 -0.815 0.579 106 117 63
77.1544 55.0133 -105.0061 0.005 -0.815 0.579 105 115 66
79.4291 53.5624 -106.1901 0.226 -0.830 0.509 10 15 11
79.6041 53.4722 -106.2996 -0.196 -0.531 0.824 13 18 14
80.0949 52.0829 -105.6359 0.049 -0.367 0.929 11 15 16
62.2009 32.9755 -70.2586 0.296 -0.916 0.271 9 13 14
62.5640 32.9872 -70.6553 0.154 -0.862 0.483 15 23 10
62.6981 32.9447 -70.7619 0.045 -0.704 0.709 80 92 56
62.8135 32.8836 -70.8326 -0.046 -0.645 0.763 110 123 67
62.9212 32.8148 -70.8885 -0.062 -0.620 0.782 107 121 61
63.0252 32.7424 -70.9376 -0.062 -0.620 0.782 110 123 70
63.1293 32.6701 -70.9866 -0.062 -0.620 0.782 114 126 77
63.2294 32.5940 -71.0283 -0.026 -0.888 0.459 112 120 81
63.3587 32.5462 -71.1253 0.026 -0.770 0.638 71 77 52
63.4769 32.4875 -71.2010 0.026 -0.770 0.638 41 43 28
63.6009 32.4343 -71.2876 0.074 -0.793 0.605 23 26 14
63.7145 32.3711 -71.3547 0.079 -0.773 0.630 19 22 14
63.8548 32.3332 -71.4718 0.090 -0.763 0.641 14 19 15
63.9760 32.2769 -71.5527 0.030 -0.720 0.694 17 23 22
68.0750 35.9630 -79.0667 0.097 -0.936 0.338 5 11 5
68.2376 35.9280 -79.2100 0.097 -0.936 0.338 32 39 22
68.4004 35.8929 -79.3535 0.097 -0.936 0.338 78 87 55
68.5735 35.8670 -79.5157 0.056 -0.910 0.412 99 110 68
73.0806 39.2342 -87.1921 0.043 -0.426 0.904 47 53 23
5.1118 69.4137 -40.7986 0.705 -0.686 -0.181 61 72 39
5.3035 69.7383 -41.2817 0.705 -0.686 -0.181 51 60 31
16.3525 66.7690 -50.5300 -0.854 -0.461 0.242 24 28 6
23.6634 79.4149 -69.1816 0.299 -0.908 0.292 75 81 47
24.1050 79.6230 -69.8315 -0.078 -0.928 -0.364 64 69 36
25.0065 81.3350 -72.2623 -0.108 -0.783 -0.613 46 48 35
25.4742 82.0086 -73.3393 -0.233 -0.772 -0.591 42 44 30
25.6295 81.9251 -73.4336 -0.424 -0.753 -0.503 41 43 29
25.9404 81.7693 -73.6319 -0.764 -0.594 -0.253 41 41 34
26.2475 81.3622 -73.6105 -0.764 -0.595 -0.252 37 37 29
26.4005 81.1623 -73.6024 -0.764 -0.595 -0.252 29 28 23
29.9114 61.4526 -60.4446 -0.212 -0.369 0.905 27 13 16
54.7123 38.1236 -66.9102 -0.036 -0.682 0.730 8 9 12
52.5317 33.9737 -61.0228 -0.128 -0.870 0.475 98 106 54
52.6019 33.8709 -61.0096 -0.489 -0.807 0.331 98 107 49
52.6944 33.7995 -61.0471 -0.489 -0.807 0.331 97 106 49
52.7928 33.7362 -61.0979 -0.502 -0.801 0.326 96 105 53
52.8287 33.5874 -61.0085 -0.458 -0.887 0.056 96 103 60
53.2318 33.3490 -61.2344 -0.481 -0.859 0.174 20 23 16
53.5680 33.0224 -61.3132 -0.193 -0.730 0.656 5 11 10
53.6472 32.9348 -61.3226 -0.291 -0.715 0.636 6 12 10
53.7391 32.8642 -61.3601 -0.291 -0.715 0.636 7 13 9
53.8473 32.8147 -61.4332 -0.314 -0.687 0.655 8 13 9
54.1536 32.6420 -61.6120 -0.240 -0.765 0.598 13 18 12
54.2211 32.5405 -61.5971 0.037 -0.587 0.809 23 28 22
54.5076 32.3433 -61.7337 -0.159 -0.437 0.885 81 91 57
54.7062 32.2215 -61.8413 -0.329 -0.780 0.533 92 103 71
54.8091 32.1649 -61.9025 -0.333 -0.769 0.546 57 67 39
54.9110 32.1072 -61.9619 -0.235 -0.798 0.555 18 27 13
55.0156 32.0526 -62.0267 -0.223 -0.799 0.558 16 20 21
55.0916 31.9634 -62.0313 -0.187 -0.787 0.588 9 13 15
75.5360 56.4443 -104.8546 -0.492 -0.699 0.519 10 15 13
75.6610 56.2937 -104.8589 -0.586 -0.634 0.504 10 14 13
76.0763 55.5959 -104.7037 -0.606 -0.634 0.481 58 63 39
76.2076 55.4554 -104.7234 -0.606 -0.634 0.481 86 95 54
76.3588 55.3384 -104.7844 -0.573 -0.684 0.452 93 103 49
76.8396 55.0196 -105.0243 -0.351 -0.718 0.601 102 112 58
77.0325 54.9508 -105.1712 -0.354 -0.702 0.617 103 112 67
77.2141 54.8689 -105.2948 -0.327 -0.706 0.629 60 69 38
77.3820 54.7711 -105.3902 -0.304 -0.663 0.684 16 23 4
78.3431 53.5716 -105.3873 -0.668 -0.661 0.342 7 12 9
80.2123 53.0787 -106.9600 0.282 -0.886 0.367 11 15 14
79.6725 51.9769 -105.4387 0.116 -0.411 0.904 10 14 15
62.1081 32.9214 -70.3434 0.302 -0.911 0.280 11 15 14
62.4655 32.9276 -70.7303 0.154 -0.862 0.483 33 42 24
62.5917 32.8774 -70.8219 0.045 -0.704 0.709 93 105 64
62.7085 32.8178 -70.8955 -0.035 -0.629 0.777 109 123 63
62.8152 32.7481 -70.9496 -0.062 -0.620 0.782 107 120 61
62.9192 32.6758 -70.9987 -0.062 -0.620 0.782 112 124 75
63.0183 32.5987 -71.0383 -0.032 -0.656 0.754 107 118 75
63.1424 32.5461 -71.1257 -0.026 -0.888 0.459 83 90 57
63.2608 32.4878 -71.2020 -0.057 -0.892 0.448 43 48 28
63.3910 32.4408 -71.3007 -0.065 -0.890 0.452 27 30 17
63.4862 32.3600 -71.3330 -0.062 -0.699 0.712 21 23 12
63.6267 32.3226 -71.4509 0.100 -0.785 0.612 15 17 10
63.8700 32.2113 -71.6152 0.097 -0.780 0.618 13 18 21
67.9608 35.8931 -79.1403 0.104 -0.942 0.321 5 9 3
68.1260 35.8607 -79.2888 0.104 -0.942 0.321 48 56 34
68.3077 35.8434 -79.4680 0.088 -0.936 0.341 89 99 62
68.4574 35.7959 -79.5871 0.083 -0.687 0.722 107 119 70
68.5565 35.7012 -79.6117 -0.011 -0.405 0.914 111 124 70
68.6538 35.6051 -79.6331 -0.024 -0.414 0.910 110 122 71
68.8763 35.4390 -79.7281 0.299 -0.549 0.780 91 101 59
68.8793 35.2577 -79.5758 -0.369 -0.633 0.680 59 68 36
69.0022 35.1859 -79.6454 -0.372 -0.619 0.692 28 36 12
69.0820 35.0752 -79.6357 -0.369 -0.633 0.680 16 22 8
69.1587 34.9620 -79.6205 -0.364 -0.612 0.702 15 19 12
5.0409 69.3182 -40.8752 0.701 -0.689 -0.186 64 76 41
5.2614 69.8838 -41.5985 0.450 -0.837 -0.311 61 67 42
5.3906 70.1059 -41.9280 0.445 -0.838 -0.316 69 75 41
15.8046 67.7743 -51.0611 -0.891 -0.416 0.183 70 76 42
16.2461 66.8553 -50.7417 -0.854 -0.461 0.242 39 43 16
16.3824 66.6285 -50.6922 -0.854 -0.461 0.242 30 34 11
23.5486 79.4214 -69.3807 0.288 -0.938 0.193 71 77 40
23.6947 79.5208 -69.6227 -0.033 -0.943 -0.330 68 74 39
24.5827 81.1840 -72.0056 -0.017 -0.781 -0.624 46 50 32
24.7353 81.5112 -72.4508 -0.023 -0.778 -0.628 43 47 30
24.8893 81.8021 -72.8662 -0.101 -0.784 -0.612 44 48 33
25.0449 82.1576 -73.3389 -0.104 -0.784 -0.613 43 45 32
25.3592 82.5798 -74.0389 -0.231 -0.774 -0.590 43 43 31
25.5145 82.3549 -74.0113 -0.417 -0.756 -0.504 41 41 29
26.2895 81.5367 -74.1356 -0.773 -0.579 -0.259 30 31 23
29.8049 61.2451 -60.4149 -0.225 -0.484 0.846 27 12 15
30.2924 60.8738 -60.6165 0.656 -0.431 0.620 61 22 25
52.5147 33.8151 -61.0801 -0.529 -0.769 0.359 96 105 52
62.0697 46.8466 -82.5299 -0.600 -0.063 0.797 94 102 51
52.6947 33.6654 -61.1437 -0.451 -0.837 0.309 95 102 58
52.7731 33.5750 -61.1497 -0.420 -0.861 0.287 97 104 65
52.8707 33.5109 -61.1989 -0.420 -0.861 0.287 82 87 55
52.9788 33.4611 -61.2716 -0.429 -0.881 0.200 52 55 35
53.0787 33.4001 -61.3259 -0.429 -0.881 0.200 27 30 22
53.4060 33.0607 -61.3837 -0.015 -0.785 0.619 4 10 7
53.5000 32.9924 -61.4254 -0.029 -0.782 0.623 5 10 13
53.5455 32.8607 -61.3607 -0.250 -0.854 0.456 10 16 13
53.6331 32.7846 -61.3888 -0.321 -0.840 0.437 16 24 10
53.7069 32.6907 -61.3869 -0.512 -0.665 0.544 20 27 10
54.3360 32.1831 -61.6226 0.040 -0.952 0.305 53 60 42
54.4438 32.1333 -61.6951 0.053 -0.949 0.312 75 85 64
54.6329 32.1842 -61.9413 -0.329 -0.780 0.533 74 83 65
54.7265 32.1163 -61.9829 -0.329 -0.780 0.533 39 46 30
54.8198 32.0480 -62.0238 -0.273 -0.686 0.674 16 21 12
54.9322 32.0031 -62.1055 -0.174 -0.772 0.611 10 14 14
55.0117 31.9181 -62.1173 -0.187 -0.787 0.588 9 13 13
75.4207 56.3905 -105.0364 -0.492 -0.699 0.519 9 14 9
75.5200 56.2087 -104.9860 -0.590 -0.438 0.678 10 15 11
75.7611 55.8983 -104.9766 -0.590 -0.438 0.678 21 25 11
75.8457 55.7012 -104.8973 -0.587 -0.449 0.674 52 58 33
75.9327 55.5079 -104.8238 -0.594 -0.440 0.673 81 88 53
76.2533 55.2950 -104.9834 -0.573 -0.684 0.452 97 108 47
76.7504 54.9947 -105.2565 -0.346 -0.702 0.623 103 113 62
76.9045 54.8813 -105.3237 -0.354 -0.702 0.617 91 99 59
77.0728 54.7841 -105.4200 -0.332 -0.697 0.636 41 49 24
78.0984 53.6540 -105.5437 -0.711 -0.655 0.256 6 10 12
78.6910 53.7401 -106.2519 0.025 -0.857 0.514 16 22 11
78.9350 53.7244 -106.4994 0.437 -0.703 0.560 26 33 15
80.3100 53.5210 -107.7952 -0.765 -0.552 0.330 9 13 12
80.3613 53.2989 -107.6588 -0.724 -0.616 0.310 9 13 14
79.8430 52.4857 -106.4036 0.205 -0.855 0.477 11 15 16
61.9007 32.9282 -70.3580 0.095 -0.656 0.749 9 13 11
62.4878 32.8126 -70.8865 -0.003 -0.722 0.691 101 115 66
62.6056 32.7540 -70.9621 -0.047 -0.622 0.782 106 120 58
62.7180 32.6901 -71.0272 -0.065 -0.720 0.691 113 126 72
62.8274 32.6231 -71.0866 -0.065 -0.720 0.691 112 123 81
62.9157 32.5356 -71.1057 -0.059 -0.832 0.552 90 97 62
63.0555 32.4983 -71.2232 -0.026 -0.888 0.459 49 55 30
63.1761 32.4421 -71.3037 -0.057 -0.892 0.448 23 30 15
63.3007 32.3897 -71.3919 -0.057 -0.892 0.448 18 23 15
63.3845 32.2980 -71.4026 -0.062 -0.699 0.712 17 21 16
63.5174 32.2535 -71.5064 0.097 -0.780 0.618 11 16 13
63.7655 32.1469 -71.6800 0.097 -0.780 0.618 11 15 16
67.8956 35.8695 -79.3059 0.037 -0.714 0.700 7 12 2
68.0363 35.8140 -79.4087 0.060 -0.693 0.718 57 65 39
68.1632 35.7456 -79.4855 0.060 -0.693 0.718 102 113 72
68.3271 35.7114 -79.6313 0.084 -0.698 0.711 110 124 73
68.4106 35.6025 -79.6270 -0.006 -0.354 0.935 109 123 68
68.5143 35.5125 -79.6603 -0.006 -0.354 0.935 108 123 65
68.6179 35.4226 -79.6937 -0.006 -0.354 0.935 110 125 69
68.7592 35.3672 -79.7971 0.212 -0.569 0.795 105 119 68
68.8890 35.3012 -79.8791 0.212 -0.569 0.795 87 99 58
69.0188 35.2351 -79.9611 0.212 -0.569 0.795 44 55 25
69.0062 35.0407 -79.7801 -0.212 -0.369 0.905 14 23 6
69.1009 34.9436 -79.7978 -0.222 -0.382 0.897 11 18 11
4.6327 69.7922 -41.0826 0.187 -0.852 -0.489 64 78 42
5.0689 69.5422 -41.3341 0.460 -0.831 -0.313 41 52 20
15.6949 67.8714 -51.2819 -0.891 -0.415 0.182 67 73 39
16.2766 66.7098 -50.9006 -0.851 -0.479 0.216 23 27 4
22.1105 79.7535 -68.4432 0.570 -0.339 0.749 56 60 32
23.4338 79.4149 -69.5691 0.251 -0.955 0.158 64 70 34
24.3114 81.4181 -72.2436 -0.018 -0.781 -0.624 47 49 35
24.4632 81.7045 -72.6541 -0.017 -0.781 -0.624 45 50 31
24.6159 82.1299 -73.1860 -0.017 -0.780 -0.626 42 46 29
24.7707 82.4184 -73.6016 -0.009 -0.796 -0.606 41 45 30
24.9269 82.8456 -74.1388 0.060 -0.805 -0.590 39 41 28
25.4011 83.2218 -74.9728 -0.198 -0.829 -0.522 36 36 24
25.5567 82.8588 -74.8255 -0.684 -0.663 -0.304 38 38 26
26.1734 81.6663 -74.4549 -0.763 -0.600 -0.242 32 32 22
29.7498 61.7247 -61.0335 -0.024 0.141 0.990 27 12 15
30.1914 60.7420 -60.6567 0.657 -0.422 0.625 59 21 25
52.4452 33.7839 -61.1906 -0.500 -0.791 0.353 95 103 53
61.9783 46.8072 -82.6822 -0.596 -0.057 0.801 97 105 59
52.6081 33.6105 -61.2153 -0.368 -0.876 0.312 95 101 63
52.7000 33.5385 -61.2514 -0.425 -0.849 0.315 85 90 61
52.7985 33.4757 -61.3027 -0.426 -0.843 0.328 54 57 36
52.9135 33.4353 -61.3910 -0.394 -0.878 0.271 24 27 14
53.0060 33.3642 -61.4288 -0.432 -0.856 0.284 16 18 15
53.0569 33.2374 -61.3736 -0.717 -0.525 0.458 12 13 18
53.2251 33.0740 -61.4126 -0.253 -0.640 0.725 9 14 9
53.4138 32.9383 -61.4975 -0.040 -0.792 0.609 6 11 13
53.4989 32.8585 -61.5197 -0.064 -0.827 0.559 31 38 31
53.5959 32.7945 -61.5683 -0.117 -0.827 0.550 47 55 33
53.8268 31.9661 -61.0990 -0.785 -0.453 0.422 14 16 11
54.2050 32.0734 -61.5975 0.203 -0.948 0.244 20 26 17
54.2884 31.9936 -61.6178 0.270 -0.959 0.090 30 35 26
54.5500 32.1351 -62.0207 -0.367 -0.811 0.456 30 36 26
54.6444 32.0680 -62.0639 -0.367 -0.811 0.456 22 27 20
54.7380 32.0002 -62.1056 -0.273 -0.686 0.674 11 16 13
54.8203 31.9186 -62.1233 -0.213 -0.612 0.762 10 14 18
54.9228 31.8617 -62.1839 -0.078 -0.753 0.654 11 14 18
75.3207 56.3552 -105.2507 -0.485 -0.695 0.531 10 15 10
55.0976 31.7115 -62.2413 -0.244 -0.811 0.531 13 18 11
55.2226 31.6817 -62.3497 -0.272 -0.279 0.921 18 22 11
55.2841 31.5758 -62.3239 -0.139 -0.722 0.678 41 46 22
55.3749 31.5051 -62.3600 -0.178 -0.690 0.701 76 83 48
55.4437 31.4086 -62.3503 -0.270 -0.290 0.918 91 100 58
55.5549 31.3621 -62.4294 -0.143 -0.665 0.733 94 104 52
76.1739 55.2823 -105.2373 -0.574 -0.682 0.454 99 111 49
76.6292 54.9330 -105.4231 -0.354 -0.702 0.617 101 110 63
76.7999 54.8386 -105.5245 -0.365 -0.697 0.617 74 82 46
76.9464 54.7164 -105.5758 -0.365 -0.697 0.617 24 31 12
78.0420 53.6627 -105.8388 -0.706 -0.661 0.256 7 11 9
78.5091 53.6120 -106.2958 -0.421 -0.807 0.413 31 38 20
78.5968 53.4278 -106.2304 -0.440 -0.839 0.320 55 63 37
78.7529 53.3182 -106.3030 -0.440 -0.839 0.320 60 69 42
78.8908 53.1890 -106.3390 -0.432 -0.845 0.317 46 54 32
80.2596 53.5337 -108.1049 -0.755 -0.576 0.312 9 13 14
61.7921 32.8580 -70.4117 0.117 -0.647 0.753 7 12 5
61.9944 32.8860 -70.6528 0.052 -0.834 0.550 6 11 8
