ply
format ascii 1.0
element vertex 217
property float x
property float y
property float z
property float nx
property float ny
property float nz
property uchar diffuse_red
property uchar diffuse_green
property uchar diffuse_blue
end_header
23.3286 71.9574 -23.6131 -0.814 -0.080 0.576 122 134 89
22.7268 73.8863 -24.2257 -0.804 -0.075 0.589 95 110 63
22.5880 74.4794 -24.3594 -0.805 -0.075 0.588 94 107 60
22.9804 70.8072 -24.2869 -0.805 -0.074 0.588 149 158 108
25.8363 101.7382 -29.0807 -0.156 -0.986 0.064 53 27 20
27.2816 69.2008 -27.2403 -0.911 -0.091 0.401 45 41 21
29.3655 0.7665 -22.7253 -0.753 0.039 0.656 84 97 54
27.4194 89.8131 -32.1443 -0.977 -0.057 0.207 63 74 41
27.2738 91.3125 -32.4411 -0.977 -0.058 0.207 63 75 40
37.5767 131.3766 -44.0507 0.082 -0.728 0.681 98 111 58
9.3951 103.8442 -25.1280 0.031 -0.968 -0.251 57 82 42
-0.4446 125.8195 -34.1788 -0.671 -0.259 0.695 84 106 57
-0.4895 120.1648 -35.0300 -0.573 -0.177 0.800 74 95 52
40.0366 40.9922 -46.4807 0.862 0.056 0.504 110 108 69
45.9102 25.4035 -46.2115 -0.227 -0.824 -0.520 89 88 44
40.0231 40.0496 -46.3439 0.808 0.098 0.581 106 102 71
38.7120 47.7186 -47.8311 0.635 -0.609 0.475 26 30 15
21.3716 38.6070 -32.3371 -0.684 -0.026 0.729 80 92 45
38.5552 47.0667 -47.6864 0.680 -0.543 0.493 23 26 18
38.5565 46.4813 -47.8442 0.576 -0.641 -0.508 18 21 14
35.9198 0.6469 -32.2811 0.716 -0.681 -0.152 63 64 33
46.4335 8.2391 -42.7320 -0.098 -0.073 0.993 14 21 5
46.4019 8.2321 -42.7943 -0.112 -0.095 0.989 20 27 9
35.5278 56.2521 -50.6786 0.418 0.222 0.881 82 86 36
46.3346 8.1621 -42.8086 -0.112 -0.095 0.989 40 48 27
46.3870 8.3041 -42.9849 -0.652 -0.258 0.713 75 82 62
46.3455 8.2799 -43.0345 -0.134 0.020 0.991 100 108 87
46.3893 8.3334 -43.2654 -0.247 0.063 0.967 106 114 93
36.0308 2.3342 -33.6184 0.456 -0.662 -0.595 48 52 28
46.5339 16.4396 -47.6115 0.178 -0.939 -0.293 10 12 9
46.5232 16.5014 -47.7398 0.290 -0.897 -0.332 9 11 6
42.7595 67.1058 -64.1865 0.380 0.353 0.855 20 20 10
42.8763 66.8661 -64.1864 0.302 0.374 0.877 17 17 6
46.4989 16.5331 -47.8467 0.290 -0.897 -0.332 6 8 3
46.4666 16.5469 -47.9407 0.281 -0.899 -0.336 5 8 2
46.6222 16.7103 -48.1250 0.281 -0.907 -0.314 63 69 45
46.4530 16.6032 -48.0661 0.280 -0.900 -0.334 11 14 4
46.5761 16.6936 -48.1974 0.275 -0.902 -0.333 89 95 68
46.4060 16.5842 -48.1366 0.271 -0.902 -0.336 16 20 6
46.5166 16.6463 -48.2475 0.263 -0.904 -0.337 111 118 88
46.2470 16.4986 -48.0931 0.289 -0.896 -0.336 10 12 10
46.3682 16.5862 -48.2227 0.289 -0.896 -0.336 32 36 19
46.4793 16.6494 -48.3345 -0.061 -0.987 -0.149 121 129 95
46.7456 16.4979 -48.4845 -0.603 -0.794 0.081 108 116 82
46.2109 16.5044 -48.1818 0.091 -0.855 -0.511 8 11 7
46.3554 16.6452 -48.3509 0.101 -0.938 -0.332 57 62 41
46.4461 16.6621 -48.4289 0.102 -0.940 -0.326 126 133 97
46.1762 16.5138 -48.2732 0.095 -0.837 -0.538 11 13 7
46.3244 16.6633 -48.4492 0.070 -0.848 -0.525 83 88 65
46.4259 16.7045 -48.5455 0.075 -0.850 -0.522 115 123 86
46.2098 19.3208 -49.5338 -0.222 -0.915 -0.338 40 40 18
46.1831 16.6192 -48.4360 0.095 -0.837 -0.538 21 24 15
46.3189 16.7399 -48.5912 0.087 -0.846 -0.526 100 105 81
46.0368 16.5628 -48.4136 0.143 -0.838 -0.527 6 12 3
46.1901 16.7254 -48.5999 0.095 -0.837 -0.538 50 57 39
46.2272 19.3568 -49.8079 -0.221 -0.972 -0.076 25 27 11
46.0257 16.6277 -48.5467 0.439 -0.794 -0.420 7 13 4
46.1972 16.8324 -48.7651 0.095 -0.837 -0.538 53 60 43
46.0138 16.6912 -48.6793 0.439 -0.794 -0.420 5 10 4
45.9743 17.0835 -48.9250 0.455 -0.765 -0.456 5 9 8
45.9284 16.7783 -48.7637 0.422 -0.791 -0.442 6 11 9
46.0674 16.9086 -48.9274 0.396 -0.849 -0.350 1 6 2
45.9235 16.8598 -48.9104 0.431 -0.839 -0.331 7 12 8
46.0295 16.9123 -49.0163 0.389 -0.851 -0.353 8 13 9
45.9274 16.7654 -48.9920 0.059 -0.997 -0.041 6 11 4
46.0503 16.8575 -49.1280 0.160 -0.983 -0.090 7 12 6
45.8631 16.7071 -49.0341 -0.326 -0.905 0.275 5 11 2
45.9218 16.6490 -49.0567 -0.334 -0.896 0.292 7 12 5
45.9702 16.5673 -49.0612 -0.338 -0.897 0.284 8 13 7
45.8380 16.7411 -49.1458 -0.279 -0.933 0.229 51 57 42
45.9013 16.6936 -49.1765 -0.292 -0.930 0.223 38 44 32
45.9556 16.6249 -49.1911 -0.220 -0.973 0.068 11 16 9
45.7909 16.7234 -49.2187 0.048 -0.997 -0.056 95 103 69
45.8780 16.7317 -49.2919 0.048 -0.997 -0.056 93 98 73
45.6258 16.6230 -49.1619 -0.001 -0.911 -0.411 92 99 66
45.7488 16.7175 -49.3006 0.049 -0.927 -0.372 94 102 64
45.8461 16.7501 -49.3924 0.110 -0.940 -0.322 87 93 66
45.6109 16.6823 -49.2933 -0.001 -0.911 -0.411 97 105 70
45.7295 16.7662 -49.4242 0.049 -0.927 -0.372 92 100 62
45.8309 16.8082 -49.5236 0.122 -0.945 -0.302 81 87 60
45.5959 16.7419 -49.4253 -0.001 -0.911 -0.411 98 105 69
45.6988 16.7881 -49.5278 -0.001 -0.911 -0.411 93 101 62
45.8047 16.8405 -49.6354 0.122 -0.945 -0.302 76 82 55
40.5318 32.5574 -52.3054 0.292 -0.934 0.205 26 9 14
45.5865 16.8152 -49.5682 -0.196 -0.938 -0.285 88 96 59
45.6786 16.8351 -49.6509 -0.189 -0.942 -0.278 96 104 66
45.5590 16.8455 -49.6785 -0.201 -0.977 -0.066 89 97 59
45.6419 16.8432 -49.7443 -0.197 -0.977 -0.077 97 105 66
45.5345 16.8832 -49.7948 -0.206 -0.975 -0.079 89 97 57
45.6118 16.8673 -49.8503 0.012 -0.999 -0.053 98 106 67
40.7723 34.7164 -53.9152 0.900 -0.394 0.186 37 15 23
45.5124 16.9273 -49.9164 -0.191 -0.979 -0.077 89 97 58
45.5631 16.8469 -49.9220 0.001 -0.999 -0.050 97 105 68
46.0137 17.1149 -50.4044 0.051 -0.937 -0.346 7 9 6
45.2337 20.1706 -51.3766 0.337 -0.660 0.672 72 76 42
45.2152 19.8850 -51.2344 0.333 -0.667 0.666 71 76 43
44.7315 10.2066 -46.5292 0.149 -0.970 0.194 7 9 5
45.2610 20.6041 -51.7224 0.186 -0.523 0.832 75 77 41
45.1804 20.1471 -51.4521 0.331 -0.649 0.685 73 76 44
45.2411 20.0722 -51.4678 0.320 -0.645 0.694 65 69 42
45.2355 17.1658 -50.1604 -0.750 -0.633 0.194 88 95 59
45.3885 16.7163 -50.0832 0.348 -0.902 -0.253 81 90 61
44.6902 10.1882 -46.5895 0.179 -0.972 0.152 32 36 24
44.7919 10.2485 -46.6992 0.481 -0.855 0.191 22 25 16
45.0765 20.2261 -51.5326 0.730 -0.229 0.644 75 77 41
45.1629 20.2200 -51.6002 0.556 -0.257 0.790 74 78 46
45.1843 20.0392 -51.5360 0.346 -0.580 0.737 57 61 34
45.2962 16.7942 -50.1637 0.020 -0.951 -0.308 88 98 62
45.3542 16.7310 -50.1824 0.348 -0.902 -0.253 81 89 62
44.7557 10.2408 -46.7687 0.513 -0.835 0.200 48 52 36
45.0826 10.7706 -47.2736 0.840 -0.343 0.420 20 24 10
31.5943 8.0997 -35.1735 0.738 -0.659 -0.147 46 43 28
44.9784 19.6054 -51.3010 0.829 -0.060 0.556 53 57 28
45.0750 19.6292 -51.3905 0.805 -0.053 0.591 26 29 8
45.0884 19.4311 -51.3115 0.781 -0.076 0.620 15 17 2
45.3085 16.7180 -50.2602 0.310 -0.911 -0.273 72 80 55
44.7131 10.2198 -46.8271 0.521 -0.835 0.177 65 70 46
44.8844 19.0045 -51.0785 0.780 -0.077 0.621 20 23 4
44.6902 10.2403 -46.9205 0.447 -0.894 0.031 60 66 40
44.7994 10.3156 -47.0440 0.529 -0.831 0.171 11 15 2
44.0713 18.6768 -51.2744 -0.619 -0.715 -0.326 71 75 42
44.1077 18.5401 -51.2391 -0.734 -0.623 -0.271 72 77 46
44.0200 18.6559 -51.3494 -0.717 -0.691 -0.092 71 74 42
44.0586 18.5247 -51.3182 -0.719 -0.692 -0.054 73 77 48
44.1004 18.4036 -51.2946 -0.706 -0.706 -0.066 77 82 57
43.9760 18.6554 -51.4404 -0.682 -0.727 -0.081 71 74 42
44.0080 18.5053 -51.3944 -0.706 -0.706 -0.066 72 77 49
44.0714 18.4439 -51.4173 -0.706 -0.706 -0.066 68 73 51
43.9963 18.8363 -51.6733 -0.837 -0.539 -0.093 70 73 43
43.9732 18.8959 -51.8121 -0.837 -0.539 -0.093 75 78 51
44.0556 18.1681 -51.5246 -0.796 -0.347 0.495 9 11 9
43.9689 19.0095 -51.9938 -0.827 -0.550 -0.117 84 86 63
44.0429 18.4908 -51.8002 -0.689 -0.506 0.519 4 7 1
44.0063 18.1517 -51.6029 -0.789 -0.350 0.505 6 8 6
52.2022 33.7851 -66.1223 -0.915 -0.145 0.376 94 90 67
43.9767 20.4281 -52.8321 0.075 -0.853 -0.516 65 68 39
43.9807 20.5763 -53.0435 0.075 -0.856 -0.511 61 64 35
44.0002 20.7716 -53.2925 0.151 -0.916 -0.372 59 62 33
43.9077 19.4679 -52.5627 -0.776 -0.609 -0.162 12 13 0
43.9254 19.2680 -52.4776 -0.787 -0.597 -0.153 13 13 2
2.4701 65.8778 -41.9312 -0.780 -0.143 0.609 53 67 32
51.7235 36.0431 -69.1183 -0.815 -0.572 0.089 16 251 231
44.2048 16.7473 -52.9700 -0.256 0.052 0.965 12 253 232
43.8321 17.2322 -53.0409 0.828 -0.174 0.533 10 13 13
43.9144 17.2241 -53.1068 0.894 -0.337 0.295 7 15 20
44.0584 17.3827 -53.3152 0.884 -0.291 0.367 1 36 38
44.1967 17.5237 -53.5092 0.882 -0.293 0.369 18 138 130
44.3094 17.3637 -53.5195 -0.174 -0.020 0.985 11 250 247
44.2059 16.8622 -53.1615 -0.175 0.051 0.983 12 253 240
43.7133 17.0244 -52.9569 0.830 -0.167 0.532 15 14 16
43.7789 16.9720 -52.9847 0.893 -0.334 0.301 12 15 20
43.9194 17.1230 -53.1866 0.884 -0.291 0.367 2 23 27
44.0695 17.2977 -53.4095 0.884 -0.291 0.367 11 93 94
44.1640 17.3207 -53.5028 0.822 -0.159 0.546 42 232 228
44.1987 17.1837 -53.4585 -0.129 -0.019 0.991 19 247 251
50.6450 33.3830 -67.7301 0.661 -0.613 0.432 86 249 158
50.6416 33.0537 -67.5492 0.682 -0.613 0.398 185 255 106
50.5426 32.6360 -67.4231 0.299 -0.295 0.907 179 255 111
50.1002 30.8712 -66.4438 -0.386 -0.424 0.819 76 246 190
47.4765 14.5835 -57.3413 0.627 -0.777 -0.052 54 61 45
26.5159 31.0914 -49.4687 0.678 -0.732 -0.062 51 54 27
1.4392 51.0379 -46.4120 -0.613 -0.629 -0.478 55 65 31
33.4197 32.3175 -63.7336 -0.907 -0.280 -0.314 5 8 1
41.5148 17.9592 -60.8861 -0.901 -0.186 -0.391 7 70 61
41.5239 17.5553 -60.7447 -0.902 -0.185 -0.390 31 104 92
41.4896 14.5713 -58.8929 -0.869 -0.230 -0.439 56 138 135
32.1342 21.6224 -56.5212 -0.947 -0.295 -0.125 105 113 62
31.3203 22.0658 -57.0276 -0.965 -0.123 0.233 9 8 14
31.0261 21.4873 -56.5813 -0.978 -0.099 0.184 7 9 7
21.2236 64.3977 -82.4362 0.758 -0.646 0.094 5 9 0
6.3652 84.6995 -86.2228 -0.973 -0.164 0.164 32 29 8
6.5654 83.8370 -86.0459 -0.971 -0.169 0.168 37 32 8
38.6019 34.3051 -76.3665 0.181 -0.809 -0.559 5 7 3
7.0263 81.8385 -85.5051 -0.957 -0.275 0.089 32 29 5
38.4919 34.0812 -76.2880 0.312 -0.830 -0.462 6 9 2
6.3283 83.6190 -86.6787 -0.947 -0.310 0.090 51 45 16
33.3618 25.1548 -63.8629 0.022 -0.983 -0.181 51 58 26
33.4119 24.6143 -63.4472 0.390 -0.921 0.015 70 77 42
33.4565 24.0294 -62.9877 0.771 -0.545 0.329 82 90 49
38.6023 33.4992 -76.3440 0.390 -0.076 0.918 13 15 11
38.6503 33.0736 -76.0253 0.422 -0.089 0.902 8 12 13
33.2963 25.1322 -63.9584 0.014 -0.983 -0.184 100 110 62
33.3164 25.0271 -64.0689 -0.306 -0.788 -0.534 94 105 48
31.9432 22.2509 -60.4322 -0.929 -0.258 -0.264 8 10 7
38.8868 31.6481 -75.6836 0.878 -0.424 -0.222 1 15 16
38.8133 31.6383 -75.8181 0.886 -0.415 -0.207 0 16 15
31.9779 21.9763 -60.5643 -0.992 -0.108 -0.067 12 15 5
20.7868 58.9204 -82.0415 -0.915 0.074 0.397 58 60 55
31.8121 27.8051 -65.7258 -0.983 -0.009 0.181 81 89 54
20.4363 59.8022 -82.7599 -0.896 0.086 0.436 15 17 16
20.7037 58.6575 -82.0149 -0.912 0.077 0.404 17 19 17
22.3722 33.4090 -61.4606 -0.040 -0.771 -0.635 8 12 10
22.8367 48.4721 -75.3903 -0.888 0.054 0.457 3 5 4
33.5289 18.4111 -59.4751 -0.825 -0.427 -0.370 8 10 7
22.9077 33.5221 -62.3082 -0.941 -0.324 -0.100 90 98 73
18.2180 51.0462 -73.7431 0.670 -0.695 0.260 63 69 60
25.8215 18.2532 -52.0330 0.316 -0.703 -0.636 7 10 2
32.4868 39.9092 -78.5814 -0.630 -0.366 0.685 13 15 13
19.7426 52.0943 -76.7954 0.820 -0.457 0.344 44 52 29
19.8120 48.6118 -74.4575 0.314 -0.377 0.871 6 12 1
19.9694 48.3142 -74.3456 0.306 -0.364 0.879 9 15 5
19.8901 47.3933 -73.6650 -0.001 -0.095 0.995 7 12 5
20.0574 47.0165 -73.4890 -0.018 -0.086 0.996 5 10 4
20.2229 46.6449 -73.3160 -0.012 -0.084 0.996 5 10 4
39.7766 4.5188 -54.5228 -0.273 -0.518 0.811 8 25 25
24.9191 21.9619 -55.4382 -0.945 0.036 0.325 24 27 20
24.8757 21.8034 -55.4068 -0.957 -0.025 0.290 8 10 8
6.8939 76.5389 -88.2614 -0.795 0.103 0.598 36 31 12
32.8000 10.9104 -53.8731 -0.936 -0.353 0.004 4 6 5
26.8851 46.0642 -82.8977 -0.350 -0.784 0.513 8 11 1
26.7861 46.0847 -83.0839 0.573 -0.733 0.365 47 55 34
33.3215 14.2955 -58.9926 0.582 -0.668 -0.464 8 11 5
20.0335 25.2719 -55.8133 0.185 -0.396 0.899 32 28 20
19.4796 33.3215 -64.4359 0.937 -0.328 0.120 6 12 4
32.1165 11.1908 -56.3345 0.517 -0.779 -0.354 20 25 18
28.8334 25.2274 -67.6990 -0.110 -0.560 0.821 94 104 52
26.2136 29.3922 -69.8206 -0.659 -0.749 -0.064 51 60 33
