ply
format ascii 1.0
element vertex 892
property float x
property float y
property float z
property float nx
property float ny
property float nz
property uchar diffuse_red
property uchar diffuse_green
property uchar diffuse_blue
end_header
50.4980 4.7945 -52.0977 0.462 -0.789 0.405 8 12 10
50.9904 5.1271 -52.6681 0.471 -0.868 -0.158 7 12 7
51.1401 5.2171 -52.8358 0.336 -0.914 -0.228 8 12 11
51.2704 5.2810 -52.9744 0.427 -0.855 -0.294 8 13 11
74.5695 30.1961 -84.6471 0.677 -0.713 0.185 9 13 14
75.4696 31.0548 -85.8176 0.743 -0.320 0.588 8 13 16
11.2304 110.4889 -74.4496 -0.740 0.008 0.672 65 65 45
44.3145 7.9681 -48.7877 0.483 -0.777 -0.403 5 10 12
44.3534 7.8991 -48.7839 0.469 -0.834 -0.291 5 9 12
50.7958 20.3818 -60.4407 -0.256 -0.711 -0.655 12 18 6
51.0070 20.6057 -60.7277 -0.374 -0.682 -0.628 43 50 32
51.1584 20.7044 -60.9017 -0.371 -0.683 -0.630 78 87 59
51.2963 20.7739 -61.0498 -0.351 -0.695 -0.627 78 88 52
51.2784 20.5255 -60.9077 -0.762 -0.519 -0.388 82 93 49
69.7205 43.9791 -87.9736 0.417 -0.646 0.639 87 97 62
69.9073 43.9975 -88.1353 0.439 -0.676 0.592 86 98 49
70.0341 43.9156 -88.1966 0.351 -0.720 0.599 91 103 55
70.4256 44.2712 -88.6981 0.198 -0.732 0.652 90 102 57
70.2663 43.7173 -88.2840 0.371 -0.677 0.636 89 101 57
70.5851 43.9503 -88.6634 0.551 -0.813 -0.190 90 101 62
71.0511 44.4204 -89.2844 0.670 -0.729 -0.138 65 74 46
101.0631 82.0478 -133.0532 -0.706 -0.703 0.091 64 71 53
50.5058 5.0441 -52.3320 0.571 -0.809 -0.141 8 14 2
50.6731 5.1608 -52.5282 0.553 -0.825 -0.121 10 15 8
50.8168 5.0343 -52.5803 0.533 -0.842 -0.082 7 12 9
51.3097 5.3610 -53.1497 0.427 -0.855 -0.294 10 15 8
73.3815 29.2294 -83.3862 0.678 -0.724 0.130 9 13 14
73.5197 29.2009 -83.4843 0.686 -0.726 0.056 9 13 14
74.1197 29.7149 -84.2370 0.683 -0.721 0.118 9 13 13
74.6381 30.1291 -84.8720 0.674 -0.724 0.144 9 15 14
75.2536 30.6530 -85.6424 0.733 -0.299 0.611 11 17 16
75.4666 30.7047 -85.8425 0.690 -0.197 0.696 6 12 9
9.7357 113.1922 -74.9677 -0.303 -0.232 0.924 71 78 44
10.6670 111.9640 -75.0940 -0.739 0.016 0.674 20 23 7
11.1073 110.2543 -74.5711 -0.739 0.016 0.674 50 52 33
44.3328 8.0729 -48.9573 0.488 -0.775 -0.400 7 9 11
44.3202 7.8925 -48.8539 0.466 -0.826 -0.316 5 6 10
50.7877 20.6684 -60.7262 -0.253 -0.714 -0.653 8 15 0
50.9631 20.8184 -60.9467 -0.250 -0.715 -0.653 37 45 21
51.1013 20.8895 -61.0962 -0.358 -0.693 -0.626 69 78 47
51.2529 20.9872 -61.2704 -0.362 -0.692 -0.624 81 92 55
51.2866 20.8420 -61.2230 -0.649 -0.608 -0.458 78 89 48
51.1636 20.3783 -60.8833 -0.762 -0.645 0.059 87 99 53
51.2776 20.3996 -60.9873 -0.450 -0.893 -0.030 81 93 41
69.0747 43.5857 -87.4795 0.199 -0.922 -0.332 6 10 8
69.5218 43.7509 -87.9296 -0.122 -0.984 0.130 86 97 59
69.6460 43.6658 -87.9871 -0.229 -0.924 0.308 88 100 50
69.8711 43.7485 -88.2136 -0.203 -0.951 -0.235 89 101 52
70.2069 44.0129 -88.6241 0.251 -0.683 0.686 86 97 55
70.3601 43.9738 -88.7289 0.620 -0.783 -0.054 86 96 59
70.6693 44.1901 -89.0929 0.567 -0.795 -0.215 77 86 57
72.4742 45.3558 -91.1678 0.545 -0.801 0.247 5 9 10
101.1248 82.2766 -133.6070 -0.736 -0.668 0.110 47 55 32
101.0885 81.7887 -133.3255 -0.683 -0.731 -0.005 14 20 7
50.4277 4.9703 -52.3310 0.536 -0.832 -0.138 10 15 8
50.5948 5.0870 -52.5276 0.533 -0.836 -0.134 9 14 11
51.0899 5.2103 -52.9954 0.394 -0.865 -0.309 5 11 4
51.3851 5.4880 -53.3796 0.399 -0.864 -0.307 16 23 6
72.4600 28.1844 -82.2945 0.701 -0.711 0.056 11 15 17
73.3338 29.0284 -83.4432 0.686 -0.726 0.056 7 12 10
73.9370 29.5472 -84.2033 0.683 -0.721 0.118 15 20 15
74.3916 29.8874 -84.7499 0.680 -0.718 0.147 13 19 14
74.8211 30.1954 -85.2595 0.680 -0.683 0.267 9 16 8
75.2537 30.5043 -85.7720 0.589 -0.192 0.785 10 18 6
75.2919 30.3532 -85.7251 0.561 -0.185 0.807 11 19 6
10.9999 109.9176 -74.6516 -0.776 0.034 0.630 40 43 25
64.3544 57.1082 -90.8715 0.409 -0.783 -0.469 246 254 36
44.1373 9.3090 -49.5401 0.773 -0.534 0.341 6 252 249
50.7303 20.8553 -60.9216 -0.217 -0.706 -0.674 4 10 1
50.9088 21.0123 -61.1490 -0.253 -0.714 -0.653 22 29 8
51.0713 21.1340 -61.3450 -0.253 -0.714 -0.653 59 68 38
68.7303 43.4018 -87.3372 0.209 -0.921 -0.329 3 6 10
69.8492 43.8157 -88.4667 -0.203 -0.951 -0.235 84 95 51
72.2770 43.7030 -90.3932 0.787 -0.538 0.302 4 8 8
101.3038 84.0074 -135.0384 -0.822 -0.391 0.413 95 107 61
100.8651 82.9100 -134.1102 -0.773 -0.461 0.435 96 106 70
100.8707 82.4783 -133.8909 -0.772 -0.459 0.439 67 76 47
101.0924 82.3676 -134.0146 -0.447 -0.872 -0.198 27 35 13
101.2844 82.2134 -134.0917 -0.373 -0.893 -0.252 12 18 6
101.5430 82.1568 -134.2737 -0.373 -0.893 -0.252 7 12 4
50.4597 5.0433 -52.4958 0.534 -0.832 -0.149 9 14 8
50.3164 4.7471 -52.2249 -0.525 -0.848 -0.075 9 13 11
71.9929 27.8642 -81.9424 0.674 -0.735 0.069 6 10 14
72.6122 28.4117 -82.7328 0.694 -0.715 0.080 15 19 19
73.2753 29.0064 -83.5835 0.694 -0.715 0.092 12 18 11
73.7550 29.3802 -84.1697 0.683 -0.721 0.118 23 29 20
74.0807 29.5699 -84.5344 0.670 -0.727 0.150 29 36 25
74.5130 29.8826 -85.0501 0.646 -0.754 0.121 29 37 21
74.9862 30.2399 -85.6224 0.460 -0.682 0.569 15 24 5
75.0933 30.1695 -85.6734 -0.094 -0.750 0.654 5 13 0
10.8520 109.8524 -74.8394 -0.778 0.034 0.628 27 30 11
34.1751 17.8078 -45.9200 0.901 -0.303 0.311 43 9 16
34.6588 19.2098 -47.0475 0.566 -0.556 0.609 44 10 16
43.4754 22.7993 -56.1405 -0.486 -0.557 -0.673 49 48 27
64.6589 57.5756 -91.6317 0.438 -0.771 -0.462 220 255 72
44.5130 9.7317 -50.1728 0.829 -0.556 -0.062 0 51 48
69.8281 43.8847 -88.7224 -0.223 -0.946 -0.233 87 97 61
71.7505 43.5380 -90.1159 0.724 -0.540 0.429 5 9 12
72.0874 43.5014 -90.3727 0.787 -0.531 0.316 3 8 6
73.2389 44.4425 -91.8067 0.767 -0.486 0.419 95 103 63
100.6028 83.1045 -134.3864 -0.612 -0.765 -0.203 91 101 61
100.6605 82.7475 -134.2474 -0.613 -0.761 -0.214 76 86 55
100.8031 82.5186 -134.2448 -0.625 -0.751 -0.214 39 47 23
100.9613 82.3136 -134.2674 -0.606 -0.768 -0.207 12 18 3
101.1663 82.1783 -134.3647 -0.606 -0.768 -0.207 10 15 7
71.8389 27.7273 -81.9398 0.664 -0.748 0.002 8 12 12
72.5724 28.4114 -82.8974 0.691 -0.718 0.084 13 18 12
73.0913 28.8359 -83.5439 0.691 -0.718 0.084 11 17 3
73.5739 29.2139 -84.1363 0.683 -0.721 0.118 40 47 28
73.9089 29.4154 -84.5157 0.670 -0.727 0.150 61 70 47
74.3585 29.7489 -85.0579 0.646 -0.754 0.121 69 79 53
74.8440 30.1212 -85.6497 0.460 -0.682 0.569 49 59 33
74.9776 30.0818 -85.7386 -0.104 -0.770 0.630 24 34 10
74.9913 29.9036 -85.6568 -0.398 -0.733 0.551 11 19 3
10.6904 109.8765 -75.0629 -0.805 0.024 0.592 18 21 3
44.3596 9.4591 -50.0107 0.824 -0.563 -0.058 0 60 53
51.1181 20.1239 -61.1488 0.830 -0.177 0.529 79 91 43
69.8306 43.9936 -89.0194 -0.218 -0.951 -0.221 86 95 67
71.9718 43.4155 -90.4726 0.779 -0.538 0.323 5 10 6
72.3128 43.6662 -90.8838 0.766 -0.490 0.416 10 17 4
72.7235 44.0226 -91.4076 0.775 -0.514 0.368 65 74 47
73.0438 44.2354 -91.7820 0.777 -0.488 0.398 95 104 64
73.4062 44.5108 -92.2238 0.749 -0.495 0.440 96 106 55
73.4480 44.2909 -92.1427 0.692 -0.520 0.501 97 107 53
101.1357 85.4053 -136.4211 -0.786 -0.595 0.168 94 104 54
100.5726 84.0994 -135.2742 -0.801 -0.558 0.214 93 103 55
100.8588 82.7422 -134.7971 -0.613 -0.761 -0.214 17 24 8
101.0635 82.6043 -134.8926 -0.613 -0.761 -0.214 10 16 6
71.1657 27.1563 -81.2829 0.651 -0.759 -0.006 8 12 11
71.6857 27.5913 -81.9377 0.664 -0.748 0.002 8 14 7
72.3906 28.2424 -82.8574 0.680 -0.733 0.036 13 20 6
72.9587 28.7261 -83.5772 0.699 -0.710 0.093 22 30 7
73.3471 28.9936 -84.0361 0.693 -0.708 0.135 65 74 44
73.7379 29.2614 -84.4971 0.670 -0.727 0.150 89 100 64
74.2045 29.6156 -85.0657 0.646 -0.754 0.121 98 110 73
74.5018 29.7691 -85.3901 0.638 -0.761 0.119 90 101 66
74.8822 30.0178 -85.8326 -0.104 -0.770 0.630 59 69 41
74.9277 29.8763 -85.7957 -0.359 -0.759 0.544 12 21 3
10.5515 109.7509 -75.2267 -0.814 0.022 0.580 21 24 4
43.3608 22.4199 -56.1309 -0.437 -0.546 -0.714 45 43 28
43.9839 9.0114 -49.5718 0.726 -0.660 0.193 16 246 251
44.0696 9.0412 -49.6579 0.776 -0.630 0.020 37 212 209
44.2226 9.2224 -49.8792 0.776 -0.630 0.020 0 50 40
69.3541 43.8913 -88.8126 -0.359 -0.832 -0.423 64 71 58
69.5189 43.8724 -88.9380 -0.374 -0.833 -0.407 81 88 71
71.3244 42.7742 -89.8424 0.777 -0.504 0.376 8 12 12
71.7292 43.1299 -90.3626 0.779 -0.538 0.323 3 8 2
72.1567 43.5175 -90.9183 0.775 -0.514 0.368 25 32 17
72.4743 43.7298 -91.2912 0.775 -0.514 0.368 83 92 63
72.7856 43.9300 -91.6526 0.777 -0.488 0.398 91 99 59
73.1952 44.2797 -92.1736 0.732 -0.508 0.454 94 104 54
73.3343 44.2100 -92.2511 0.691 -0.505 0.518 97 108 53
73.7461 44.5577 -92.7729 -0.597 -0.281 0.751 99 109 55
73.6765 44.1681 -92.5102 -0.648 -0.339 0.682 99 108 58
100.2435 84.2014 -135.4520 -0.814 -0.563 0.144 96 105 59
101.0714 83.1996 -135.6040 -0.617 -0.758 -0.211 10 15 5
101.2761 83.0594 -135.6982 -0.617 -0.758 -0.211 7 12 6
101.7690 82.9023 -136.0205 -0.546 -0.837 0.048 5 9 10
71.0093 27.0155 -81.2729 0.659 -0.752 -0.001 7 12 7
71.6015 27.5375 -82.0349 0.667 -0.745 0.010 10 16 3
72.2164 28.0821 -82.8273 0.680 -0.733 0.036 20 28 4
72.7623 28.5404 -83.5176 0.699 -0.710 0.093 57 67 33
73.1583 28.8178 -83.9893 0.693 -0.708 0.135 93 104 62
73.5883 29.1325 -84.5086 0.672 -0.728 0.131 102 115 67
74.0509 29.4827 -85.0734 0.646 -0.754 0.121 104 117 70
74.4498 29.7554 -85.5449 0.648 -0.751 0.129 101 113 72
74.8304 30.0043 -85.9889 0.646 -0.754 0.121 79 90 59
74.9259 29.9205 -86.0232 -0.109 -0.701 0.704 12 21 5
74.9958 29.8074 -86.0210 -0.398 -0.641 0.656 6 13 4
10.3851 109.8036 -75.4622 -0.814 0.022 0.580 28 31 10
43.9720 9.2242 -49.7793 0.490 -0.842 0.224 4 249 255
43.9660 9.0434 -49.6785 0.544 -0.838 0.051 17 249 251
44.0394 9.0449 -49.7397 0.538 -0.841 0.058 41 201 193
44.1221 9.0673 -49.8196 0.751 -0.647 0.129 0 39 23
44.2438 9.1769 -49.9779 0.751 -0.647 0.129 0 11 0
62.7778 39.9616 -81.5547 0.636 -0.769 0.055 38 45 25
63.1975 40.4609 -82.1649 0.534 -0.842 -0.081 70 79 51
71.2185 42.7024 -89.9551 0.747 -0.541 0.387 5 10 7
71.5359 42.9214 -90.3325 0.774 -0.533 0.342 1 6 0
71.9114 43.2287 -90.8045 0.775 -0.514 0.368 40 48 29
72.2268 43.4391 -91.1756 0.775 -0.514 0.368 84 94 63
72.6313 43.7855 -91.6922 0.756 -0.489 0.434 88 96 56
72.9045 43.9251 -91.9911 0.726 -0.488 0.485 91 101 53
73.1496 44.0199 -92.2431 0.758 -0.492 0.429 94 104 51
73.4211 44.1536 -92.5375 0.687 -0.537 0.491 95 105 52
73.4304 43.8854 -92.4029 0.682 -0.531 0.503 96 105 57
101.2067 83.5437 -136.2915 -0.603 -0.767 -0.218 7 12 8
101.1632 82.1525 -135.5181 -0.530 -0.847 -0.045 5 9 10
90.8421 51.7120 -110.8836 -0.437 -0.355 0.827 11 16 12
90.8972 51.4966 -110.8147 -0.432 -0.359 0.828 8 13 8
70.9587 27.0016 -81.4167 0.680 -0.732 0.038 5 11 2
71.5159 27.4822 -82.1301 0.680 -0.732 0.038 15 22 3
72.0856 27.9735 -82.8596 0.680 -0.732 0.038 43 53 20
72.5669 28.3558 -83.4583 0.699 -0.710 0.093 85 97 52
72.9705 28.6429 -83.9427 0.693 -0.708 0.135 103 116 62
73.4174 28.9784 -84.4884 0.672 -0.728 0.131 102 118 58
73.8979 29.3503 -85.0811 0.646 -0.754 0.121 111 126 70
74.2934 29.6196 -85.5494 0.648 -0.751 0.129 111 125 79
74.6742 29.8694 -85.9953 0.646 -0.754 0.121 74 85 54
75.3332 30.4394 -86.8400 0.586 -0.805 -0.089 13 22 4
44.0844 9.0541 -49.8866 0.497 -0.839 -0.223 16 56 33
44.1295 8.9909 -49.8900 0.486 -0.872 -0.061 14 28 7
51.5581 19.3965 -61.5612 -0.476 -0.675 -0.564 5 9 10
51.7560 19.3781 -61.7145 -0.479 -0.682 -0.553 4 9 1
62.6642 39.8626 -81.6270 0.636 -0.769 0.055 64 72 49
63.1140 40.4205 -82.2952 0.534 -0.842 -0.081 78 87 56
63.5097 40.8697 -82.8609 0.535 -0.841 -0.080 76 86 49
70.9521 42.3766 -89.8001 0.776 -0.517 0.361 6 11 8
71.3860 42.7806 -90.3731 0.774 -0.531 0.345 1 6 0
71.7602 43.0868 -90.8448 0.778 -0.513 0.364 45 52 32
72.0778 43.3015 -91.2211 0.778 -0.513 0.364 78 88 57
72.3906 43.5060 -91.5880 0.756 -0.489 0.434 87 95 56
72.6768 43.6671 -91.9098 0.726 -0.488 0.485 90 99 54
72.9187 43.7581 -92.1578 0.755 -0.492 0.433 92 102 50
99.2829 83.4897 -135.0725 -0.773 -0.619 -0.138 93 101 57
99.7161 83.6971 -135.5403 -0.770 -0.622 -0.142 93 101 62
100.0448 83.7433 -135.8358 -0.799 -0.583 -0.149 79 85 56
100.2030 83.5310 -135.8531 -0.799 -0.583 -0.149 42 47 26
100.6095 83.6927 -136.2744 -0.772 -0.600 -0.208 14 20 7
100.7783 82.1641 -135.5988 -0.888 -0.443 0.118 7 11 13
90.2845 51.3883 -110.5422 -0.207 -0.959 -0.194 9 14 11
71.5094 27.5214 -82.3410 0.695 -0.714 0.089 35 43 18
72.0080 27.9282 -82.9689 0.695 -0.714 0.089 68 79 40
72.4780 28.2974 -83.5531 0.694 -0.715 0.084 98 111 57
72.7835 28.4688 -83.8964 0.693 -0.708 0.135 102 116 54
73.2471 28.8248 -84.4684 0.672 -0.728 0.131 103 120 53
73.7453 29.2183 -85.0888 0.646 -0.754 0.121 111 126 66
74.1295 29.4750 -85.5424 0.646 -0.754 0.121 110 124 77
74.5185 29.7349 -86.0017 0.646 -0.754 0.121 66 76 47
75.2872 30.4333 -87.0078 0.596 -0.799 -0.085 13 21 7
-13.7399 147.0248 -76.1777 -0.757 -0.124 0.641 36 46 11
59.5600 45.4371 -82.2698 0.863 -0.386 0.326 10 247 238
59.7310 45.4631 -82.4249 0.864 -0.398 0.308 47 229 219
51.6280 19.6142 -61.8807 -0.476 -0.675 -0.564 5 9 8
51.8784 19.6950 -62.1308 -0.478 -0.679 -0.557 9 14 4
52.0150 19.7563 -62.2765 -0.478 -0.680 -0.556 45 53 33
52.1837 19.8782 -62.4811 -0.499 -0.676 -0.542 76 84 59
52.3575 20.0081 -62.6943 -0.503 -0.673 -0.542 79 89 55
67.5999 42.6973 -87.4411 0.816 -0.157 0.556 4 8 9
67.9288 42.9692 -87.8584 0.808 -0.152 0.570 4 8 5
68.2306 43.1917 -88.2268 0.808 -0.152 0.570 6 11 7
70.7832 42.2045 -89.8058 0.787 -0.550 0.280 7 11 9
71.1504 42.5045 -90.2699 0.774 -0.531 0.345 3 9 0
71.5157 42.7983 -90.7290 0.778 -0.513 0.364 60 68 47
71.8312 43.0109 -91.1034 0.778 -0.513 0.364 79 89 57
72.0263 43.0337 -91.2768 0.719 -0.442 0.536 90 97 60
72.1188 42.8965 -91.2797 0.062 -0.839 0.540 92 100 57
72.6634 43.4580 -92.0304 0.756 -0.488 0.436 92 102 53
72.6064 43.0892 -91.7856 0.772 -0.473 0.424 92 101 52
73.0487 43.4873 -92.3642 0.661 -0.746 -0.081 89 97 57
73.3589 43.6800 -92.7236 0.639 -0.758 -0.133 83 90 56
74.1750 44.6382 -93.9112 0.561 -0.790 -0.248 49 54 30
100.6695 83.9291 -136.8471 -0.757 -0.614 -0.223 8 13 6
100.6775 82.5976 -136.1403 -0.796 -0.580 0.174 3 7 8
90.6509 51.0605 -110.9592 -0.139 -0.948 -0.285 6 12 2
71.5684 27.6393 -82.6488 0.681 -0.715 0.159 61 70 40
71.8706 27.8114 -82.9906 0.679 -0.716 0.163 88 100 55
72.2957 28.1279 -83.5112 0.770 -0.531 0.353 102 115 57
72.5910 28.2880 -83.8409 0.765 -0.524 0.375 103 118 50
73.1774 28.7897 -84.5940 0.653 -0.741 0.152 105 122 52
73.5365 29.0200 -85.0140 0.653 -0.741 0.152 105 120 59
73.9333 29.2924 -85.4877 0.631 -0.775 0.034 104 116 73
74.4941 29.7534 -86.1979 0.598 -0.797 -0.083 54 64 38
75.2345 30.4193 -87.1662 0.599 -0.796 -0.086 8 15 4
-13.9077 146.8875 -76.3851 -0.756 -0.120 0.643 40 50 16
59.6908 45.1653 -82.4626 0.847 -0.428 0.315 47 102 73
43.9830 8.6395 -49.7900 0.489 -0.871 -0.041 1 9 7
51.7412 19.9179 -62.2842 -0.474 -0.681 -0.558 1 6 0
51.8446 19.9146 -62.3679 -0.474 -0.681 -0.558 7 13 3
51.9799 19.9729 -62.5112 -0.478 -0.680 -0.556 35 42 24
52.0829 19.9679 -62.5937 -0.478 -0.680 -0.556 67 75 51
52.2659 20.1163 -62.8251 -0.495 -0.678 -0.544 77 86 55
63.4338 40.9642 -83.2955 0.144 -0.487 0.861 77 88 45
63.6436 41.0574 -83.5193 0.683 -0.703 0.196 75 87 41
64.0172 41.4578 -84.0440 0.733 -0.640 0.229 79 90 47
64.4103 41.8904 -84.6023 0.739 -0.633 0.231 82 92 59
64.7727 42.2607 -85.1016 0.805 -0.544 0.238 45 52 31
67.1026 41.9420 -86.8571 0.818 -0.160 0.552 2 7 3
67.4214 42.2005 -87.2602 0.813 -0.157 0.561 2 7 1
67.7923 42.5456 -87.7529 0.812 -0.158 0.562 1 6 0
68.3616 43.2271 -88.5911 0.802 -0.135 0.581 4 9 2
68.2878 42.2186 -87.9866 0.345 -0.235 0.909 4 8 9
69.9027 41.4569 -88.9122 0.706 -0.578 0.409 4 8 11
70.5433 41.9194 -89.6912 0.787 -0.550 0.280 4 8 6
70.9283 42.2489 -90.1872 0.771 -0.526 0.360 14 20 10
71.2730 42.5117 -90.6140 0.778 -0.513 0.364 74 83 59
71.5863 42.7223 -90.9866 0.778 -0.513 0.364 85 95 59
71.7966 42.7699 -91.1862 0.719 -0.442 0.536 86 97 54
72.0084 42.8188 -91.3877 0.062 -0.839 0.540 90 102 55
72.2431 42.9021 -91.6268 0.743 -0.462 0.484 91 103 57
72.3514 42.7896 -91.6558 0.772 -0.473 0.424 91 102 59
72.7791 43.1670 -92.2129 0.665 -0.742 -0.083 85 94 60
73.3784 43.8024 -93.0510 0.561 -0.790 -0.248 55 64 37
100.5585 83.0089 -136.6579 -0.823 -0.543 0.165 5 9 10
90.4465 51.1654 -111.1369 -0.178 -0.937 -0.301 8 16 1
90.7523 51.2540 -111.4376 -0.186 -0.938 -0.292 15 24 3
91.0404 51.3201 -111.7115 -0.170 -0.943 -0.285 44 55 22
91.2465 51.2866 -111.8640 -0.189 -0.940 -0.284 82 95 51
71.7019 27.6572 -82.9657 0.679 -0.716 0.163 99 114 59
72.0339 27.8636 -83.3515 0.668 -0.733 0.127 103 119 57
72.4122 28.1230 -83.8042 0.667 -0.735 0.119 103 120 52
72.9086 28.5195 -84.4285 0.672 -0.728 0.131 107 123 58
73.3143 28.8058 -84.9183 0.672 -0.728 0.131 106 120 65
73.7672 29.1448 -85.4756 0.669 -0.732 0.127 103 114 77
75.8919 31.0311 -88.2494 0.599 -0.796 -0.086 6 12 11
50.4552 35.9860 -70.0692 0.511 0.148 0.847 0 54 58
50.5442 35.8737 -70.0822 0.524 0.127 0.842 29 177 175
50.5578 35.5462 -69.9161 0.528 0.125 0.840 20 244 239
50.6062 35.3211 -69.8342 0.549 0.104 0.829 9 253 251
50.7780 35.4472 -70.0449 0.690 -0.008 0.724 6 251 247
59.5665 45.0412 -82.5235 0.639 -0.764 -0.091 54 78 55
59.9204 45.1198 -82.8594 0.610 -0.786 -0.100 1 9 1
51.7269 20.1797 -62.5618 -0.495 -0.672 -0.551 3 8 2
51.8662 20.2459 -62.7130 -0.507 -0.669 -0.543 2 7 0
51.9741 20.2498 -62.8045 -0.505 -0.671 -0.544 15 22 7
52.1227 20.3323 -62.9723 -0.494 -0.679 -0.543 53 62 38
52.2068 20.2888 -63.0184 -0.505 -0.677 -0.536 77 86 56
52.3420 20.3438 -63.1603 -0.497 -0.679 -0.540 81 91 55
63.2720 40.7757 -83.2836 -0.098 -0.246 0.964 77 88 45
63.5049 40.9137 -83.5513 0.683 -0.703 0.196 76 88 42
64.2900 41.7840 -84.6732 0.800 -0.552 0.236 83 93 60
64.6017 42.0606 -85.0814 0.800 -0.552 0.236 30 38 17
66.7136 41.3730 -86.4588 0.812 -0.155 0.563 26 31 23
67.0211 41.6149 -86.8447 0.813 -0.157 0.561 20 26 16
67.3787 41.9402 -87.3171 0.812 -0.159 0.561 11 17 6
67.8395 42.4393 -87.9694 0.796 -0.132 0.590 7 13 3
68.3485 43.0154 -88.7031 0.809 -0.163 0.564 6 12 3
70.3051 41.6363 -89.5774 0.787 -0.550 0.280 4 9 6
70.6967 41.9780 -90.0870 0.771 -0.526 0.360 21 26 16
71.0641 42.2778 -90.5538 0.768 -0.522 0.371 79 87 64
71.3226 42.4036 -90.8361 0.759 -0.527 0.382 86 96 61
71.5685 42.5081 -91.0965 0.723 -0.441 0.532 85 96 53
71.8110 42.6059 -91.3504 0.008 -0.767 0.642 86 98 53
71.9424 42.5301 -91.4182 0.746 -0.465 0.476 88 99 57
72.1737 42.6085 -91.6524 0.766 -0.495 0.410 87 97 59
72.7180 43.1660 -92.4053 0.620 -0.768 -0.163 69 78 48
73.4884 44.0635 -93.5298 0.562 -0.790 -0.245 32 40 18
89.7912 51.0035 -110.7974 -0.316 -0.782 -0.537 3 7 3
90.6194 51.4474 -111.7240 -0.342 -0.804 -0.487 14 23 3
90.8771 51.4766 -111.9534 -0.342 -0.804 -0.487 46 57 28
91.1700 51.5474 -112.2344 -0.205 -0.903 -0.379 79 91 51
91.3263 51.4530 -112.3128 -0.202 -0.905 -0.375 98 112 61
91.2270 51.0531 -112.0140 -0.544 -0.482 0.687 100 116 56
71.9762 27.8420 -83.4906 0.716 -0.625 0.311 105 121 57
72.2507 27.9785 -83.7920 0.667 -0.735 0.119 106 123 56
72.6804 28.2968 -84.3205 0.679 -0.719 0.147 107 123 60
73.1441 28.6525 -84.8974 0.672 -0.728 0.131 110 125 73
73.4192 28.7836 -85.1963 0.622 -0.779 -0.083 102 113 77
74.3093 29.6320 -86.3934 0.608 -0.786 -0.114 29 38 18
10.5143 106.2788 -75.3861 -0.851 -0.044 0.524 32 34 14
24.4070 93.1243 -79.7542 -0.935 -0.077 0.345 50 52 31
52.3499 58.8538 -84.2862 -0.398 -0.447 0.801 45 46 30
52.8469 58.8214 -84.6810 -0.536 -0.808 -0.243 19 21 8
53.0266 58.8594 -84.8509 -0.550 -0.802 -0.231 14 17 7
50.2588 35.2300 -69.6870 0.522 0.123 0.844 5 71 77
50.3861 35.2321 -69.7938 0.520 0.122 0.845 40 208 210
50.4120 34.9441 -69.6586 0.549 0.104 0.829 21 241 240
50.5787 35.0583 -69.8591 0.512 0.113 0.852 10 248 253
50.5117 34.5117 -69.5058 0.509 0.114 0.853 5 249 253
59.4021 44.4597 -82.3017 0.590 -0.802 -0.099 3 19 7
59.5921 44.5315 -82.4985 0.599 -0.786 -0.154 1 11 9
59.3247 43.5648 -81.7502 0.701 -0.701 0.128 6 7 9
51.8342 20.4759 -62.9608 -0.532 -0.658 -0.533 4 9 1
51.9336 20.4621 -63.0358 -0.527 -0.662 -0.532 16 23 7
52.0820 20.5442 -63.2037 -0.501 -0.673 -0.544 47 54 32
52.1855 20.5374 -63.2858 -0.494 -0.679 -0.543 73 82 53
52.3040 20.5594 -63.3962 -0.497 -0.679 -0.540 84 94 57
63.4694 40.9661 -83.7752 0.686 -0.700 0.197 81 93 48
63.6187 40.9438 -83.8870 0.816 -0.519 0.255 80 91 50
64.4245 41.8482 -85.0483 0.799 -0.552 0.238 21 29 10
66.3233 40.8002 -86.0537 0.812 -0.155 0.563 57 64 49
66.6877 41.1436 -86.5431 0.812 -0.159 0.561 55 61 45
66.9829 41.3637 -86.9079 0.812 -0.159 0.561 45 51 35
67.3715 41.7418 -87.4363 0.814 -0.162 0.559 22 29 15
67.9665 42.4692 -88.3263 0.811 -0.166 0.562 10 16 5
68.2259 42.6175 -88.6224 0.645 -0.021 0.764 4 9 4
70.1679 41.5133 -89.6330 0.771 -0.526 0.360 3 8 5
70.4667 41.7088 -89.9875 0.771 -0.526 0.360 26 32 22
70.8202 41.9882 -90.4329 0.789 -0.470 0.397 83 90 69
71.1161 42.1741 -90.7798 0.769 -0.526 0.363 86 95 63
71.3398 42.2448 -91.0040 0.723 -0.441 0.532 87 97 58
71.6962 42.5211 -91.4502 0.008 -0.767 0.642 87 98 58
71.8142 42.4245 -91.4955 0.749 -0.502 0.433 90 100 63
72.2231 42.7775 -92.0272 0.587 -0.798 -0.136 81 90 58
72.7748 43.3462 -92.7947 0.563 -0.793 -0.234 44 52 29
99.0396 81.4656 -135.3511 -0.830 -0.550 0.089 6 10 11
90.7055 51.6245 -112.1848 -0.325 -0.779 -0.536 26 36 11
90.9991 51.6964 -112.4677 -0.325 -0.779 -0.536 74 86 49
71.5920 27.6204 -83.2502 0.282 -0.689 0.668 104 120 57
71.6163 27.4603 -83.1831 0.269 -0.680 0.682 107 123 58
72.1811 27.9429 -83.9146 0.687 -0.662 0.300 109 125 60
72.3921 28.0028 -84.1224 0.683 -0.721 0.115 105 121 60
72.7587 28.2453 -84.5587 0.646 -0.763 -0.007 109 123 73
73.3169 28.7104 -85.2753 0.622 -0.779 -0.083 85 97 63
74.2353 29.5928 -86.5181 0.608 -0.786 -0.114 12 20 3
75.1125 30.4200 -87.6966 0.608 -0.788 -0.098 6 13 8
75.2639 28.4717 -86.7613 0.534 -0.837 0.124 7 12 15
76.0421 28.9615 -87.6740 0.671 -0.643 0.369 10 16 13
16.5117 131.5191 -94.5289 0.535 0.001 0.845 62 66 33
52.5428 59.9080 -85.2852 0.680 -0.681 0.273 44 45 31
52.7974 60.2180 -85.6665 0.144 -0.980 -0.137 42 44 31
50.0678 34.8564 -69.5143 0.522 0.123 0.844 2 18 25
50.1502 34.7315 -69.5144 0.517 0.124 0.847 6 79 86
50.2626 34.6932 -69.5869 0.527 0.108 0.843 39 200 199
50.2807 34.3863 -69.4339 0.507 0.115 0.854 28 244 244
50.3261 34.1602 -69.3479 0.509 0.114 0.853 6 248 248
58.9609 44.3312 -82.0945 0.050 -0.981 0.187 42 55 36
59.0152 44.0924 -82.0088 0.609 -0.793 -0.032 16 33 22
59.1536 44.0488 -82.1001 0.631 -0.772 -0.076 3 17 14
59.0673 43.4914 -81.7232 0.677 -0.717 0.167 5 9 12
51.8292 20.7628 -63.2638 -0.576 -0.638 -0.511 5 10 5
51.9173 20.7255 -63.3166 -0.576 -0.638 -0.511 13 19 6
52.0445 20.7652 -63.4441 -0.575 -0.639 -0.512 39 47 27
52.1330 20.7283 -63.4975 -0.575 -0.639 -0.512 68 76 50
52.3507 20.7330 -63.6811 -0.606 -0.613 -0.507 83 94 51
63.6906 41.1995 -84.3125 0.809 -0.504 0.302 86 96 57
64.2818 41.7001 -85.0779 0.799 -0.518 0.306 16 24 7
66.0789 40.4804 -85.9044 0.719 -0.143 0.680 76 85 61
66.2918 40.5623 -86.1263 0.725 -0.149 0.673 75 83 58
66.5805 40.7740 -86.4822 0.853 -0.283 0.438 71 79 57
67.1728 41.5063 -87.3755 0.823 -0.231 0.519 43 50 31
67.5291 41.8264 -87.8469 0.805 -0.210 0.555 13 19 6
67.6226 41.4044 -87.6937 0.353 -0.121 0.928 1 4 2
69.9465 41.2559 -89.5445 0.795 -0.464 0.391 5 9 6
70.2566 41.4706 -89.9198 0.795 -0.464 0.391 39 45 35
70.5610 41.6737 -90.2841 0.790 -0.468 0.397 88 95 74
70.8532 41.8553 -90.6264 0.759 -0.351 0.548 86 95 64
71.1358 42.0196 -90.9513 0.745 -0.425 0.514 91 101 66
71.3971 42.1486 -91.2392 0.746 -0.418 0.518 90 100 66
71.6734 42.2993 -91.5514 0.752 -0.504 0.423 84 93 63
72.1469 42.7531 -92.1934 0.576 -0.801 -0.162 58 66 42
73.5276 41.0085 -92.3864 0.707 -0.692 0.147 40 44 27
71.7583 27.8672 -83.7218 0.075 -0.849 0.524 106 122 57
71.9994 27.7741 -83.8713 0.687 -0.662 0.300 105 121 58
72.2166 27.8419 -84.0890 0.683 -0.721 0.115 105 120 63
72.5756 28.0761 -84.5157 0.659 -0.752 0.002 107 121 73
73.2060 28.6270 -85.3414 0.612 -0.785 -0.100 70 81 49
74.0721 29.4491 -86.5115 0.615 -0.783 -0.091 10 19 3
74.8656 30.1799 -87.5712 0.613 -0.786 -0.081 9 16 11
75.1549 30.3188 -87.8877 0.660 -0.749 0.066 11 17 18
74.7673 28.1451 -86.3756 0.556 -0.829 0.066 6 12 11
-13.8929 144.5635 -76.8084 -0.751 -0.114 0.650 43 53 19
15.1140 132.2236 -94.1748 0.509 -0.543 0.668 62 66 31
15.4575 133.3782 -95.0963 0.229 -0.948 -0.220 64 68 33
15.6795 133.4704 -95.3319 0.190 -0.956 -0.225 66 70 35
17.4040 132.3464 -96.1495 0.431 -0.019 0.902 80 84 47
17.6019 132.7495 -96.5361 0.451 -0.026 0.892 80 84 47
58.8026 43.7610 -81.8784 0.610 -0.791 -0.047 4 16 15
58.9462 43.7309 -81.9814 0.646 -0.761 -0.061 3 12 17
58.7843 43.0006 -81.4447 0.524 -0.838 -0.154 4 6 7
58.6971 42.4479 -81.0680 0.752 -0.630 0.192 7 4 7
52.2377 20.3881 -63.5492 -0.835 -0.523 0.173 81 93 45
63.7928 41.2061 -84.6283 0.798 -0.507 0.326 56 64 38
64.1689 41.6078 -85.1626 0.798 -0.510 0.323 12 19 4
65.7986 40.0967 -85.6882 0.719 -0.143 0.680 80 90 57
66.0092 40.1764 -85.9074 0.725 -0.149 0.673 78 88 55
66.2483 40.3043 -86.1770 0.812 -0.563 0.153 80 89 60
66.7837 40.9414 -86.9735 0.812 -0.232 0.535 49 58 34
67.1697 41.3157 -87.5008 0.802 -0.207 0.560 8 14 1
69.8244 40.8786 -89.4712 0.850 -0.311 0.424 53 59 49
70.3066 41.3660 -90.1410 0.790 -0.468 0.397 83 90 70
70.5875 41.5313 -90.4659 0.759 -0.351 0.548 78 87 58
70.8089 41.6011 -90.6887 0.749 -0.391 0.535 84 93 63
71.0568 41.7111 -90.9557 0.749 -0.391 0.535 82 91 62
71.6112 42.2963 -91.7394 0.298 -0.941 -0.161 67 75 52
72.0977 42.7706 -92.4056 0.524 -0.817 -0.239 29 36 19
73.4788 43.7615 -94.1011 0.656 -0.754 -0.008 6 10 13
73.2866 40.7406 -92.2786 0.757 -0.636 0.150 51 56 34
73.6660 41.0280 -92.7527 0.742 -0.620 0.255 88 95 58
73.8583 41.0418 -92.9204 0.712 -0.651 0.263 88 97 49
71.8906 27.6918 -83.9353 0.689 -0.657 0.306 103 119 57
72.0419 27.6817 -84.0557 0.683 -0.721 0.115 104 118 64
72.4221 27.9416 -84.5154 0.659 -0.752 0.002 102 115 71
73.1207 28.5736 -85.4450 0.617 -0.781 -0.098 50 61 32
73.9774 29.3856 -86.6053 0.615 -0.783 -0.091 8 17 3
74.7665 30.1120 -87.6622 0.613 -0.786 -0.081 9 15 12
76.0923 28.9126 -88.1063 -0.291 -0.868 0.402 37 46 29
-13.3930 142.7184 -76.6233 -0.757 -0.124 0.641 29 39 5
9.9738 106.7358 -76.2106 -0.798 0.012 0.602 22 24 5
16.1751 131.1547 -94.8922 0.200 -0.033 0.979 77 81 43
16.3592 131.6303 -95.3089 0.192 -0.016 0.981 82 86 49
17.6646 132.5528 -96.9081 0.475 -0.831 0.288 71 75 40
18.8823 131.9313 -97.5801 -0.303 -0.952 -0.032 57 61 29
19.1217 131.8604 -97.7406 -0.303 -0.952 -0.032 56 59 29
20.7976 131.4286 -98.8998 0.727 -0.435 0.532 51 53 32
52.7743 60.8191 -86.5143 0.728 -0.628 -0.276 30 32 21
53.2800 62.0477 -87.6158 0.756 -0.610 -0.240 14 16 5
54.0609 62.9584 -88.7710 0.554 -0.825 -0.111 8 10 9
58.6069 43.4674 -81.7810 0.558 -0.820 -0.127 2 11 15
58.7487 43.0759 -81.6827 0.556 -0.821 -0.133 7 6 6
63.7058 41.7809 -85.1016 -0.398 -0.214 0.892 83 94 53
63.7564 41.2573 -84.8541 0.765 -0.580 0.280 49 58 33
64.0204 41.4482 -85.1800 0.765 -0.580 0.280 11 17 3
65.5017 39.6830 -85.4392 0.723 -0.152 0.674 75 86 44
65.7097 39.7599 -85.6552 0.768 -0.636 0.081 75 86 46
66.0617 40.0858 -86.1292 0.812 -0.566 0.145 82 92 58
66.4960 40.5503 -86.7484 0.812 -0.566 0.145 46 54 29
66.9378 41.0228 -87.3783 0.812 -0.566 0.145 7 14 0
69.5015 40.4593 -89.2053 0.851 -0.310 0.425 36 42 32
69.9095 40.8314 -89.7515 0.851 -0.310 0.425 65 73 54
70.3149 41.1955 -90.2911 0.753 -0.355 0.555 78 87 61
70.5611 41.3057 -90.5574 0.749 -0.391 0.535 80 89 61
70.8073 41.4144 -90.8230 0.749 -0.391 0.535 66 74 50
71.8772 42.5226 -92.3285 0.498 -0.849 -0.176 14 20 8
73.0894 43.2612 -93.7483 0.658 -0.753 -0.019 5 9 12
73.2712 40.8014 -92.5393 0.685 -0.723 -0.090 59 65 38
73.6254 41.0521 -92.9735 0.742 -0.646 0.181 91 99 57
73.9003 41.1853 -93.2764 0.725 -0.626 0.288 91 101 49
72.1114 27.8111 -84.3856 0.714 -0.594 0.370 103 117 66
72.2691 27.8075 -84.5151 0.659 -0.752 0.002 99 112 71
73.0771 28.5693 -85.6106 0.601 -0.792 -0.108 40 50 24
73.8796 29.3184 -86.6945 0.618 -0.782 -0.087 6 14 2
74.1977 29.4953 -87.0577 0.669 -0.743 0.039 12 18 17
76.0525 28.9107 -88.2816 -0.351 -0.779 0.519 80 90 62
76.1014 28.7759 -88.2478 -0.345 -0.780 0.522 72 82 53
-13.5800 142.6681 -76.8540 -0.757 -0.124 0.641 30 40 6
10.3368 104.6318 -75.6872 -0.798 0.012 0.602 37 39 15
16.1425 129.5691 -94.4062 -0.013 -0.977 -0.214 84 89 48
16.3204 130.0793 -94.8386 0.556 -0.635 0.537 82 87 47
16.7131 130.7578 -95.5440 0.477 -0.027 0.879 84 88 51
17.4916 132.3872 -97.1007 0.475 -0.831 0.288 61 65 32
18.4444 132.1541 -97.7672 -0.384 -0.924 -0.003 57 60 30
18.7084 131.7726 -97.7757 -0.356 -0.934 -0.029 57 60 32
18.9489 131.6857 -97.9284 -0.356 -0.934 -0.029 55 58 32
19.2785 130.4175 -97.4985 0.675 -0.266 0.689 55 57 32
19.4221 131.6228 -98.2887 0.670 -0.265 0.694 52 54 30
19.6431 131.8121 -98.5788 0.665 -0.253 0.703 52 54 31
52.2907 59.9989 -85.9240 0.728 -0.628 -0.276 39 39 27
52.6628 60.7508 -86.6532 0.728 -0.628 -0.276 21 23 12
58.3869 42.7569 -81.4298 0.531 -0.784 -0.320 9 6 9
58.5388 42.7505 -81.5532 0.475 -0.859 -0.189 11 5 6
58.7732 42.5777 -81.6530 0.188 -0.980 0.070 5 8 11
63.6985 41.8903 -85.3864 -0.409 -0.318 0.855 82 93 54
64.0773 38.4097 -83.7673 0.279 -0.831 -0.482 18 25 10
64.6300 38.8244 -84.4597 0.575 -0.816 -0.053 72 82 47
64.8158 38.8682 -84.6394 0.590 -0.807 0.012 79 91 46
65.2347 39.3204 -85.2409 0.719 -0.671 0.184 77 89 40
65.5389 39.5673 -85.6324 0.760 -0.644 0.087 79 90 45
65.9373 39.9752 -86.1922 0.765 -0.639 0.080 83 93 57
66.3531 40.4087 -86.7807 0.762 -0.647 0.034 36 45 17
69.1954 40.0655 -88.9649 0.852 -0.308 0.424 18 24 16
69.5841 40.4091 -89.4808 0.850 -0.305 0.430 46 52 36
70.0589 40.8853 -90.1424 0.753 -0.355 0.555 72 80 56
70.3150 41.0124 -90.4271 0.749 -0.391 0.535 66 75 49
70.6385 41.2434 -90.8258 0.785 -0.477 0.394 45 53 30
72.3007 39.7274 -91.3717 0.694 -0.713 -0.101 10 16 4
73.1154 40.6574 -92.5697 0.685 -0.723 -0.090 62 69 39
73.5818 41.0721 -93.1899 0.754 -0.642 0.137 88 97 51
73.9691 41.3682 -93.6783 0.728 -0.645 0.231 90 101 45
72.0560 27.7924 -84.5301 0.701 -0.460 0.545 102 116 67
72.3080 27.9004 -84.8008 0.653 -0.756 0.049 91 103 64
73.7812 29.2505 -86.7826 0.618 -0.782 -0.087 10 18 7
74.0255 29.3412 -87.0372 0.669 -0.743 0.039 10 16 15
75.8252 28.7010 -88.1850 0.501 -0.856 0.126 103 115 76
76.1144 28.8321 -88.4996 -0.364 -0.790 0.494 109 121 84
76.1544 28.6876 -88.4527 -0.388 -0.778 0.495 64 75 42
-13.8188 142.8078 -77.1479 -0.760 -0.144 0.633 37 47 13
-13.1384 141.0461 -76.7326 -0.760 -0.144 0.633 41 51 16
10.2093 104.4678 -75.8274 -0.774 0.034 0.633 26 29 4
12.4070 131.2171 -92.6202 0.560 -0.682 0.470 65 68 37
12.6000 131.4760 -92.9265 0.561 -0.663 0.496 65 68 37
16.3059 130.6841 -95.5858 0.231 -0.945 0.230 71 76 36
19.1024 130.3058 -97.7151 0.667 -0.377 0.643 54 56 35
19.2789 131.0506 -98.2791 0.698 -0.406 0.590 54 56 34
53.4979 62.9020 -88.8251 0.755 -0.612 -0.237 13 14 7
58.3214 42.7637 -81.6049 0.531 -0.784 -0.322 7 8 5
58.6917 42.5470 -81.7936 0.181 -0.980 0.080 2 7 10
63.7201 38.1602 -83.5502 0.276 -0.846 -0.457 22 27 18
64.4540 38.9043 -84.5805 0.163 -0.886 -0.434 67 76 48
64.5471 38.7837 -84.5910 -0.482 -0.851 -0.207 79 89 51
64.6913 38.7542 -84.6952 0.587 -0.809 0.004 79 91 43
65.0517 39.1046 -85.1928 0.714 -0.678 0.173 81 94 41
65.3697 39.3769 -85.6111 0.703 -0.706 0.084 80 92 44
65.7539 39.7615 -86.1477 0.765 -0.639 0.080 78 88 50
66.2730 40.3758 -86.9256 0.670 -0.720 -0.179 26 34 7
68.7967 39.5229 -88.5613 0.855 -0.310 0.417 7 13 5
69.2101 39.9084 -89.1228 0.855 -0.310 0.417 21 28 12
69.8291 40.6156 -90.0362 0.749 -0.391 0.535 32 40 19
70.0708 40.7214 -90.2977 0.749 -0.391 0.535 31 38 17
70.4041 40.9692 -90.7152 0.790 -0.499 0.356 21 28 11
72.2072 39.6731 -91.4999 0.671 -0.734 -0.105 17 24 9
72.9600 40.5138 -92.6000 0.685 -0.723 -0.090 84 91 59
73.4014 40.8930 -93.1814 0.747 -0.652 0.130 91 100 52
73.7635 41.1535 -93.6301 0.728 -0.645 0.231 87 98 41
73.8949 41.0778 -93.6978 0.719 -0.649 0.251 87 98 43
74.4105 41.5549 -94.3960 -0.121 -0.205 0.971 90 100 47
71.9767 27.9369 -84.7462 0.142 -0.800 0.583 104 118 66
72.2468 27.8751 -84.9377 0.660 -0.748 0.067 80 92 55
72.6484 28.1583 -85.4322 0.668 -0.739 0.082 19 29 7
73.2362 28.6577 -86.2033 0.680 -0.732 0.040 7 15 5
73.7103 29.0197 -86.8026 0.667 -0.743 0.062 10 16 15
73.3903 28.4526 -86.2177 0.603 -0.717 0.350 11 16 20
75.4036 28.4636 -87.9090 0.467 -0.882 0.069 104 118 69
75.7601 28.6711 -88.3234 0.498 -0.864 0.073 106 120 72
76.1024 28.8609 -88.7160 -0.431 -0.782 0.451 119 131 88
76.1476 28.7217 -88.6761 -0.376 -0.785 0.492 74 86 50
-13.3299 141.0178 -76.9688 -0.760 -0.144 0.633 35 45 11
12.0568 130.7310 -92.4736 0.496 -0.718 0.489 66 72 38
13.3988 128.7745 -92.4994 -0.307 -0.353 0.884 72 78 42
13.6820 128.2315 -92.4317 -0.198 -0.396 0.897 79 85 49
13.8941 128.3102 -92.6538 -0.189 -0.417 0.889 82 88 52
14.1113 128.3488 -92.8575 0.398 -0.413 0.819 82 88 53
14.3414 128.2728 -93.0077 0.398 -0.413 0.819 85 91 55
14.6043 127.8938 -93.0152 0.487 -0.500 0.716 91 97 59
14.7978 128.1593 -93.3266 0.471 -0.499 0.727 90 96 58
14.8783 129.5127 -94.1547 0.526 -0.558 0.641 89 96 55
15.0107 130.4068 -94.7681 0.159 -0.107 0.981 85 92 51
15.2538 130.2447 -94.8808 0.161 -0.106 0.981 80 87 45
16.1353 130.5288 -95.7795 0.297 -0.952 0.071 59 63 24
19.3209 131.1338 -98.7905 0.753 -0.161 0.638 42 43 28
19.5483 131.2296 -99.0350 0.753 -0.161 0.638 39 40 25
19.8250 130.6449 -98.9384 0.757 -0.167 0.632 37 38 23
51.4611 58.8281 -85.1066 0.295 -0.870 -0.394 38 38 28
51.9622 60.1037 -86.2436 0.111 -0.841 -0.529 28 28 18
52.4033 61.1302 -87.1903 0.302 -0.892 -0.337 17 17 9
58.1729 42.5777 -81.6023 0.541 -0.777 -0.322 4 8 8
58.5951 42.4818 -81.9024 0.146 -0.968 0.205 5 9 12
59.0340 42.7722 -82.4335 0.586 -0.797 0.143 2 8 1
59.2218 42.8429 -82.6307 0.526 -0.839 0.143 25 32 14
64.3740 38.8691 -84.7176 -0.433 -0.877 -0.206 72 82 47
64.5234 38.8485 -84.8312 -0.592 -0.798 -0.110 77 88 46
64.6898 38.8577 -84.9759 -0.590 -0.801 -0.103 75 87 38
64.8997 38.9429 -85.1998 0.714 -0.678 0.173 77 89 40
65.2090 39.2009 -85.6041 0.707 -0.690 0.156 77 88 45
65.5580 39.5253 -86.0790 0.673 -0.722 -0.160 65 75 41
68.5119 39.4334 -88.5041 0.802 -0.488 0.345 5 10 6
68.8223 39.6574 -88.8902 0.803 -0.487 0.344 7 12 5
69.1486 39.9042 -89.3024 0.803 -0.487 0.344 11 17 5
69.4782 40.1534 -89.7188 0.803 -0.487 0.344 10 16 4
69.8111 40.4052 -90.1395 0.803 -0.487 0.344 8 13 5
70.1644 40.6860 -90.5935 0.777 -0.572 0.262 7 12 7
72.0523 39.5283 -91.5258 0.672 -0.733 -0.105 29 37 15
72.7396 40.2746 -92.5214 0.622 -0.775 -0.114 79 90 53
73.1072 40.5476 -92.9830 0.726 -0.643 0.246 87 99 51
73.4569 40.7917 -93.4134 0.718 -0.652 0.245 86 98 46
73.7884 41.0068 -93.8123 0.718 -0.652 0.245 89 102 46
74.0448 41.1113 -94.0860 0.770 -0.559 0.309 87 100 45
72.1047 27.7538 -84.9531 0.571 -0.779 0.261 64 75 46
72.5913 28.1380 -85.5770 0.675 -0.734 0.078 13 21 8
73.0404 28.4747 -86.1428 0.672 -0.737 0.071 9 16 10
91.6758 48.2173 -112.8617 0.137 -0.803 0.580 7 13 12
75.3549 28.4518 -88.0705 0.491 -0.869 0.058 103 118 64
75.6656 28.6086 -88.4191 0.498 -0.864 0.073 102 117 64
75.9070 28.6870 -88.6655 0.495 -0.865 0.076 112 126 80
76.1015 28.7127 -88.8431 0.493 -0.865 0.093 67 76 43
-13.5585 141.1255 -77.2510 -0.760 -0.210 0.616 34 44 10
-13.0245 139.9041 -77.0097 -0.753 -0.213 0.622 48 55 22
9.9354 104.2589 -76.1578 -0.770 0.033 0.638 17 21 1
13.4954 128.2630 -92.7070 -0.205 -0.415 0.886 90 96 60
13.6555 128.7991 -93.1443 0.467 -0.500 0.729 88 94 58
13.8817 128.7631 -93.3139 0.467 -0.500 0.729 88 94 60
14.1565 128.2892 -93.2771 0.511 -0.545 0.665 87 93 57
14.3798 128.2777 -93.4581 0.511 -0.545 0.665 84 90 54
14.6007 128.2920 -93.6517 0.506 -0.539 0.673 84 90 52
14.6859 129.5877 -94.4552 0.577 -0.588 0.566 79 86 45
14.8767 129.9142 -94.7999 0.159 -0.107 0.981 71 78 37
15.8127 131.9387 -96.7295 -0.804 -0.573 0.155 59 63 26
16.0794 131.5616 -96.7405 -0.804 -0.573 0.155 57 60 27
53.6342 65.4896 -90.9591 -0.122 -0.639 -0.760 8 7 2
58.4606 42.3295 -81.9300 0.141 -0.970 0.197 6 10 12
58.9234 42.6763 -82.5146 0.586 -0.797 0.143 2 7 1
59.1328 42.7964 -82.7584 0.522 -0.830 0.196 38 45 27
59.3259 42.8776 -82.9664 0.471 -0.841 0.265 71 80 51
64.6990 46.5500 -89.5535 0.341 -0.696 0.632 30 33 26
64.7383 46.2831 -89.4358 -0.379 -0.408 0.830 50 54 43
63.5415 42.2792 -86.1689 -0.542 -0.133 0.830 78 85 50
63.2030 39.1781 -84.1329 -0.544 -0.268 0.795 5 8 13
63.9730 38.8338 -84.5851 0.168 -0.852 -0.495 64 72 52
64.1964 38.9474 -84.8369 -0.056 -0.984 -0.172 75 84 54
64.3486 38.9317 -84.9559 -0.522 -0.828 -0.205 74 84 49
64.3426 38.6337 -84.7825 -0.521 -0.831 -0.196 77 88 46
64.6060 38.8158 -85.1066 -0.598 -0.795 -0.101 76 88 41
64.7482 38.7817 -85.2068 0.714 -0.678 0.173 75 87 40
65.0655 39.0550 -85.6276 0.639 -0.761 -0.113 80 90 50
65.4555 39.4521 -86.1795 0.673 -0.722 -0.160 56 65 35
68.2925 39.1746 -88.4054 0.429 -0.745 0.510 6 11 8
68.5028 39.2396 -88.6188 0.749 -0.543 0.379 6 11 5
68.7279 39.3271 -88.8572 0.811 -0.532 0.245 5 11 2
69.1912 39.7914 -89.5086 0.813 -0.528 0.243 5 11 3
69.5535 40.0914 -89.9824 0.803 -0.487 0.344 5 9 6
70.0304 40.5686 -90.6525 0.781 -0.580 0.229 5 9 8
72.0325 39.5825 -91.7769 0.618 -0.777 -0.122 46 54 29
72.5246 40.0430 -92.4504 0.620 -0.776 -0.114 80 90 53
72.8577 40.2666 -92.8564 0.676 -0.716 0.176 86 98 53
73.2281 40.5423 -93.3232 0.687 -0.682 0.251 87 100 49
73.4045 40.5338 -93.4666 -0.175 -0.334 0.926 91 104 50
73.8361 40.8931 -94.0321 0.729 -0.633 0.261 83 96 43
74.1802 41.1229 -94.4508 0.620 -0.784 0.020 91 103 57
71.9889 28.0475 -85.2244 0.049 -0.831 0.554 106 120 67
71.9888 27.8548 -85.1156 0.503 -0.825 0.256 92 104 63
72.0507 27.7369 -85.1010 0.566 -0.784 0.254 41 51 26
72.2238 27.7509 -85.2542 0.567 -0.781 0.261 7 14 4
72.7773 28.2121 -85.9796 0.694 -0.710 0.119 6 12 8
91.3863 48.2155 -112.9081 0.159 -0.829 0.537 7 13 15
91.5757 48.1654 -113.0389 0.159 -0.801 0.577 10 16 11
75.2651 28.3943 -88.1720 0.491 -0.869 0.058 105 119 65
75.5712 28.5461 -88.5148 0.498 -0.864 0.073 106 120 68
75.8039 28.6151 -88.7492 0.502 -0.861 0.079 108 121 76
76.0477 28.6953 -88.9993 0.503 -0.859 0.095 57 66 35
-13.7447 141.0757 -77.4808 -0.753 -0.213 0.622 40 50 16
-13.2189 139.8903 -77.2499 -0.753 -0.213 0.622 37 44 11
-12.7001 138.7204 -77.0221 -0.753 -0.213 0.622 56 63 30
9.8220 104.0129 -76.2624 -0.743 0.040 0.668 25 29 8
11.5916 127.9832 -91.3617 0.182 -0.234 0.955 66 70 33
12.0814 127.5547 -91.5305 0.438 -0.462 0.771 71 78 38
12.3725 126.9636 -91.4398 0.723 -0.413 0.554 76 82 42
12.7824 127.1740 -91.9041 0.721 -0.423 0.549 89 95 57
12.9869 127.2906 -92.1423 0.723 -0.429 0.541 89 95 57
13.1968 127.3670 -92.3624 0.723 -0.429 0.541 92 98 60
13.4251 127.2902 -92.5108 -0.166 -0.425 0.890 91 97 61
13.6272 127.4432 -92.7676 -0.189 -0.400 0.897 83 89 53
18.2759 130.7867 -98.5770 0.513 -0.757 0.404 38 39 23
58.8129 42.5805 -82.5956 0.586 -0.797 0.143 2 8 0
59.0279 42.7138 -82.8523 0.507 -0.838 0.202 50 57 39
63.4880 45.6333 -88.2622 0.679 -0.686 -0.262 4 8 7
64.9038 47.4523 -90.4862 0.387 -0.627 0.676 7 9 10
64.8604 47.0138 -90.2007 0.118 -0.406 0.906 10 11 12
64.4464 45.5000 -88.9928 -0.428 -0.326 0.843 31 34 24
64.1295 44.5372 -88.1796 -0.557 -0.093 0.826 52 55 41
63.3140 38.3242 -83.9656 0.205 -0.845 -0.495 32 38 26
64.2630 38.8868 -85.0834 -0.518 -0.838 -0.172 71 82 44
64.1425 38.3839 -84.6965 -0.412 -0.878 -0.243 76 87 46
64.4266 38.6040 -85.0605 0.714 -0.677 0.177 80 91 47
64.6022 38.6299 -85.2229 0.719 -0.674 0.169 79 90 47
64.8242 38.7363 -85.4701 0.653 -0.749 -0.110 83 93 56
65.3225 39.3253 -86.2237 0.668 -0.721 -0.183 47 56 31
67.5935 38.9573 -87.9254 0.418 -0.828 0.375 6 11 9
67.9905 39.0548 -88.3147 0.397 -0.852 0.340 7 11 9
68.1076 38.9710 -88.3657 0.056 -0.967 0.250 4 9 5
68.7908 39.5211 -89.2528 0.592 -0.774 -0.223 4 9 3
68.9797 39.5487 -89.4274 0.807 -0.544 0.230 5 10 6
71.3564 38.9282 -91.0745 0.620 -0.773 -0.135 13 19 6
71.9390 39.5282 -91.9054 0.618 -0.777 -0.122 56 65 39
72.3415 39.8577 -92.4311 0.639 -0.767 -0.048 81 92 54
72.7082 40.1315 -92.8950 0.673 -0.719 0.176 84 95 51
73.0369 40.3470 -93.2939 0.683 -0.690 0.240 88 100 52
73.4352 40.6611 -93.8074 0.680 -0.679 0.276 91 103 54
73.7050 40.7865 -94.1056 0.627 -0.779 0.021 87 99 51
74.1252 41.1264 -94.6521 0.613 -0.790 -0.004 89 100 59
74.6676 41.6379 -95.3988 0.608 -0.794 -0.007 64 74 40
75.0917 41.9758 -95.9475 0.600 -0.800 -0.014 29 37 14
91.0513 48.6996 -113.1920 0.123 -0.668 0.734 8 13 15
90.9077 48.2637 -112.8236 -0.139 -0.842 0.521 6 12 14
91.1795 48.3088 -113.0779 -0.146 -0.853 0.501 6 11 12
91.2435 48.1146 -113.0215 0.159 -0.829 0.537 4 10 7
91.5630 48.2132 -113.3462 0.138 -0.805 0.576 12 19 10
75.1553 28.3144 -88.2438 0.533 -0.836 0.127 103 118 63
75.4356 28.4379 -88.5498 0.537 -0.835 0.120 106 120 68
75.5661 28.3938 -88.6345 0.509 -0.857 0.085 101 113 71
75.8695 28.5406 -88.9732 0.509 -0.857 0.085 47 55 29
-13.4009 139.8298 -77.4746 -0.741 -0.187 0.645 33 40 7
-12.8552 138.5665 -77.2134 -0.741 -0.187 0.645 53 60 27
9.6853 103.9086 -76.4272 -0.748 0.035 0.663 37 41 17
10.6765 120.8802 -86.9493 0.462 -0.857 -0.229 65 70 31
11.2172 127.7791 -91.3426 0.151 -0.175 0.973 70 74 37
11.4599 127.5826 -91.4350 0.182 -0.234 0.955 74 79 39
11.7920 126.6858 -91.2029 0.183 -0.474 0.861 83 90 48
12.0674 126.2184 -91.1683 0.370 -0.442 0.817 86 93 50
12.4946 126.2609 -91.5526 0.725 -0.423 0.544 90 97 55
12.7022 126.3364 -91.7705 0.725 -0.423 0.544 88 95 54
12.9103 126.4120 -91.9891 0.725 -0.423 0.544 88 94 56
13.1189 126.4878 -92.2082 0.725 -0.423 0.544 89 95 57
13.3259 126.5823 -92.4365 -0.140 -0.402 0.905 86 92 56
14.9693 129.8070 -95.6620 -0.529 -0.781 0.332 62 66 32
15.1247 130.4984 -96.1876 -0.574 -0.722 0.387 61 64 32
80.0702 96.3789 -131.4442 -0.640 -0.204 0.741 4 8 9
58.4559 42.2761 -82.3496 0.583 -0.801 0.135 4 9 4
58.7026 42.4848 -82.6765 0.586 -0.797 0.143 5 11 0
58.9529 41.9954 -82.6082 0.127 -0.461 0.878 68 78 42
64.8296 47.4468 -90.6720 0.320 -0.622 0.714 8 9 14
64.7170 46.8685 -90.2471 0.118 -0.406 0.906 8 9 14
64.0662 44.2132 -88.1831 -0.377 -0.791 -0.482 31 35 22
63.7572 42.9533 -87.2036 -0.722 -0.146 0.676 65 70 49
63.4307 38.6489 -84.4716 0.205 -0.845 -0.495 54 61 45
63.9123 38.9440 -85.0459 -0.039 -0.974 -0.223 75 84 55
63.9876 38.5008 -84.8564 -0.412 -0.878 -0.243 72 82 44
64.1261 38.4619 -84.9510 -0.412 -0.878 -0.243 78 89 48
64.2765 38.4440 -85.0675 0.714 -0.677 0.177 78 89 48
64.4500 38.4667 -85.2266 0.719 -0.674 0.169 78 89 50
64.6687 38.5680 -85.4687 0.693 -0.706 -0.148 75 85 54
65.2617 39.3249 -86.4004 0.670 -0.718 -0.187 33 41 21
67.4003 39.0123 -88.0243 0.259 -0.918 0.299 9 14 7
67.4973 38.8959 -88.0396 -0.120 -0.890 0.440 30 35 27
67.7101 38.9688 -88.2605 0.209 -0.948 0.241 35 40 32
67.8685 38.9522 -88.3846 0.023 -0.988 0.153 25 31 23
68.0241 38.9305 -88.5033 0.056 -0.967 0.250 20 25 17
68.1093 38.7955 -88.4980 0.445 -0.896 0.017 10 15 7
68.8490 39.7081 -89.6423 0.591 -0.774 -0.227 5 10 3
68.9530 39.5996 -89.6680 0.784 -0.558 0.274 5 9 7
71.2255 38.8176 -91.1367 0.622 -0.774 -0.116 22 28 13
71.7447 39.3249 -91.8638 0.639 -0.767 -0.048 65 74 48
72.0592 39.5262 -92.2438 0.729 -0.645 0.227 80 90 53
72.5361 39.9630 -92.8950 0.697 -0.674 0.243 80 91 48
72.8259 40.1227 -93.2303 0.677 -0.699 0.230 85 97 51
73.2151 40.4248 -93.7308 0.674 -0.708 0.209 87 99 53
73.5192 40.6007 -94.0874 0.644 -0.764 0.027 86 97 54
74.1497 41.2445 -94.9862 0.611 -0.787 -0.087 80 90 54
74.6758 41.7326 -95.7082 0.611 -0.787 -0.087 43 51 24
90.8890 48.5761 -113.2773 0.123 -0.668 0.734 7 12 14
91.0564 48.4998 -113.3748 0.123 -0.668 0.734 5 11 11
91.1221 48.3064 -113.3198 0.145 -0.650 0.746 4 10 6
72.4821 26.6395 -85.2449 0.462 -0.867 -0.184 2 10 1
72.8515 26.8775 -85.6920 0.452 -0.861 -0.234 23 32 15
74.1073 27.9338 -87.3532 0.738 -0.635 0.229 97 108 74
74.4520 28.1350 -87.7585 0.727 -0.648 0.226 103 116 74
74.4988 27.9988 -87.7202 0.684 -0.624 0.378 105 119 70
74.6277 27.9553 -87.8041 0.587 -0.793 0.163 107 121 68
75.1441 28.3447 -88.4615 0.504 -0.622 0.599 105 120 65
75.3136 28.3446 -88.6043 0.504 -0.622 0.599 116 129 80
75.4976 28.3601 -88.7681 0.625 -0.723 0.293 93 105 66
75.9466 28.6678 -89.3222 0.602 -0.799 0.000 36 44 21
-13.0831 138.6788 -77.4956 -0.743 -0.194 0.640 49 56 23
10.7556 126.6256 -90.7039 0.504 -0.726 0.467 74 78 41
10.8414 127.5940 -91.3320 0.604 -0.753 0.261 77 81 44
11.0476 127.6745 -91.5522 0.203 -0.429 0.880 83 88 48
11.4211 126.4763 -91.1801 0.178 -0.258 0.949 86 91 51
11.6465 126.4025 -91.3279 0.183 -0.474 0.861 88 95 54
11.9855 125.4382 -91.0609 0.399 -0.490 0.775 87 94 51
12.6487 125.2962 -91.5393 0.733 -0.385 0.561 82 89 48
12.8552 125.3720 -91.7571 0.733 -0.385 0.561 77 83 45
13.0622 125.4481 -91.9755 0.733 -0.385 0.561 71 77 41
13.3308 126.8547 -93.0092 -0.338 -0.878 -0.338 61 67 33
14.3622 125.4882 -93.0959 -0.384 -0.862 -0.331 59 65 31
14.5933 125.3746 -93.2258 -0.511 -0.770 0.382 60 66 32
43.2428 21.5042 -57.8180 -0.196 -0.963 0.185 5 9 8
58.3904 42.2824 -82.5256 0.586 -0.797 0.143 5 10 4
58.5923 42.3892 -82.7573 0.586 -0.797 0.143 10 16 5
58.7002 41.5796 -82.3839 0.049 -0.306 0.951 70 80 45
64.4583 46.8417 -90.2636 0.160 -0.390 0.907 6 7 9
64.5739 46.7236 -90.2934 0.118 -0.406 0.906 5 6 11
64.6432 46.5134 -90.2313 -0.337 -0.817 -0.468 4 5 10
63.9306 43.7489 -88.0437 -0.419 -0.786 -0.454 29 32 20
63.1491 38.5351 -84.3927 0.115 -0.823 -0.557 39 46 30
63.5820 39.0384 -85.0469 0.115 -0.823 -0.557 65 73 51
63.9048 39.0412 -85.3211 -0.063 -0.977 -0.204 76 86 51
63.8730 38.6923 -85.0940 0.023 -0.499 0.866 76 87 46
64.0974 38.5185 -85.1837 -0.403 -0.880 -0.253 78 89 49
64.5524 38.4687 -85.5392 0.693 -0.706 -0.148 69 78 53
65.2529 39.4163 -86.6743 0.650 -0.727 -0.221 24 30 16
67.0705 38.8419 -87.8790 0.465 -0.883 -0.055 10 16 3
67.3024 38.9483 -88.1359 0.259 -0.918 0.299 32 39 23
67.4077 38.8455 -88.1658 -0.120 -0.890 0.440 60 67 49
67.6196 38.9170 -88.3856 0.209 -0.948 0.241 66 73 55
67.7850 38.9117 -88.5222 0.056 -0.967 0.250 57 64 46
67.9405 38.8900 -88.6410 0.056 -0.967 0.250 46 52 37
68.1125 38.8945 -88.7888 0.452 -0.887 0.090 20 26 14
68.6515 39.2127 -89.4264 0.422 -0.906 -0.026 3 8 5
70.7128 38.3984 -90.6992 0.738 -0.663 0.128 3 8 2
71.1240 38.7504 -91.2483 0.738 -0.663 0.128 35 41 25
71.5410 39.1073 -91.8051 0.738 -0.663 0.128 72 80 54
71.9499 39.4488 -92.3462 0.735 -0.637 0.234 83 94 57
72.3468 39.7691 -92.8650 0.698 -0.676 0.237 78 89 48
72.6547 39.9561 -93.2322 0.748 -0.613 0.255 83 94 51
73.1129 40.3594 -93.8503 0.671 -0.709 0.217 83 94 52
73.4359 40.5630 -94.2398 0.643 -0.765 -0.030 68 78 39
74.0118 41.1289 -95.0506 0.648 -0.761 -0.032 43 53 22
74.7003 41.8512 -96.0462 0.612 -0.788 -0.066 16 23 2
90.8741 48.6238 -113.5849 0.170 -0.647 0.743 8 13 14
71.6395 26.0802 -84.4144 0.362 -0.930 -0.057 5 12 7
71.9432 26.2473 -84.7666 0.443 -0.880 -0.173 7 15 3
72.4244 26.6168 -85.3847 0.476 -0.860 -0.186 18 27 7
72.9388 27.0211 -86.0509 0.452 -0.861 -0.234 48 58 33
73.5127 27.4897 -86.8042 0.726 -0.649 0.228 89 100 68
73.9270 27.7728 -87.3164 0.726 -0.649 0.228 101 113 74
74.2402 27.9391 -87.6762 0.738 -0.588 0.331 103 117 71
74.1933 27.6977 -87.4981 0.679 -0.549 0.486 104 119 66
74.5784 27.9429 -87.9639 0.589 -0.730 0.345 104 118 64
74.8140 28.0184 -88.2060 0.589 -0.730 0.345 103 118 64
75.0311 28.0725 -88.4203 0.624 -0.735 0.264 115 128 80
75.3347 28.2216 -88.7622 0.625 -0.723 0.293 88 99 63
75.8150 28.5646 -89.3645 0.591 -0.806 -0.037 29 36 17
-13.2038 138.3993 -77.6438 -0.737 -0.195 0.647 43 50 17
10.8105 126.4607 -91.0651 0.528 -0.688 0.498 88 92 55
11.0171 126.5252 -91.2770 0.171 -0.269 0.948 87 92 52
11.2893 126.0950 -91.2590 0.178 -0.258 0.949 88 93 53
11.5625 125.6501 -91.2335 0.183 -0.489 0.853 92 99 58
11.8432 125.1397 -91.1765 0.399 -0.490 0.775 85 92 49
12.7792 124.5212 -91.6113 0.703 -0.523 0.483 65 71 33
13.2362 126.1138 -92.9161 -0.357 -0.843 -0.401 57 63 29
14.1082 126.1399 -93.6686 -0.390 -0.861 -0.327 57 62 30
14.3774 125.6937 -93.6389 -0.503 -0.768 0.396 58 63 33
14.8810 131.4494 -97.3839 0.704 -0.508 0.496 53 55 33
80.4322 99.9483 -134.6470 -0.720 -0.250 0.647 9 11 15
58.4711 41.2152 -82.2066 0.014 -0.299 0.954 68 78 43
58.4196 40.7551 -81.8977 -0.822 -0.470 0.322 67 78 40
58.5071 40.6091 -81.8875 -0.822 -0.470 0.322 72 83 43
58.3486 38.9263 -80.7831 0.440 -0.821 -0.363 36 45 26
62.2535 43.8679 -86.9348 0.675 -0.699 -0.234 50 56 41
64.1408 45.9945 -89.7570 0.001 -0.266 0.964 9 11 9
64.2563 45.8802 -89.7887 0.001 -0.266 0.964 8 9 10
63.0326 38.7265 -84.6286 0.036 -0.787 -0.616 29 36 22
63.4674 39.2362 -85.2902 0.022 -0.795 -0.606 56 63 42
