ply
format ascii 1.0
element vertex 868
property float x
property float y
property float z
property float nx
property float ny
property float nz
property uchar diffuse_red
property uchar diffuse_green
property uchar diffuse_blue
end_header
22.1846 74.0275 -20.6248 0.151 -0.928 0.342 70 80 30
26.8381 71.5130 -23.2445 -0.172 -0.973 0.152 82 89 38
29.9898 71.0238 -25.2591 -0.518 -0.854 -0.052 94 102 51
30.2553 70.9935 -25.4309 -0.287 -0.847 -0.447 111 120 67
13.6832 67.5625 -13.8282 0.402 -0.798 -0.449 98 109 70
13.7733 67.6520 -13.9066 0.402 -0.798 -0.449 84 94 54
13.8408 67.8613 -13.9937 0.352 -0.803 -0.481 94 97 57
13.9379 67.9186 -14.0704 0.092 -0.994 -0.063 75 73 37
14.0297 68.0056 -14.1493 -0.207 -0.973 -0.099 42 32 8
17.0807 70.4591 -16.6872 0.174 -0.983 -0.057 90 103 59
19.8259 66.3610 -17.7089 -0.362 -0.499 0.787 57 63 34
26.7452 71.5081 -23.3809 -0.172 -0.973 0.152 126 133 82
19.6194 65.5504 -17.5881 -0.362 -0.519 0.775 40 45 23
19.0110 72.0069 -18.4853 0.209 -0.959 -0.193 56 63 33
21.2684 73.7186 -20.3481 0.191 -0.953 0.233 61 72 29
21.3944 73.7142 -20.4319 0.195 -0.948 0.253 70 79 32
21.6486 73.6867 -20.5971 0.124 -0.952 0.279 68 78 28
21.7721 73.7115 -20.6851 0.081 -0.951 0.297 68 78 28
21.8924 73.7714 -20.7781 0.203 -0.928 0.313 80 90 40
22.0189 73.7705 -20.8629 0.203 -0.928 0.313 103 113 63
22.2546 72.6080 -20.7861 -0.220 -0.939 0.264 131 141 91
29.8039 71.0256 -25.5382 -0.509 -0.857 -0.079 112 120 69
29.9371 70.9702 -25.6165 -0.512 -0.855 -0.080 113 122 69
30.0633 71.4982 -25.8081 -0.082 -0.936 -0.341 115 124 71
14.0783 72.1884 -15.3970 -0.268 -0.892 -0.365 52 24 21
18.9139 72.0401 -18.6203 0.214 -0.966 -0.145 57 63 34
19.0139 72.1983 -18.7199 0.212 -0.970 -0.121 58 65 33
20.9336 73.6195 -20.3022 0.188 -0.954 0.233 69 80 41
21.5587 73.6370 -20.7264 0.124 -0.952 0.279 95 105 55
21.6852 73.6302 -20.8102 0.096 -0.953 0.286 118 128 76
21.8056 73.6883 -20.9030 0.115 -0.952 0.284 146 156 104
25.2596 71.7835 -22.8376 -0.288 -0.952 -0.103 86 93 42
13.7926 72.6191 -15.4830 -0.196 -0.921 -0.337 48 26 20
17.4404 67.0899 -16.7986 -0.490 -0.728 -0.480 87 100 54
18.8153 72.0836 -18.7568 0.241 -0.970 0.039 57 63 35
18.9213 72.1944 -18.8512 0.212 -0.970 -0.121 59 65 35
20.4457 73.7899 -20.2080 -0.047 -0.667 0.744 67 79 35
20.5804 73.6998 -20.2802 -0.047 -0.667 0.744 62 74 26
21.4682 73.5944 -20.8566 0.096 -0.953 0.286 154 162 111
21.5952 73.5823 -20.9397 0.096 -0.953 0.286 179 189 137
21.7155 73.6387 -21.0325 0.115 -0.952 0.284 182 192 140
23.7542 71.9917 -22.0660 -0.308 -0.946 0.099 92 96 45
25.1633 71.8283 -22.9817 -0.288 -0.952 -0.103 141 148 97
25.2951 71.7648 -23.0574 -0.279 -0.939 -0.201 180 186 138
26.4625 71.5694 -23.8037 -0.161 -0.960 -0.229 135 141 93
26.5919 71.5640 -23.8898 -0.171 -0.961 -0.215 137 145 96
26.7178 71.6367 -23.9896 -0.158 -0.973 -0.167 124 132 81
26.8477 71.6304 -24.0758 -0.158 -0.973 -0.167 97 105 54
26.9790 71.5953 -24.1571 -0.159 -0.974 -0.161 71 80 27
12.2694 65.0987 -13.0752 0.251 -0.878 0.408 75 87 40
15.5612 69.8297 -16.2845 0.285 -0.822 -0.494 101 116 57
17.2963 67.4541 -16.9594 -0.156 -0.895 0.418 89 102 55
17.4419 67.2346 -17.0118 -0.179 -0.866 0.467 82 96 47
18.7259 72.0562 -18.8851 0.241 -0.970 0.039 54 60 34
20.3822 73.5101 -20.3064 -0.146 -0.662 0.735 67 78 33
20.5096 73.4835 -20.3868 0.278 -0.660 0.698 62 72 25
20.6547 73.2969 -20.4457 0.114 -0.904 -0.412 70 79 34
22.7514 72.3224 -21.6572 -0.289 -0.949 0.126 115 123 77
25.0664 71.8798 -23.1270 -0.292 -0.950 -0.113 225 231 184
25.1978 71.8252 -23.2043 -0.279 -0.939 -0.201 202 208 161
25.3271 71.8046 -23.2873 -0.279 -0.939 -0.201 161 167 120
25.4566 71.7840 -23.3703 -0.279 -0.939 -0.201 113 119 74
26.7580 71.5490 -24.1995 -0.245 -0.945 -0.216 65 74 21
26.8838 71.6336 -24.3021 -0.504 -0.839 -0.205 70 79 26
35.8424 63.9632 -28.7461 -0.291 -0.416 0.861 130 138 79
35.9639 63.7987 -28.7937 -0.436 -0.385 0.813 126 134 75
17.3074 67.5358 -17.1671 -0.110 -0.468 0.877 80 97 45
17.4416 67.3914 -17.2273 -0.110 -0.468 0.877 80 96 45
18.4125 71.9102 -18.8369 0.186 -0.982 -0.024 39 44 21
18.6414 71.9920 -19.0088 0.254 -0.966 0.039 52 57 34
18.7466 72.1058 -19.1039 0.190 -0.889 -0.416 55 60 37
20.3006 73.3951 -20.4262 -0.146 -0.662 0.735 87 95 51
22.6521 72.3826 -21.8018 -0.324 -0.945 0.052 82 88 39
23.4351 72.0626 -22.2635 -0.361 -0.931 -0.052 80 86 39
23.5651 72.0166 -22.3416 -0.361 -0.931 -0.052 77 83 33
23.6930 71.9967 -22.4239 -0.362 -0.931 -0.042 91 98 47
23.8211 71.9757 -22.5060 -0.121 -0.958 -0.258 103 110 59
24.9714 71.9003 -23.2675 -0.183 -0.983 -0.017 118 124 80
25.1016 71.8660 -23.3482 -0.215 -0.967 -0.133 100 106 63
25.2297 71.8651 -23.4346 -0.279 -0.939 -0.201 110 115 73
25.3592 71.8445 -23.5178 -0.279 -0.939 -0.201 118 125 83
25.4890 71.8220 -23.6007 -0.403 -0.909 -0.104 160 167 126
35.6389 64.2305 -28.8587 -0.092 -0.493 0.865 123 131 74
35.7632 64.1060 -28.9164 -0.092 -0.493 0.865 124 132 75
17.2351 67.4315 -17.2794 0.061 -0.559 0.827 81 98 46
18.3296 71.8360 -18.9591 0.186 -0.982 -0.024 39 44 21
18.4391 71.9115 -19.0493 0.301 -0.952 -0.058 48 53 30
18.5459 72.0096 -19.1425 0.231 -0.973 0.001 52 57 34
18.6482 72.1448 -19.2406 0.164 -0.931 -0.326 55 60 37
18.8395 72.5292 -19.4519 0.111 -0.916 -0.385 46 50 33
18.9848 73.2936 -19.7133 0.532 -0.654 0.538 28 34 21
19.1903 73.6127 -19.9204 0.423 -0.680 0.599 13 19 5
19.7285 73.2444 -20.2061 0.533 -0.820 0.211 44 49 23
23.3338 72.1542 -22.4139 -0.375 -0.927 -0.003 84 90 44
23.5886 72.1306 -22.5813 -0.365 -0.927 -0.084 100 106 58
23.7187 72.0862 -22.6599 -0.219 -0.954 -0.206 127 133 85
23.8463 72.0750 -22.7439 -0.219 -0.954 -0.206 163 169 121
24.8763 71.9205 -23.4081 -0.183 -0.983 -0.017 129 135 91
25.0052 71.9072 -23.4924 -0.215 -0.967 -0.133 168 173 132
25.1347 71.8846 -23.5753 -0.276 -0.941 -0.196 216 221 180
25.2643 71.8640 -23.6586 -0.276 -0.941 -0.196 200 207 165
25.3944 71.8364 -23.7407 -0.294 -0.934 -0.203 147 154 112
25.5242 71.8136 -23.8238 -0.294 -0.934 -0.203 94 101 59
17.1493 67.4151 -17.4012 -0.170 -0.923 0.346 84 101 49
18.2417 71.7995 -19.0858 0.322 -0.929 0.184 39 44 21
18.3500 71.8830 -19.1772 0.299 -0.953 -0.040 49 54 31
18.4410 72.0975 -19.2851 -0.002 -0.974 -0.225 51 56 33
18.5576 72.1252 -19.3701 0.184 -0.929 -0.320 55 60 37
18.8529 72.6385 -19.6808 0.607 -0.754 -0.252 39 47 26
24.7811 71.9408 -23.5488 -0.183 -0.983 -0.017 218 223 182
24.9123 71.8935 -23.6275 -0.128 -0.991 -0.042 156 161 120
25.0376 71.9354 -23.7215 -0.148 -0.974 -0.169 104 110 66
25.1670 71.9184 -23.8055 -0.208 -0.969 -0.135 67 74 30
25.2978 71.8811 -23.8861 -0.322 -0.940 -0.113 47 54 9
25.4263 71.8821 -23.9734 -0.276 -0.941 -0.196 48 55 10
12.7119 67.8314 -14.6632 -0.334 -0.910 -0.246 67 80 37
18.1638 71.6905 -19.2036 0.346 -0.916 0.202 39 44 21
18.2665 71.8129 -19.2999 0.294 -0.954 -0.051 47 52 29
18.3584 72.0181 -19.4070 0.199 -0.978 -0.061 50 55 32
19.4231 73.1876 -20.3841 -0.294 -0.945 0.141 120 130 97
24.6845 71.9797 -23.6929 -0.166 -0.985 -0.040 72 77 37
24.9435 71.9377 -23.8595 -0.125 -0.991 -0.039 54 60 16
25.0727 71.9248 -23.9444 -0.125 -0.991 -0.039 59 67 19
25.2012 71.9226 -24.0312 -0.242 -0.970 0.025 64 72 23
26.8610 75.4352 -25.9221 0.003 -0.968 -0.251 112 123 63
12.6118 67.8891 -14.7882 -0.257 -0.938 -0.233 64 76 33
12.7201 67.8846 -14.8609 -0.343 -0.907 -0.246 35 47 13
12.8324 67.8615 -14.9321 -0.343 -0.907 -0.246 15 25 0
12.9481 67.8211 -15.0019 -0.330 -0.907 -0.262 31 41 18
18.1763 71.7920 -19.4288 0.294 -0.954 -0.051 43 48 25
21.2307 72.8179 -21.7306 -0.525 -0.826 -0.203 74 81 36
23.9423 72.1184 -23.4202 -0.190 -0.982 -0.010 202 207 166
24.0709 72.1017 -23.5040 -0.190 -0.982 0.001 139 144 103
24.2003 72.0766 -23.5865 -0.190 -0.982 0.001 82 88 44
24.3287 72.0661 -23.6715 -0.324 -0.946 0.020 55 61 17
24.4609 72.0041 -23.7477 -0.183 -0.983 -0.017 47 53 9
24.5898 71.9901 -23.8322 -0.142 -0.988 -0.068 54 59 17
24.9736 72.0012 -24.0956 -0.249 -0.968 0.021 82 91 40
10.5366 70.6046 -14.1589 0.482 -0.791 0.377 71 82 39
12.7330 67.9154 -15.0573 0.129 -0.913 -0.387 17 27 1
16.4294 69.5522 -17.9372 -0.473 -0.714 -0.517 92 109 57
20.1790 73.5742 -21.3827 0.123 -0.935 -0.334 84 92 45
20.3027 73.5847 -21.4692 0.116 -0.928 -0.353 76 83 39
23.5879 72.1926 -23.3968 -0.190 -0.964 -0.185 144 150 105
23.7158 72.1837 -23.4819 -0.190 -0.964 -0.185 75 80 41
23.8438 72.1748 -23.5671 -0.190 -0.964 -0.185 68 73 34
24.2362 72.0437 -23.8052 -0.332 -0.943 0.036 60 66 22
24.3652 72.0264 -23.8892 -0.142 -0.988 -0.068 71 77 33
24.4940 72.0136 -23.9740 -0.142 -0.988 -0.068 78 84 40
24.6250 71.9722 -24.0539 -0.117 -0.992 -0.053 86 92 46
24.7571 71.9135 -24.1309 -0.103 -0.987 0.127 93 99 49
24.8870 71.8893 -24.2139 -0.103 -0.987 0.127 101 110 55
13.9747 68.9185 -16.3100 0.443 -0.802 -0.401 50 66 21
14.0678 69.0121 -16.3945 0.443 -0.802 -0.401 45 62 17
14.1617 69.1042 -16.4791 0.456 -0.795 -0.400 48 65 20
14.2550 69.2007 -16.5644 0.456 -0.795 -0.400 62 79 34
14.3487 69.2975 -16.6500 0.456 -0.795 -0.400 73 90 45
20.5442 72.8100 -21.6615 -0.332 -0.928 0.168 63 70 29
20.6743 72.7578 -21.7385 -0.313 -0.939 0.144 66 73 32
20.7991 72.7545 -21.8228 -0.175 -0.968 0.178 70 76 37
21.8124 72.6284 -22.4855 -0.284 -0.940 0.191 194 201 149
21.9434 72.5732 -22.5624 -0.284 -0.940 0.191 181 188 137
24.9640 75.2515 -25.2223 0.379 -0.921 0.092 110 120 59
25.0947 75.2954 -25.3213 0.379 -0.921 0.092 114 124 63
25.6428 72.7803 -25.1311 -0.285 -0.924 -0.256 114 124 64
25.7703 72.8373 -25.2308 -0.280 -0.929 -0.241 117 128 70
33.0687 65.2297 -28.5016 0.128 -0.992 -0.009 120 130 69
14.7901 70.0904 -17.3171 0.224 -0.897 -0.382 100 115 58
19.9824 73.6259 -21.6628 -0.149 -0.962 -0.227 55 62 18
21.7147 72.6593 -22.6268 -0.370 -0.918 0.144 114 121 69
21.8488 72.5740 -22.6991 -0.284 -0.940 0.191 96 103 52
18.0829 72.3717 -20.2789 0.195 -0.828 -0.525 53 62 33
18.4048 72.6774 -20.5690 0.324 -0.852 -0.411 82 91 48
19.0360 73.4766 -21.1832 -0.379 -0.924 -0.050 65 74 30
19.1612 73.4643 -21.2660 -0.361 -0.931 -0.056 57 65 19
19.2959 73.3758 -21.3379 -0.371 -0.928 -0.034 58 66 18
19.4297 73.2944 -21.4108 -0.391 -0.838 0.381 59 67 20
21.3539 72.8080 -22.6154 -0.441 -0.891 0.103 103 113 63
21.6181 72.6785 -22.7665 -0.498 -0.854 0.149 115 124 75
21.7541 72.5748 -22.8358 -0.284 -0.940 0.191 137 146 98
22.5956 74.4768 -23.8460 0.264 -0.954 -0.141 49 57 16
22.7208 74.5257 -23.9428 0.264 -0.954 -0.141 60 68 29
22.8463 74.5748 -24.0399 0.264 -0.954 -0.141 69 77 38
12.3932 65.8298 -15.0699 -0.720 -0.462 -0.517 77 93 46
17.9798 72.4374 -20.4209 0.195 -0.828 -0.525 53 62 33
18.0825 72.5694 -20.5217 0.201 -0.827 -0.524 77 84 52
18.1919 72.6561 -20.6166 0.201 -0.827 -0.524 84 92 54
18.3016 72.7431 -20.7118 0.201 -0.827 -0.524 79 87 46
18.3365 73.3909 -20.8852 0.082 -0.947 -0.311 74 82 41
18.4540 73.4305 -20.9748 0.082 -0.947 -0.311 70 78 39
18.8139 73.5029 -21.2380 -0.093 -0.981 -0.171 56 64 24
18.9473 73.4258 -21.3115 -0.316 -0.948 0.036 52 61 18
19.0654 73.4685 -21.4023 -0.391 -0.838 0.381 50 58 12
19.2011 73.3729 -21.4732 -0.391 -0.838 0.381 57 65 16
21.2571 72.8268 -22.7551 -0.451 -0.887 0.097 112 122 72
21.3852 72.8022 -22.8371 -0.498 -0.854 0.149 136 145 98
21.5201 72.7110 -22.9085 -0.498 -0.854 0.149 146 155 108
21.6526 72.6435 -22.9836 -0.469 -0.880 0.069 134 143 96
21.7844 72.5824 -23.0598 -0.244 -0.963 0.117 99 108 61
21.9165 72.5189 -23.1356 0.023 -0.979 0.204 65 74 28
22.0438 72.5044 -23.2194 0.023 -0.979 0.204 47 56 11
22.1737 72.4646 -23.2992 -0.088 -0.931 0.354 50 59 14
22.2988 72.4757 -23.3874 -0.102 -0.929 0.355 60 69 26
22.4293 72.4312 -23.4665 -0.102 -0.929 0.355 64 72 30
22.6246 74.5197 -24.0823 0.264 -0.954 -0.141 84 93 51
22.7497 74.5731 -24.1803 0.108 -0.963 -0.248 89 97 56
22.8769 74.6047 -24.2748 0.263 -0.956 -0.132 96 104 63
23.0018 74.6672 -24.3747 0.264 -0.954 -0.141 100 109 63
23.9011 74.8950 -25.0432 0.314 -0.937 -0.155 116 126 66
24.0286 74.9545 -25.1442 0.314 -0.937 -0.155 116 126 66
30.7587 64.6906 -27.3841 -0.332 -0.796 -0.506 134 144 84
12.0600 67.9871 -15.5216 0.072 -0.874 -0.480 71 87 43
14.5123 70.1141 -17.6991 0.345 -0.873 -0.345 99 117 57
17.8765 72.5032 -20.5631 0.195 -0.828 -0.525 53 62 34
17.9792 72.6347 -20.6642 0.201 -0.827 -0.524 68 75 43
18.0885 72.7216 -20.7594 0.201 -0.827 -0.524 70 78 40
18.3507 73.4910 -21.1185 0.121 -0.955 -0.269 55 63 24
18.6011 73.4586 -21.2827 -0.297 -0.954 0.037 51 59 20
18.7170 73.5159 -21.3755 -0.308 -0.950 0.051 50 58 18
18.8369 73.5432 -21.4641 -0.366 -0.875 0.316 50 59 16
18.9723 73.4514 -21.5356 -0.391 -0.838 0.381 57 64 19
19.1081 73.3557 -21.6064 -0.391 -0.838 0.381 62 70 21
21.1585 72.8613 -22.8975 -0.451 -0.887 0.097 130 139 92
21.2869 72.8348 -22.9793 -0.498 -0.854 0.149 109 118 71
21.4219 72.7436 -23.0507 -0.498 -0.854 0.149 80 89 42
21.5536 72.6851 -23.1273 -0.469 -0.880 0.069 59 68 21
21.6876 72.6028 -23.2001 -0.233 -0.962 0.141 52 61 14
21.8247 72.4893 -23.2676 0.023 -0.979 0.204 53 62 15
21.9520 72.4748 -23.3516 0.023 -0.979 0.204 56 65 18
22.0811 72.4427 -23.4326 -0.078 -0.931 0.356 62 71 26
22.2052 72.4639 -23.5227 -0.240 -0.854 0.462 72 81 36
22.3380 72.3947 -23.5976 -0.246 -0.863 0.442 81 90 45
22.4193 74.2875 -24.0945 -0.283 -0.931 0.230 102 111 66
23.1194 75.2287 -24.7940 -0.094 -0.936 -0.340 110 120 63
23.6114 75.6805 -25.2367 0.217 -0.940 0.263 120 130 70
30.4180 64.8720 -27.3861 -0.331 -0.795 -0.508 128 138 78
30.5438 64.8752 -27.4731 -0.331 -0.795 -0.508 129 139 79
30.6701 64.8329 -27.5499 -0.332 -0.796 -0.506 128 138 78
11.9589 68.0449 -15.6479 0.027 -0.873 -0.487 73 88 44
17.8756 72.7000 -20.8069 0.201 -0.827 -0.524 50 57 24
18.7430 73.5318 -21.5983 -0.344 -0.939 0.018 58 67 24
18.8687 73.5159 -21.6809 -0.583 -0.776 0.240 69 77 31
19.0084 73.3903 -21.7474 -0.583 -0.776 0.240 68 76 27
21.1951 72.8037 -23.1113 -0.423 -0.898 -0.123 54 63 16
21.3266 72.7470 -23.1883 -0.481 -0.876 0.013 48 57 10
21.4563 72.7081 -23.2682 -0.507 -0.855 -0.110 52 61 14
21.5891 72.6390 -23.3431 -0.507 -0.855 -0.110 53 62 15
22.7483 75.3567 -24.7786 -0.423 -0.818 -0.390 104 114 62
30.0775 64.9716 -27.3694 -0.493 -0.687 -0.534 128 138 78
30.2035 64.9432 -27.4493 -0.493 -0.687 -0.534 127 137 77
30.4549 64.9830 -27.6313 -0.391 -0.783 -0.483 117 127 67
30.5812 64.9718 -27.7154 -0.391 -0.783 -0.483 117 127 67
16.9413 72.6635 -20.3545 -0.687 -0.701 0.191 46 54 30
19.3653 73.7461 -22.2789 0.043 -0.998 0.034 103 111 64
19.4898 73.7484 -22.3651 0.043 -0.998 0.034 98 106 59
20.7116 72.9178 -23.0082 -0.147 -0.985 -0.088 52 60 18
20.9618 72.9232 -23.1816 -0.423 -0.898 -0.123 44 53 8
21.0928 72.8722 -23.2596 -0.423 -0.898 -0.123 54 63 16
21.2261 72.8000 -23.3342 -0.481 -0.876 0.013 68 77 30
22.3916 75.3213 -24.7346 -0.363 -0.828 -0.427 112 122 69
22.6392 75.4855 -24.9439 -0.429 -0.816 -0.387 112 122 67
22.8973 75.5443 -25.1355 -0.663 -0.699 -0.269 123 132 73
29.1092 65.1898 -26.9492 -0.353 -0.762 0.542 140 149 92
29.8592 65.2766 -27.4857 -0.476 -0.706 -0.525 122 132 72
29.9853 65.2648 -27.5697 -0.482 -0.704 -0.521 123 133 73
30.1142 65.0403 -27.6050 -0.496 -0.687 -0.531 122 132 72
30.2383 65.2013 -27.7286 -0.323 -0.712 -0.624 114 124 64
30.4919 65.1093 -27.8812 -0.402 -0.743 -0.536 114 124 64
11.9681 68.1764 -16.0512 -0.126 -0.957 -0.259 63 77 42
16.8291 72.7812 -20.5036 -0.690 -0.708 0.151 45 53 29
16.9720 72.6311 -20.5660 -0.669 -0.739 0.080 41 50 23
17.1122 72.4972 -20.6305 -0.669 -0.739 0.080 37 45 21
17.2553 72.3423 -20.6919 0.003 -0.958 -0.287 30 38 15
18.3081 73.5104 -21.6972 0.208 -0.978 -0.030 82 90 51
19.2693 73.7468 -22.4160 0.041 -0.998 0.049 85 93 46
19.7181 73.1311 -22.5776 0.032 -0.999 0.013 113 121 80
20.6114 72.9628 -23.1526 -0.180 -0.981 -0.067 63 71 32
21.6918 74.8083 -24.3393 0.012 -1.000 0.008 108 118 65
21.8064 74.9621 -24.4550 -0.020 -1.000 -0.022 108 119 61
29.7676 65.4710 -27.6640 -0.476 -0.706 -0.525 119 129 69
29.8940 65.4595 -27.7483 -0.482 -0.704 -0.521 119 129 69
30.0215 65.3733 -27.8154 -0.492 -0.702 -0.515 119 129 69
30.1475 65.4003 -27.9087 -0.323 -0.712 -0.624 114 124 64
11.9474 68.3624 -16.2653 0.053 -0.881 -0.471 56 70 35
12.0479 68.3986 -16.3434 0.047 -0.885 -0.464 36 49 20
16.8956 72.5106 -20.6826 0.043 -0.959 -0.279 41 50 23
20.3743 73.1092 -23.2274 -0.295 -0.894 -0.338 66 74 39
21.1472 72.9355 -23.7185 -0.078 -0.979 0.189 108 117 70
21.4104 74.0764 -24.1761 -0.009 -0.993 0.117 110 120 70
21.7852 74.1786 -24.4594 0.163 -0.880 -0.447 112 123 63
21.9136 74.1815 -24.5487 0.165 -0.882 -0.440 112 124 62
28.9354 65.0787 -27.1903 -0.363 -0.764 0.533 123 132 75
29.0646 64.8887 -27.2336 -0.181 -0.791 -0.584 119 128 71
29.5503 65.6054 -27.7420 0.109 -0.760 -0.641 115 125 65
29.6752 65.6821 -27.8467 -0.482 -0.704 -0.521 115 125 65
11.8368 68.4617 -16.3973 0.012 -0.950 -0.311 64 77 43
11.9394 68.4883 -16.4747 0.012 -0.950 -0.311 38 50 20
12.0423 68.5151 -16.5523 0.012 -0.950 -0.311 35 46 20
17.7622 73.4098 -21.6994 -0.374 -0.858 -0.353 81 89 48
18.0021 73.4499 -21.8749 0.213 -0.916 -0.340 102 110 70
19.0073 73.3183 -22.5372 -0.355 -0.931 -0.088 90 97 52
19.0780 73.7418 -22.6896 0.027 -0.929 -0.369 77 84 41
19.1897 73.8469 -22.7924 0.079 -0.927 -0.368 66 73 32
19.6493 73.1512 -22.9400 -0.052 -0.999 0.003 51 59 20
19.7760 73.1339 -23.0233 -0.080 -0.997 -0.015 59 66 30
19.8891 73.2331 -23.1257 -0.268 -0.943 -0.195 66 73 38
20.0160 73.2169 -23.2094 -0.273 -0.942 -0.194 75 83 46
20.1403 73.2244 -23.2972 -0.289 -0.895 -0.341 84 92 55
20.2666 73.2162 -23.3824 -0.289 -0.895 -0.341 93 100 64
20.3931 73.2079 -23.4677 -0.289 -0.895 -0.341 101 109 70
28.3579 64.8394 -26.9270 0.207 -0.964 0.168 131 140 82
28.4713 65.1695 -27.0859 -0.303 -0.856 0.420 129 138 81
28.5970 65.1209 -27.1609 -0.687 -0.555 0.469 125 135 77
28.9739 64.9920 -27.3898 -0.191 -0.788 -0.585 113 122 65
29.2225 65.0304 -27.5709 -0.186 -0.789 -0.585 113 122 64
29.4596 65.6983 -27.8979 0.097 -0.760 -0.643 112 121 63
11.8554 68.4618 -16.5947 -0.009 -0.981 -0.196 55 65 31
11.9528 68.5136 -16.6749 -0.010 -0.979 -0.206 32 42 5
16.1325 74.6685 -21.0836 -0.037 -0.421 0.906 51 58 24
16.7490 73.8327 -21.3042 -0.187 -0.971 0.151 54 61 28
17.5668 73.2503 -21.7266 0.074 -0.941 -0.330 95 107 61
17.6801 73.3145 -21.8208 0.206 -0.914 -0.350 91 102 58
17.7940 73.3761 -21.9148 0.206 -0.914 -0.350 82 93 49
17.9082 73.4379 -22.0090 0.206 -0.914 -0.350 79 90 47
18.2468 73.6666 -22.2997 -0.311 -0.950 0.018 89 100 57
18.9750 73.7968 -22.8356 0.027 -0.929 -0.369 55 63 25
19.0917 73.8618 -22.9323 0.065 -0.927 -0.369 60 68 29
19.7979 74.2570 -23.5184 0.091 -0.934 -0.346 97 106 57
19.9189 74.3042 -23.6137 0.091 -0.934 -0.346 99 109 59
20.2651 74.6114 -23.9290 -0.059 -0.995 0.083 103 113 62
20.3935 74.6040 -24.0160 -0.103 -0.975 0.195 112 122 70
20.5961 73.9236 -23.9885 0.068 -0.998 0.016 112 122 69
20.9973 76.2041 -24.8281 0.180 -0.846 0.502 115 126 71
28.6312 65.1802 -27.3933 -0.649 -0.569 0.505 114 124 63
28.7590 65.0655 -27.4534 -0.346 -0.850 0.396 114 124 63
11.8647 68.5059 -16.7970 -0.078 -0.993 0.091 40 51 10
16.0437 73.8394 -21.0192 -0.067 -0.604 0.794 49 59 26
16.0927 74.3034 -21.1685 -0.109 -0.464 0.879 53 60 25
16.4143 73.8001 -21.2662 0.010 -0.472 0.881 56 64 25
16.5992 73.3854 -21.2911 0.097 -0.806 -0.584 58 66 28
16.7034 73.4991 -21.3916 0.068 -0.807 -0.586 58 65 30
17.2309 73.2260 -21.6892 0.065 -0.927 -0.370 93 101 60
17.8081 73.4693 -22.1497 0.206 -0.914 -0.350 83 95 49
18.1596 73.6023 -22.4263 -0.102 -0.992 -0.078 95 106 63
18.9879 73.9210 -23.0796 -0.034 -0.865 -0.500 72 80 41
19.1048 73.9873 -23.1770 -0.001 -0.873 -0.487 75 84 41
19.2223 74.0501 -23.2741 -0.006 -0.872 -0.490 85 94 45
19.3439 74.0835 -23.3666 0.045 -0.871 -0.489 91 101 49
19.5824 73.1545 -23.3009 0.205 -0.979 0.002 96 106 53
19.7167 73.0753 -23.3742 0.204 -0.979 0.008 102 112 60
19.6891 74.3583 -23.6742 0.100 -0.937 -0.334 104 114 62
19.8296 74.2402 -23.7422 0.071 -0.992 0.107 103 113 61
19.9535 74.2639 -23.8339 0.067 -0.990 0.123 103 113 60
20.0903 74.1775 -23.9072 0.061 -0.991 0.118 103 113 60
20.2030 74.3022 -24.0163 0.037 -0.995 0.096 105 115 62
30.6823 65.2885 -29.0361 -0.260 -0.745 0.615 109 118 65
11.7808 68.4780 -16.9171 -0.060 -0.994 0.097 52 63 20
15.3758 71.5006 -20.1703 0.056 -0.832 -0.552 94 107 54
16.5927 73.5984 -21.5412 0.068 -0.807 -0.586 95 103 66
18.9961 74.0836 -23.3308 -0.006 -0.872 -0.490 92 101 56
19.1150 74.1366 -23.4266 -0.006 -0.872 -0.490 99 108 58
19.2292 74.2299 -23.5292 0.088 -0.940 -0.330 103 113 60
19.3438 74.3230 -23.6321 0.126 -0.934 -0.334 104 114 61
19.4639 74.3736 -23.7282 0.126 -0.934 -0.334 105 115 63
19.5798 74.4618 -23.8307 0.103 -0.940 -0.326 106 116 63
19.6932 74.5749 -23.9378 0.111 -0.944 -0.310 107 117 64
19.7902 74.8311 -24.0694 0.116 -0.937 -0.328 107 117 64
30.5941 65.1797 -29.1448 -0.162 -0.784 0.600 102 111 58
11.8866 68.5794 -17.2017 0.006 -0.976 0.220 48 57 27
15.8627 73.0166 -21.0885 0.172 -0.787 -0.592 49 58 29
15.9321 73.3353 -21.2174 0.082 -0.803 -0.591 50 60 27
16.3461 73.7877 -21.6196 0.099 -0.804 -0.587 81 89 48
18.8817 74.2232 -23.4921 -0.051 -0.862 -0.505 103 113 63
19.4320 74.8821 -24.0413 0.024 -0.949 -0.315 105 115 62
30.1221 65.3416 -29.0550 -0.195 -0.907 0.374 89 98 45
30.2500 65.2661 -29.1248 -0.162 -0.784 0.600 81 90 37
30.3779 65.1870 -29.1937 -0.162 -0.784 0.600 72 81 28
30.5058 65.1079 -29.2625 -0.162 -0.784 0.600 65 74 21
10.6297 64.4211 -15.4508 -0.527 -0.722 -0.449 53 63 36
13.5798 70.1995 -18.9801 0.080 -0.994 -0.078 99 113 64
15.3579 71.8909 -20.6497 0.111 -0.981 -0.157 90 102 56
15.8427 73.2970 -21.3464 0.073 -0.799 -0.596 55 65 32
16.5909 73.1517 -21.8300 0.102 -0.985 -0.138 79 87 48
16.7031 73.2127 -21.9236 0.096 -0.986 -0.136 84 92 53
16.8440 73.9002 -22.1974 -0.140 -0.969 0.202 85 94 51
16.9720 73.8651 -22.2774 -0.140 -0.969 0.202 73 84 41
17.0967 73.8525 -22.3610 -0.166 -0.967 0.193 60 72 26
17.7343 73.7011 -22.7661 0.125 -0.928 -0.351 68 80 34
18.8451 74.7385 -23.8043 0.021 -1.000 -0.012 107 117 64
25.8707 66.3483 -26.5507 -0.001 -0.235 0.972 140 149 94
29.7788 65.3731 -29.0216 -0.217 -0.921 0.323 83 92 39
29.9062 65.3375 -29.1012 -0.211 -0.918 0.335 72 81 28
30.0335 65.3081 -29.1823 -0.195 -0.907 0.374 58 67 14
30.1619 65.1943 -29.2425 -0.162 -0.784 0.600 64 73 20
30.2897 65.1152 -29.3113 -0.162 -0.784 0.600 73 82 29
48.6732 75.3829 -44.7290 -0.060 -0.546 0.836 85 91 47
56.3632 85.6391 -52.7011 0.118 -0.387 0.915 73 80 38
10.5024 64.5960 -15.5829 -0.527 -0.722 -0.449 53 63 36
10.6500 64.4018 -15.6357 -0.510 -0.769 -0.386 56 67 36
16.3927 73.0324 -21.8627 -0.036 -0.843 -0.536 89 97 60
16.5062 73.0815 -21.9544 -0.110 -0.858 -0.501 81 89 50
16.7440 73.9250 -22.3376 -0.138 -0.917 0.375 54 63 20
16.8744 73.8737 -22.4152 -0.138 -0.917 0.375 51 63 17
18.0089 73.7027 -23.1620 0.375 -0.917 0.136 97 108 49
18.3287 74.0988 -23.4869 0.333 -0.927 -0.171 104 114 59
18.5266 74.4990 -23.7280 0.266 -0.921 -0.285 104 115 58
29.6901 65.3487 -29.1510 -0.217 -0.921 0.323 70 79 26
29.8174 65.3109 -29.2300 -0.211 -0.918 0.335 71 80 27
29.9448 65.2747 -29.3095 -0.195 -0.907 0.374 94 103 50
48.8684 75.1647 -45.0484 0.500 -0.632 0.592 77 81 43
49.0584 75.2875 -45.2124 0.169 -0.478 0.862 77 82 44
49.8553 78.7020 -46.6478 -0.169 -0.985 -0.015 70 74 38
52.7240 78.1132 -48.4956 0.257 -0.421 0.870 44 47 28
56.3543 85.2478 -52.8647 -0.352 -0.429 0.832 69 76 34
10.3949 64.6867 -15.7077 -0.463 -0.676 -0.573 53 63 36
10.5266 64.5606 -15.7668 -0.517 -0.767 -0.380 56 67 36
15.7649 72.5985 -21.5130 -0.154 -0.690 -0.707 51 61 27
16.3922 73.2010 -22.1076 -0.057 -0.855 -0.515 67 75 36
16.6534 73.8865 -22.4681 -0.177 -0.951 0.252 52 61 18
16.7830 73.8404 -22.5466 -0.131 -0.923 0.361 55 67 21
16.9131 73.7914 -22.6247 -0.131 -0.923 0.361 63 75 29
17.3245 73.4984 -22.8357 0.244 -0.968 -0.052 89 101 52
29.6013 65.3242 -29.2804 -0.217 -0.921 0.323 95 104 51
48.9122 75.0355 -45.2849 0.192 -0.521 0.832 60 64 31
10.2702 64.8483 -15.8395 -0.440 -0.664 -0.604 53 63 37
14.9140 72.8373 -21.1810 -0.114 -0.709 -0.696 91 103 57
16.1691 73.2408 -22.1642 -0.050 -0.853 -0.519 34 43 7
16.7016 73.7409 -22.6676 -0.009 -0.828 0.560 83 95 48
16.8780 73.3805 -22.6964 0.234 -0.971 -0.054 88 100 53
16.9954 73.4139 -22.7873 0.234 -0.971 -0.054 94 106 59
17.1037 73.5108 -22.8884 0.225 -0.974 0.002 95 107 58
17.2289 73.4947 -22.9717 0.224 -0.975 0.015 96 108 58
17.3520 73.4937 -23.0575 0.222 -0.975 -0.008 99 111 64
27.8655 65.7107 -28.3661 -0.172 -0.877 0.449 112 122 62
48.4631 74.9540 -45.1894 0.182 -0.489 0.853 60 63 35
48.7761 74.8373 -45.3777 0.192 -0.521 0.832 35 38 10
10.1330 65.0600 -15.9767 -0.439 -0.664 -0.606 50 60 35
14.7443 73.2716 -21.3772 -0.222 -0.681 -0.698 86 100 51
14.8838 73.1551 -21.4440 -0.242 -0.676 -0.696 82 95 48
15.3090 72.7600 -21.6372 -0.177 -0.813 -0.554 58 71 26
15.3416 73.2860 -21.7992 0.248 -0.756 -0.606 51 64 19
16.0566 73.3470 -22.3159 -0.054 -0.852 -0.521 54 67 20
16.7498 73.5946 -22.8667 -0.019 -0.824 0.567 100 110 58
16.8679 73.6249 -22.9574 -0.022 -0.829 0.558 101 111 58
16.9605 73.8293 -23.0763 -0.079 -0.941 0.329 102 112 60
27.0497 65.2716 -27.8761 -0.213 -0.921 -0.325 109 118 65
27.7778 65.6645 -28.4898 -0.172 -0.877 0.449 100 109 55
48.1754 74.8354 -45.1961 0.172 -0.479 0.861 33 36 18
48.3264 74.7474 -45.2786 0.182 -0.489 0.853 33 36 18
48.6379 74.6249 -45.4642 0.028 -0.568 0.823 31 34 16
10.0118 65.2036 -16.1079 -0.448 -0.733 -0.512 49 59 34
12.7212 69.9290 -19.2682 0.421 -0.778 -0.468 85 102 57
12.8244 69.9752 -19.3529 0.463 -0.771 -0.437 81 98 53
15.0029 73.3013 -21.7677 -0.015 -0.774 -0.633 72 86 37
15.2490 73.2668 -21.9311 0.248 -0.761 -0.600 60 74 25
15.6060 73.2943 -22.1887 -0.141 -0.876 -0.462 48 62 13
16.0604 73.4835 -22.5578 -0.023 -0.889 -0.457 87 101 50
16.6662 73.5108 -22.9898 -0.240 -0.909 0.339 100 110 57
27.5674 65.5677 -28.5138 -0.180 -0.927 -0.329 86 95 42
48.3513 78.4186 -46.5149 0.110 -0.347 0.931 38 42 21
48.5131 78.3584 -46.6123 0.102 -0.325 0.940 33 36 19
48.0391 74.6275 -45.2845 0.172 -0.479 0.861 33 36 19
49.9337 55.4931 -41.5078 -0.008 -0.912 -0.411 66 72 35
50.0877 55.5467 -41.6301 -0.008 -0.912 -0.411 70 76 38
50.2289 55.5462 -41.7289 -0.018 -0.906 -0.423 70 76 38
9.8919 65.3405 -16.2388 -0.410 -0.752 -0.516 49 59 34
14.6640 73.3203 -21.7369 -0.028 -0.754 -0.657 82 96 47
14.7808 73.3382 -21.8237 -0.039 -0.774 -0.632 80 94 45
14.8853 73.4294 -21.9216 -0.015 -0.774 -0.633 80 94 45
15.0360 73.2487 -21.9788 0.059 -0.721 -0.690 78 92 43
15.1295 73.4081 -22.0873 0.093 -0.753 -0.651 77 91 42
15.4942 73.3916 -22.3390 -0.141 -0.876 -0.462 82 96 45
15.6085 73.4324 -22.4302 -0.070 -0.881 -0.468 84 98 47
15.7233 73.4717 -22.5214 -0.070 -0.881 -0.468 84 98 47
15.8384 73.5111 -22.6128 -0.070 -0.881 -0.468 88 102 53
15.9566 73.5318 -22.7014 -0.067 -0.879 -0.473 89 103 52
26.7103 66.0174 -28.2304 -0.336 -0.419 0.844 105 114 61
48.3590 78.0638 -46.6729 0.113 -0.353 0.929 33 36 19
49.8722 55.5728 -41.6835 -0.008 -0.912 -0.411 62 68 34
50.0263 55.6266 -41.8062 -0.008 -0.912 -0.411 70 76 39
50.1758 55.6597 -41.9201 -0.013 -0.909 -0.417 70 76 38
50.3186 55.6638 -42.0214 -0.146 -0.967 -0.209 70 76 38
50.4605 55.6638 -42.1211 -0.146 -0.967 -0.209 70 76 38
11.0383 68.1702 -17.9916 0.426 -0.903 0.058 90 104 55
14.5155 73.6236 -21.9167 -0.008 -0.762 -0.648 82 96 47
14.7673 73.5579 -22.0759 -0.015 -0.774 -0.633 86 100 51
14.8943 73.5187 -22.1546 0.088 -0.746 -0.660 87 101 52
14.9984 73.6160 -22.2542 0.108 -0.750 -0.653 88 102 53
15.2878 74.0614 -22.5786 0.117 -0.868 -0.483 94 108 57
15.7394 73.5279 -22.7514 0.148 -0.845 -0.513 94 108 57
16.0318 73.9909 -23.0826 0.080 -0.837 -0.541 94 107 54
21.7641 72.0769 -26.5943 -0.093 -0.568 0.818 125 134 79
26.3580 66.2770 -28.2509 -0.291 -0.454 0.842 107 116 63
26.4934 66.0710 -28.2901 -0.336 -0.419 0.844 99 108 55
45.6980 75.7136 -44.4117 -0.223 -0.325 0.919 84 90 47
47.7451 78.0861 -46.4950 -0.014 -0.275 0.961 34 37 18
47.8804 77.8704 -46.5316 0.023 -0.297 0.955 28 30 15
50.1043 55.6980 -42.0787 -0.023 -0.915 -0.404 70 76 38
50.3987 55.7412 -42.2974 -0.153 -0.965 -0.211 70 76 38
50.5632 55.8307 -42.4373 -0.170 -0.958 -0.230 74 80 42
10.9782 68.5213 -18.2322 0.430 -0.902 0.027 95 109 60
45.5611 75.4703 -44.4887 -0.279 -0.298 0.913 73 77 40
47.4748 78.1125 -46.5594 0.140 -0.542 0.829 32 35 18
50.2624 56.0990 -42.4985 -0.107 -0.931 -0.349 65 71 33
11.0942 69.0653 -18.6520 -0.035 -0.947 -0.320 99 113 62
21.1049 71.7187 -26.4445 0.393 -0.611 0.687 126 135 78
21.2294 71.7317 -26.5359 0.389 -0.606 0.694 131 140 83
21.3564 71.7216 -26.6227 0.389 -0.610 0.690 150 159 102
24.4230 70.0307 -28.3190 -0.191 -0.979 -0.075 67 72 40
46.8900 78.3072 -46.4485 0.066 -0.436 0.897 32 36 9
47.0408 78.1822 -46.5204 0.066 -0.436 0.897 32 36 13
47.1857 78.0211 -46.5781 0.054 -0.435 0.899 32 35 16
50.6312 56.1851 -42.9825 -0.168 -0.984 0.055 68 74 36
50.7822 56.2151 -43.0973 -0.095 -0.989 0.111 68 74 36
50.8948 56.0905 -43.1424 -0.076 -0.995 0.057 68 75 35
10.0684 66.1573 -17.3078 0.167 -0.784 -0.598 79 90 47
12.0489 69.8679 -19.7391 -0.251 -0.940 0.232 86 104 56
20.7654 71.6557 -26.3932 0.294 -0.689 0.663 138 147 90
20.8947 71.6199 -26.4746 0.297 -0.702 0.648 136 145 88
21.0276 71.5511 -26.5494 0.393 -0.611 0.687 148 157 100
21.1520 71.5626 -26.6404 0.389 -0.606 0.694 162 171 114
24.4575 70.0186 -28.5455 -0.184 -0.983 -0.021 115 123 75
50.5771 56.2966 -43.1765 -0.171 -0.654 0.737 64 70 32
50.7080 56.2446 -43.2545 -0.139 -0.676 0.723 64 70 32
11.0355 69.0009 -18.9717 -0.042 -0.970 -0.239 95 108 63
11.1471 68.9915 -19.0480 0.534 -0.845 -0.032 92 105 63
20.8672 66.7097 -25.2836 -0.559 -0.829 -0.029 124 133 76
20.5559 71.5578 -26.4234 0.213 -0.727 0.652 138 147 90
20.6857 71.5156 -26.5034 0.294 -0.689 0.663 145 154 97
20.8150 71.4788 -26.5846 0.298 -0.695 0.654 158 167 110
20.9531 71.3613 -26.6493 0.389 -0.611 0.689 151 160 103
21.0773 71.3713 -26.7400 0.396 -0.607 0.689 132 141 84
50.8522 55.9964 -43.4885 -0.233 -0.614 0.754 71 78 35
20.7884 66.6110 -25.3948 -0.263 -0.955 -0.136 135 146 90
20.3511 71.4238 -26.4463 0.195 -0.735 0.650 133 144 88
20.4748 71.4327 -26.5364 0.213 -0.727 0.652 130 141 85
20.6062 71.3758 -26.6134 0.294 -0.689 0.663 128 139 83
20.7351 71.3408 -26.6948 0.298 -0.695 0.654 118 129 73
11.0299 69.1929 -19.4027 0.098 -0.975 -0.200 79 92 46
20.1312 66.4353 -25.0733 -0.003 -0.889 -0.458 124 137 81
20.6926 66.6574 -25.5350 -0.263 -0.955 -0.136 135 146 90
20.2653 71.3430 -26.5680 0.213 -0.727 0.652 126 137 81
20.3940 71.3078 -26.6492 0.213 -0.727 0.652 113 124 68
20.5269 71.2364 -26.7231 0.294 -0.689 0.663 103 114 58
24.0457 70.0409 -28.8787 -0.068 -0.998 -0.003 13 21 1
11.0653 69.1156 -19.5966 0.249 -0.961 -0.119 82 95 49
12.8533 71.3601 -21.5123 0.316 -0.813 -0.489 94 105 63
19.7965 66.5175 -25.0534 -0.053 -0.886 -0.460 124 137 81
19.9205 66.4630 -25.1258 -0.003 -0.889 -0.458 124 137 81
20.5967 66.7038 -25.6755 -0.263 -0.955 -0.136 107 118 62
22.5900 65.8603 -26.8492 -0.203 -0.846 0.492 107 116 63
22.7164 65.7896 -26.9187 -0.203 -0.846 0.492 107 115 64
22.8629 65.5062 -26.9413 -0.145 -0.963 0.226 107 115 64
11.7404 69.6710 -20.4292 0.152 -0.761 -0.630 50 62 23
12.9011 71.8197 -21.8778 0.201 -0.657 0.727 97 107 68
19.5716 66.6542 -25.1273 -0.065 -0.888 -0.455 124 137 81
19.8128 66.5999 -25.2832 -0.069 -0.885 -0.460 124 137 81
19.9319 66.5856 -25.3638 -0.003 -0.889 -0.458 122 135 79
20.5006 66.7504 -25.8162 -0.263 -0.955 -0.136 107 118 62
20.6100 66.8254 -25.9158 -0.510 -0.846 -0.157 108 119 63
22.4989 65.8725 -26.9837 -0.441 -0.897 0.018 107 116 63
22.6122 65.9371 -27.0831 -0.180 -0.948 0.261 107 115 64
22.7429 65.8240 -27.1433 -0.175 -0.955 0.240 107 115 64
11.5491 70.1378 -20.6227 0.098 -0.689 -0.718 57 69 33
12.6197 71.5887 -21.8095 0.392 -0.794 -0.465 89 99 64
19.7061 66.7267 -25.4391 -0.067 -0.887 -0.456 114 127 71
19.8259 66.7074 -25.5189 0.014 -0.891 -0.453 112 125 69
22.1682 65.8912 -26.9496 -0.446 -0.794 -0.413 106 117 61
22.2903 65.8637 -27.0285 -0.446 -0.794 -0.413 107 118 62
22.4125 65.8362 -27.1076 -0.446 -0.794 -0.413 105 114 61
22.5347 65.8087 -27.1866 -0.446 -0.794 -0.413 97 105 54
11.1040 69.1915 -20.2212 0.122 -0.946 -0.299 75 88 44
11.4592 70.1238 -20.7492 0.166 -0.780 -0.603 75 86 53
19.5837 66.9714 -25.6192 -0.071 -0.872 -0.484 108 121 65
19.7103 66.9028 -25.6893 -0.037 -0.903 -0.428 106 119 63
21.5625 66.2597 -26.8218 -0.175 -0.974 0.146 106 117 61
21.6851 66.2280 -26.9000 -0.154 -0.979 0.130 105 116 60
21.8006 66.2637 -26.9929 -0.204 -0.935 0.291 109 120 64
21.9254 66.2134 -27.0672 -0.204 -0.935 0.291 113 124 68
22.0561 66.1049 -27.1286 -0.361 -0.929 0.078 106 117 61
22.1781 66.0811 -27.2086 -0.362 -0.932 0.029 100 111 55
22.3030 66.0303 -27.2827 -0.362 -0.932 0.029 90 99 46
22.4257 66.0006 -27.3616 -0.360 -0.933 0.027 77 85 34
55.4177 72.4306 -52.8000 -0.536 -0.796 -0.281 52 55 34
10.2817 70.4806 -20.2084 -0.168 -0.957 -0.236 83 97 48
18.3083 67.0800 -24.9360 -0.494 -0.516 0.700 119 133 74
19.4562 67.2515 -25.8074 -0.074 -0.869 -0.490 103 116 60
21.2405 66.2038 -26.7717 -0.006 -0.877 -0.480 109 120 64
21.3667 66.1362 -26.8419 -0.114 -0.847 -0.519 110 121 65
21.4810 66.1785 -26.9361 -0.114 -0.847 -0.519 104 115 59
21.6028 66.1532 -27.0156 -0.416 -0.822 -0.388 100 111 55
21.7201 66.1705 -27.1046 -0.427 -0.822 -0.377 96 107 51
21.8423 66.1434 -27.1839 -0.427 -0.822 -0.377 90 101 45
21.9646 66.1164 -27.2633 -0.427 -0.822 -0.377 81 92 36
22.0870 66.0893 -27.3427 -0.427 -0.822 -0.377 72 83 27
11.0826 70.4871 -20.9784 0.243 -0.862 -0.445 50 62 25
17.9647 67.2185 -24.9269 0.539 -0.779 -0.322 121 132 76
18.3817 66.7461 -25.0841 -0.578 -0.610 0.542 114 128 70
21.1404 66.2887 -26.9219 0.017 -0.887 -0.461 106 117 61
21.2642 66.2454 -26.9976 -0.114 -0.847 -0.519 103 114 58
21.3785 66.2879 -27.0921 -0.114 -0.847 -0.519 94 105 49
21.4983 66.2818 -27.1760 -0.416 -0.822 -0.388 87 98 42
21.6192 66.2673 -27.2582 -0.423 -0.819 -0.388 77 88 32
21.7383 66.2712 -27.3446 -0.427 -0.822 -0.377 70 81 25
51.0439 54.7817 -44.8846 0.454 -0.891 0.024 47 54 16
51.2547 55.0429 -45.1136 0.116 -0.904 0.411 50 57 16
51.3948 55.0277 -45.2093 0.114 -0.907 0.406 54 61 20
10.9899 70.4837 -21.1070 0.245 -0.863 -0.443 75 87 50
12.5309 70.7180 -22.2823 0.391 -0.829 -0.399 35 43 30
17.6169 67.3822 -24.9226 -0.182 -0.969 0.169 124 137 83
17.7512 67.2606 -24.9823 0.036 -0.922 -0.387 121 134 80
17.8746 67.2117 -25.0560 0.231 -0.900 -0.369 119 132 78
18.7730 67.4682 -25.7773 -0.111 -0.806 -0.581 101 114 59
18.8876 67.4916 -25.8665 -0.086 -0.854 -0.513 101 114 60
20.3543 66.1698 -26.5195 -0.299 -0.846 -0.441 104 114 61
20.7010 66.2312 -26.7865 -0.281 -0.854 -0.438 106 116 64
20.8187 66.2365 -26.8725 -0.120 -0.853 -0.509 102 112 60
20.9270 66.3244 -26.9766 -0.012 -0.886 -0.464 99 109 57
21.0472 66.3124 -27.0591 -0.114 -0.847 -0.519 89 99 46
21.1613 66.3550 -27.1537 -0.114 -0.847 -0.519 81 91 38
21.2756 66.3976 -27.2486 -0.114 -0.847 -0.519 78 89 33
21.3965 66.3834 -27.3310 -0.416 -0.824 -0.385 74 84 31
39.4555 78.4732 -43.9204 0.126 -0.403 0.906 84 87 39
40.4160 74.8825 -43.5266 0.550 -0.823 0.141 31 35 19
12.3736 70.4644 -22.2908 -0.525 -0.795 -0.303 34 40 28
17.6517 67.3160 -25.1236 0.036 -0.922 -0.387 111 124 70
18.1365 67.1846 -25.4317 -0.428 -0.814 0.392 102 115 61
18.3449 67.3588 -25.6342 -0.103 -0.906 -0.411 101 114 60
20.1322 66.2828 -26.5905 -0.287 -0.848 -0.446 104 114 62
20.2442 66.3297 -26.6851 -0.281 -0.854 -0.438 103 113 61
20.3617 66.3342 -26.7708 -0.266 -0.859 -0.437 103 113 63
20.4791 66.3405 -26.8570 -0.281 -0.854 -0.438 96 106 56
20.5968 66.3460 -26.9431 -0.281 -0.854 -0.438 91 101 51
20.7093 66.3963 -27.0392 -0.124 -0.854 -0.506 81 91 39
20.8271 66.4040 -27.1261 -0.012 -0.886 -0.464 75 85 33
20.9439 66.4221 -27.2155 -0.114 -0.847 -0.519 66 76 23
21.0581 66.4648 -27.3104 -0.114 -0.847 -0.519 64 74 21
21.1725 66.5077 -27.4056 -0.114 -0.847 -0.519 71 82 26
39.5187 78.5523 -44.2350 0.226 -0.519 0.824 78 81 37
49.7578 54.8411 -44.3830 0.769 -0.416 0.484 34 35 21
51.9219 54.3616 -45.7910 0.216 -0.967 0.136 62 67 23
17.4360 67.3709 -25.1815 -0.182 -0.969 0.169 102 115 62
17.5414 67.4415 -25.2789 0.031 -0.920 -0.391 98 111 58
20.0260 66.4075 -26.7487 -0.278 -0.851 -0.447 98 108 58
20.1385 66.4514 -26.8430 -0.281 -0.854 -0.437 94 104 54
20.2568 66.4500 -26.9277 -0.281 -0.854 -0.438 90 100 50
20.3744 66.4556 -27.0139 -0.281 -0.854 -0.438 78 88 38
20.4922 66.4611 -27.1003 -0.281 -0.854 -0.438 72 82 32
20.6058 66.5036 -27.1950 -0.124 -0.854 -0.506 68 78 28
20.7263 66.4892 -27.2772 -0.114 -0.847 -0.519 63 73 21
20.8403 66.5321 -27.3723 -0.114 -0.847 -0.519 71 81 29
20.9545 66.5751 -27.4676 -0.114 -0.847 -0.519 82 92 39
21.0690 66.6181 -27.5631 -0.114 -0.847 -0.519 91 101 48
39.5580 78.3388 -44.4437 0.161 -0.628 0.761 77 79 40
39.7141 78.2698 -44.5348 0.167 -0.607 0.777 61 62 29
49.6093 54.5578 -44.3907 0.769 -0.416 0.484 31 30 8
10.9531 70.9176 -21.8041 0.207 -0.895 -0.396 29 37 16
12.0518 70.5625 -22.4857 0.477 -0.829 -0.294 26 32 20
12.4693 70.7629 -22.8481 0.537 -0.815 -0.218 35 49 26
17.2327 67.3451 -25.2237 -0.184 -0.968 0.171 105 118 65
17.3542 67.3085 -25.2999 -0.184 -0.968 0.171 102 115 62
17.4619 67.3630 -25.3942 -0.011 -0.922 -0.388 98 111 58
19.4441 66.5663 -26.5757 0.185 -0.981 -0.059 102 112 62
19.6795 66.5646 -26.7447 -0.114 -0.966 -0.231 101 111 61
19.7964 66.5716 -26.8311 -0.114 -0.966 -0.231 90 100 50
19.9219 66.5129 -26.9033 -0.201 -0.869 -0.453 82 92 42
20.0375 66.5327 -26.9926 -0.201 -0.869 -0.453 75 85 35
20.1554 66.5354 -27.0783 -0.199 -0.870 -0.451 68 78 28
20.2694 66.5710 -27.1714 -0.281 -0.854 -0.438 63 73 23
20.3873 66.5766 -27.2580 -0.281 -0.854 -0.438 68 78 28
20.5025 66.6067 -27.3502 -0.119 -0.853 -0.507 78 88 38
39.9084 77.9818 -44.8317 0.155 -0.680 0.716 32 34 22
40.0710 77.9875 -44.9505 0.162 -0.686 0.710 31 34 23
48.9571 53.9152 -43.9235 0.808 -0.370 0.458 32 33 19
50.6373 54.4514 -45.2987 0.190 -0.678 0.710 52 46 23
50.7681 54.4045 -45.3784 0.190 -0.678 0.710 49 42 22
6.2367 74.6420 -19.7590 -0.487 -0.662 -0.570 44 57 29
11.8653 70.4588 -22.5176 0.557 -0.799 -0.228 26 32 20
11.9803 70.4536 -22.5989 0.466 -0.832 -0.300 24 32 21
12.0973 70.4390 -22.6788 0.422 -0.845 -0.330 25 33 19
12.1918 70.5360 -22.7770 0.441 -0.832 -0.337 21 32 16
12.2834 70.6484 -22.8780 0.537 -0.815 -0.218 26 38 18
12.3800 70.7382 -22.9756 0.537 -0.815 -0.218 45 60 32
17.1528 67.2710 -25.3396 -0.117 -0.988 0.096 102 115 62
17.2637 67.3029 -25.4294 -0.184 -0.968 0.171 101 114 61
18.9997 66.5791 -26.4563 0.075 -0.930 -0.360 101 110 63
19.3566 66.5406 -26.7017 -0.210 -0.865 -0.455 95 105 55
19.5811 66.6214 -26.8887 -0.196 -0.851 -0.487 82 92 42
19.6958 66.6468 -26.9793 -0.196 -0.851 -0.487 64 74 24
19.8194 66.6033 -27.0549 -0.254 -0.850 -0.461 66 76 26
19.9293 66.6687 -27.1545 -0.249 -0.849 -0.466 68 78 28
20.0513 66.6396 -27.2335 -0.199 -0.870 -0.451 71 81 31
50.2562 54.3880 -45.2060 0.295 -0.914 0.278 45 36 6
11.8975 70.3998 -22.7209 0.427 -0.840 -0.335 28 34 22
12.0026 70.4431 -22.8103 0.422 -0.845 -0.330 26 34 19
12.0912 70.5678 -22.9133 0.432 -0.841 -0.326 25 36 19
12.1879 70.6550 -23.0105 0.432 -0.841 -0.326 40 52 28
12.2872 70.7310 -23.1060 0.472 -0.823 -0.316 70 85 52
12.3912 70.7853 -23.1981 0.556 -0.793 -0.250 96 112 72
12.4679 70.9773 -23.3136 0.559 -0.804 -0.203 101 117 70
18.7874 66.6110 -26.5099 0.207 -0.968 -0.139 103 113 63
18.8992 66.6481 -26.6023 0.207 -0.968 -0.139 98 107 60
19.3624 66.6964 -26.9519 -0.205 -0.869 -0.450 67 77 27
19.4777 66.7153 -27.0412 -0.205 -0.869 -0.450 66 76 26
19.5898 66.7611 -27.1364 -0.196 -0.851 -0.487 67 77 27
19.7066 66.7723 -27.2243 -0.249 -0.849 -0.466 74 84 34
19.8249 66.7724 -27.3098 -0.205 -0.869 -0.450 81 91 41
19.9417 66.7863 -27.3984 -0.203 -0.871 -0.447 87 97 47
51.6312 53.9388 -46.2599 0.328 -0.727 0.603 50 35 12
51.7705 53.9224 -46.3554 0.328 -0.727 0.603 50 35 12
51.9230 53.9542 -46.4755 0.212 -0.727 0.653 50 35 12
11.9061 70.4547 -22.9431 0.432 -0.840 -0.328 28 37 20
11.9980 70.5632 -23.0438 0.477 -0.823 -0.309 42 54 32
12.3014 70.7626 -23.3261 0.556 -0.793 -0.250 101 116 72
18.5757 66.6378 -26.5625 0.137 -0.983 -0.120 91 101 51
18.6964 66.6103 -26.6411 0.207 -0.968 -0.139 82 92 42
18.8082 66.6474 -26.7337 0.207 -0.968 -0.139 70 80 30
18.9245 66.6538 -26.8198 0.113 -0.933 -0.340 64 74 24
19.0358 66.6978 -26.9141 0.108 -0.933 -0.344 63 73 23
19.1480 66.7375 -27.0078 -0.150 -0.950 -0.273 68 78 28
19.2571 66.8015 -27.1069 -0.205 -0.869 -0.450 75 85 35
19.3726 66.8206 -27.1964 -0.205 -0.869 -0.450 81 91 41
19.4835 66.8758 -27.2940 -0.196 -0.851 -0.487 90 100 50
19.6014 66.8788 -27.3803 -0.207 -0.866 -0.455 92 102 52
19.7174 66.8984 -27.4704 -0.207 -0.866 -0.455 96 106 56
11.2538 70.4061 -22.6544 0.527 -0.617 0.584 24 30 17
11.3444 70.5128 -22.7539 0.546 -0.539 0.642 20 26 13
18.2577 66.5946 -26.5157 -0.007 -0.994 -0.113 83 96 44
18.3708 66.6180 -26.6051 -0.005 -0.985 -0.175 74 87 35
18.4826 66.6519 -26.6968 0.132 -0.983 -0.127 65 75 25
18.6054 66.6096 -26.7723 0.207 -0.968 -0.139 63 73 23
18.7172 66.6468 -26.8651 0.207 -0.968 -0.139 60 70 20
18.8279 66.6932 -26.9600 0.113 -0.933 -0.340 61 71 21
18.9396 66.7342 -27.0540 0.080 -0.947 -0.312 76 86 36
19.0489 66.7947 -27.1524 -0.150 -0.950 -0.273 78 88 38
19.1518 66.9050 -27.2620 -0.210 -0.866 -0.454 81 91 41
19.3768 66.9908 -27.4522 -0.196 -0.851 -0.487 98 108 58
19.4997 66.9571 -27.5305 -0.199 -0.869 -0.454 99 109 59
11.0823 70.2410 -22.6758 0.526 -0.605 0.598 25 33 13
16.9493 66.2576 -25.6559 -0.514 -0.790 -0.334 99 109 59
18.0443 66.6349 -26.5710 0.009 -0.983 -0.182 70 82 33
18.1617 66.6278 -26.6539 -0.005 -0.985 -0.175 60 72 24
18.2761 66.6428 -26.7417 -0.005 -0.985 -0.175 62 74 26
18.3903 66.6599 -26.8300 -0.005 -0.980 -0.201 74 84 34
18.5113 66.6302 -26.9083 0.173 -0.973 -0.150 77 87 37
18.6260 66.6462 -26.9966 0.207 -0.968 -0.139 81 91 41
18.7379 66.6834 -27.0897 0.207 -0.968 -0.139 86 95 48
18.8417 66.7811 -27.1963 0.113 -0.933 -0.340 100 109 62
18.9496 66.8519 -27.2972 -0.150 -0.950 -0.273 99 108 61
19.0456 67.0129 -27.4184 -0.210 -0.866 -0.454 99 108 61
19.3962 67.0464 -27.6835 -0.202 -0.879 -0.433 98 108 56
14.4750 66.9298 -24.2707 -0.597 -0.729 -0.335 106 118 68
14.6092 66.8128 -24.3304 -0.694 -0.666 -0.273 107 119 69
14.7292 66.7713 -24.4042 -0.764 -0.637 -0.103 107 119 69
14.8234 66.8713 -24.5049 -0.529 -0.812 -0.245 96 109 56
14.9469 66.8123 -24.5756 -0.529 -0.812 -0.245 95 109 58
15.0719 66.7446 -24.6446 -0.515 -0.828 -0.222 96 110 57
18.0669 66.6526 -26.7905 -0.005 -0.985 -0.175 69 81 33
18.1812 66.6677 -26.8785 -0.005 -0.985 -0.175 74 86 38
18.2949 66.6886 -26.9678 -0.005 -0.980 -0.201 84 93 46
18.4213 66.6215 -27.0380 0.174 -0.973 -0.154 87 97 47
18.5333 66.6561 -27.1305 0.174 -0.973 -0.154 91 101 51
18.9394 67.1188 -27.5748 -0.205 -0.869 -0.450 97 106 59
19.0448 67.2146 -27.6822 -0.216 -0.866 -0.451 97 107 57
35.6448 63.3391 -38.4910 -0.540 -0.621 0.568 102 106 55
47.8821 55.6805 -44.9099 -0.150 -0.983 -0.102 37 36 20
52.1034 53.6767 -47.3300 -0.364 -0.931 -0.029 47 32 19
52.2668 52.7086 -47.1364 -0.230 -0.161 0.960 69 58 36
14.1205 67.7295 -24.4672 0.349 -0.596 0.723 103 117 66
16.5996 66.5882 -25.9000 -0.514 -0.790 -0.334 97 106 59
16.7222 66.5395 -25.9733 -0.514 -0.790 -0.334 100 110 61
16.8218 66.6332 -26.0762 -0.298 -0.927 -0.227 97 106 59
18.2082 66.6565 -27.0924 0.139 -0.988 -0.067 88 97 50
18.3311 66.6137 -27.1680 0.179 -0.975 -0.131 91 100 53
18.4433 66.6467 -27.2603 0.179 -0.975 -0.131 95 104 57
47.2525 55.7542 -44.6797 -0.396 -0.918 -0.005 35 36 18
13.8332 67.5704 -24.4023 0.372 -0.561 0.739 103 116 63
16.3675 66.7481 -25.9796 -0.522 -0.784 -0.336 97 106 59
16.4851 66.7301 -26.0594 -0.514 -0.790 -0.334 97 106 60
16.6065 66.6903 -26.1348 -0.523 -0.781 -0.342 87 96 49
16.7030 66.8037 -26.2422 -0.316 -0.917 -0.244 82 91 44
17.9891 66.7311 -27.1555 -0.462 -0.867 -0.187 90 102 56
18.1132 66.6809 -27.2295 -0.462 -0.867 -0.187 91 100 53
18.2373 66.6308 -27.3035 -0.462 -0.867 -0.187 96 105 58
35.4385 62.8008 -38.5825 -0.103 -0.770 0.630 102 106 55
38.5879 82.6239 -47.3668 -0.392 -0.878 -0.274 68 71 28
13.5410 67.4445 -24.3437 0.268 -0.415 0.870 98 111 58
13.6507 67.4580 -24.4282 0.348 -0.525 0.777 98 111 58
13.7623 67.4626 -24.5111 0.393 -0.554 0.734 98 111 58
13.8725 68.0647 -24.7901 0.321 -0.560 0.764 94 108 57
14.0649 68.2502 -24.9917 -0.700 -0.627 -0.341 94 108 57
14.1856 68.2155 -25.0683 -0.740 -0.593 -0.319 94 108 57
16.3631 66.9154 -26.2284 -0.580 -0.772 -0.262 89 98 51
16.4936 66.8218 -26.2928 -0.520 -0.784 -0.340 67 76 29
16.5994 66.8783 -26.3886 -0.316 -0.917 -0.244 66 75 28
16.9401 66.9138 -26.6489 -0.394 -0.919 0.023 72 84 38
38.4818 82.6834 -47.5677 -0.385 -0.885 -0.263 71 74 31
39.1067 84.2963 -48.5556 -0.769 -0.583 -0.261 56 56 27
39.2644 84.1125 -48.6101 -0.769 -0.583 -0.261 40 41 19
10.2362 69.4219 -22.7812 0.551 -0.570 0.610 80 92 56
10.3395 69.4568 -22.8683 0.554 -0.572 0.605 94 106 70
10.4353 69.5262 -22.9614 0.496 -0.677 0.544 97 109 73
10.5617 69.4606 -23.0320 0.543 -0.578 0.609 91 102 66
13.3691 67.2839 -24.3605 0.301 -0.424 0.854 95 108 54
13.4775 67.3016 -24.4456 0.274 -0.413 0.869 91 104 50
13.5748 67.3775 -24.5419 0.365 -0.536 0.761 91 104 51
13.6574 68.1127 -24.8465 0.537 -0.498 0.681 90 104 53
13.7697 68.1188 -24.9306 0.537 -0.498 0.681 90 104 53
16.3761 66.9786 -26.4566 -0.509 -0.787 -0.349 62 71 24
16.4956 66.9530 -26.5354 -0.316 -0.917 -0.244 69 78 31
16.6141 66.9335 -26.6155 -0.316 -0.917 -0.244 77 86 39
16.8540 66.8791 -26.7727 -0.396 -0.918 0.012 88 100 54
38.3789 82.7936 -47.7884 -0.385 -0.885 -0.263 71 74 31
47.0077 56.4693 -45.3505 -0.757 -0.583 0.294 27 28 10
9.4382 69.1258 -22.2954 0.216 -0.535 0.817 92 108 61
9.5327 69.1911 -22.3865 0.434 -0.520 0.735 99 112 67
9.6505 69.1585 -22.4618 0.373 -0.574 0.729 96 109 64
9.7583 69.1691 -22.5442 0.636 -0.591 0.496 90 103 61
9.8665 69.1786 -22.6266 0.638 -0.596 0.488 85 98 56
9.9720 69.2006 -22.7111 0.657 -0.598 0.458 96 108 66
10.0655 69.2754 -22.8046 0.645 -0.588 0.488 101 113 71
10.1756 69.2791 -22.8864 0.554 -0.572 0.605 97 110 66
16.1429 67.1363 -26.5367 -0.505 -0.794 -0.339 62 72 22
16.2615 67.1162 -26.6168 -0.520 -0.784 -0.340 81 90 43
16.3842 67.0723 -26.6919 -0.513 -0.785 -0.349 85 94 47
16.5265 66.9091 -26.7414 -0.349 -0.913 -0.211 89 98 51
35.3093 62.9037 -39.1477 -0.753 -0.560 0.345 100 104 53
39.3193 83.2708 -48.8960 -0.801 -0.502 -0.327 22 23 15
47.0427 56.3546 -45.5439 -0.756 -0.588 0.288 44 46 22
15.7277 67.0108 -26.3887 0.587 -0.480 0.653 59 68 24
16.1448 67.2643 -26.7798 -0.520 -0.784 -0.340 90 99 52
16.2687 67.2141 -26.8538 -0.520 -0.784 -0.340 90 99 52
16.3739 67.2779 -26.9523 -0.437 -0.817 -0.377 90 99 52
16.6173 67.2069 -27.1068 -0.124 -0.932 -0.340 90 102 54
16.7201 67.2899 -27.2101 -0.128 -0.929 -0.347 91 103 57
35.0114 61.2735 -38.5894 -0.193 -0.407 0.893 102 106 55
35.2208 62.9284 -39.3005 -0.753 -0.560 0.345 100 104 53
39.2614 83.9765 -49.3538 -0.815 -0.492 -0.307 22 24 14
46.7573 56.7640 -45.6790 -0.822 -0.520 0.233 39 39 20
46.8682 56.6076 -45.7075 -0.822 -0.516 0.240 44 45 22
46.9743 56.4294 -45.7253 -0.767 -0.583 0.268 63 65 36
51.1754 52.0132 -47.3165 -0.117 -0.467 0.876 46 31 18
16.1189 66.8716 -26.8268 0.144 -0.757 0.637 90 99 52
39.0181 84.5289 -49.6271 -0.817 -0.491 -0.302 29 32 11
39.1805 84.3933 -49.7003 -0.816 -0.492 -0.304 25 28 11
46.6768 56.7811 -45.8330 -0.854 -0.450 0.263 56 55 9
46.7837 56.6038 -45.8513 -0.831 -0.503 0.237 69 68 19
46.8912 56.4314 -45.8717 -0.777 -0.568 0.270 90 87 37
52.3466 51.4066 -48.1711 0.249 -0.968 0.009 115 111 54
52.5001 51.4449 -48.2967 0.249 -0.968 0.009 115 111 54
46.5012 57.0409 -46.0004 -0.674 -0.674 0.301 45 46 10
46.6105 56.8722 -46.0231 -0.849 -0.473 0.237 88 87 36
46.7103 56.6565 -46.0227 -0.832 -0.501 0.237 93 92 38
48.6932 55.9102 -47.2254 0.231 -0.662 0.713 41 30 9
52.3981 51.3626 -48.3948 0.267 -0.963 0.039 116 112 51
52.5656 51.4492 -48.5475 0.199 -0.980 0.008 116 111 53
53.0404 51.6030 -48.9491 0.461 -0.885 0.072 90 85 27
38.6799 85.3865 -50.2057 -0.915 -0.377 -0.144 50 53 21
46.3095 57.2229 -46.1303 -0.765 -0.506 0.397 60 61 25
46.4195 57.0544 -46.1533 -0.674 -0.674 0.301 69 71 30
46.5358 56.9211 -46.1931 -0.849 -0.473 0.237 103 102 49
46.8864 56.5365 -46.3188 -0.566 -0.823 0.034 106 104 47
52.3091 51.3251 -48.5175 0.258 -0.937 0.235 117 111 51
52.9445 51.5440 -49.0607 0.461 -0.885 0.072 99 93 35
53.2390 51.5667 -49.2853 -0.146 -0.973 0.176 83 81 26
46.1237 57.4414 -46.2781 -0.758 -0.499 0.420 59 64 26
53.1548 51.5478 -49.4196 -0.146 -0.969 0.199 84 82 26
14.4810 67.5631 -26.6552 0.089 -0.992 0.091 88 98 48
