ply
format ascii 1.0
element vertex 880
property float x
property float y
property float z
property float nx
property float ny
property float nz
property uchar diffuse_red
property uchar diffuse_green
property uchar diffuse_blue
end_header
-26.7574 69.4223 -33.5672 0.475 -0.288 0.831 63 69 34
-26.4296 69.7469 -33.8366 0.530 -0.267 0.805 70 76 41
-21.1618 96.6572 -47.6444 0.607 -0.783 0.135 77 79 41
-6.8299 116.0431 -61.6905 -0.288 -0.752 0.593 79 80 46
33.4483 96.5430 -68.8387 -0.617 -0.738 0.272 56 55 24
40.1809 87.6229 -67.5601 0.183 -0.528 -0.829 47 49 28
42.3266 25.1549 -41.0991 -0.502 0.160 0.850 119 113 54
42.7033 21.7824 -39.7720 -0.584 0.137 0.800 116 112 50
-27.0761 69.3593 -33.7071 0.517 -0.250 0.819 51 56 24
-26.7968 69.2273 -33.7579 0.523 -0.268 0.809 58 63 31
-8.3511 116.5627 -61.7296 0.673 -0.561 0.481 74 75 41
-6.9164 115.7634 -61.9369 -0.297 -0.746 0.596 78 79 46
31.0936 69.6993 -56.4999 0.710 -0.446 0.546 80 81 41
41.6521 75.9095 -63.3377 -0.320 0.064 0.945 56 59 28
41.6513 73.5741 -62.3116 -0.375 0.058 0.925 55 58 29
-27.0443 68.9858 -33.8465 0.545 -0.273 0.793 51 56 24
-26.8121 68.9717 -33.9307 0.541 -0.268 0.797 56 61 29
-26.5674 68.9258 -34.0058 0.525 -0.270 0.807 62 67 35
-8.3980 116.0797 -61.9023 0.696 -0.538 0.476 74 75 41
-7.0203 115.5798 -62.2183 -0.297 -0.746 0.596 78 79 46
32.6850 97.6224 -69.7554 0.550 -0.344 0.761 66 66 28
-27.0587 68.7294 -34.0185 0.688 -0.468 0.554 51 56 26
-26.7736 68.5811 -34.0638 0.694 -0.348 0.630 56 61 31
-26.6021 68.7196 -34.1921 0.704 -0.349 0.619 59 64 34
-26.4268 68.8496 -34.3181 0.704 -0.349 0.619 65 70 39
-8.5448 114.4543 -61.5275 0.583 -0.529 0.616 77 79 40
-7.0876 115.1982 -62.4256 0.604 -0.525 0.600 78 79 45
32.5619 97.1617 -69.8748 0.550 -0.344 0.761 66 66 28
38.6034 85.8932 -67.2285 0.402 -0.741 -0.538 44 44 30
41.9633 70.9669 -61.9137 -0.215 0.086 0.973 54 57 30
40.7332 36.3723 -46.0809 -0.752 0.047 0.657 46 41 25
-26.7167 68.1458 -34.1828 0.708 -0.474 0.523 55 60 30
-26.5256 68.2325 -34.2960 0.709 -0.474 0.523 60 65 35
-26.3494 68.3583 -34.4208 0.709 -0.474 0.523 65 70 39
-8.3053 114.1491 -61.8853 0.596 -0.533 0.601 76 77 43
32.4580 97.1610 -70.2052 0.532 -0.350 0.771 62 62 24
-26.7840 68.0236 -34.3921 0.706 -0.480 0.521 56 61 31
-26.5496 68.0010 -34.4735 0.709 -0.474 0.523 61 66 36
-26.3194 67.9891 -34.5579 0.727 -0.455 0.515 66 71 40
11.7846 119.5052 -72.5278 0.442 -0.755 0.484 83 84 44
12.0830 120.0144 -72.8726 0.412 -0.806 0.426 72 73 33
12.7281 120.4390 -73.3147 0.386 -0.786 0.483 78 79 39
38.8005 87.0443 -68.5159 0.395 -0.743 -0.541 54 57 30
-28.1932 71.2645 -35.5930 0.563 -0.812 0.156 54 59 29
-28.0047 71.3717 -35.7148 0.563 -0.812 0.156 58 63 33
11.4672 117.6192 -71.9722 -0.118 -0.720 0.684 83 84 44
11.6733 119.2594 -72.7919 0.419 -0.774 0.475 83 84 44
12.0037 119.3375 -72.9561 0.419 -0.774 0.475 70 71 31
12.3344 119.4157 -73.1205 0.419 -0.774 0.475 63 64 24
12.6641 119.5139 -73.2935 0.410 -0.778 0.475 76 77 37
31.4436 91.5732 -68.0346 0.827 -0.187 0.531 76 77 37
38.5946 89.1522 -69.7361 0.347 -0.721 -0.600 52 55 26
43.2105 56.1341 -56.6578 -0.484 0.112 0.868 14 14 16
-28.2371 71.0771 -35.7889 0.711 -0.676 0.195 52 57 27
-8.2702 115.1469 -63.5542 -0.036 -0.866 0.499 66 66 38
-7.9360 115.0761 -63.6527 -0.036 -0.866 0.499 70 70 42
11.3566 117.3851 -72.2374 -0.118 -0.720 0.684 83 84 44
11.5839 118.7364 -72.9384 0.435 -0.807 0.398 83 84 44
11.8908 119.1097 -73.2275 0.419 -0.774 0.475 68 68 29
12.2213 119.1877 -73.3919 0.419 -0.774 0.475 61 61 22
12.5506 119.2879 -73.5660 0.410 -0.778 0.475 74 74 35
12.8821 119.3630 -73.7295 0.410 -0.778 0.475 77 78 38
40.8697 73.3951 -63.8432 -0.812 -0.561 -0.161 52 55 28
42.0451 70.0498 -62.7872 -0.742 -0.671 0.008 50 52 31
42.1626 68.9094 -62.3165 0.302 -0.812 -0.499 48 50 29
42.6878 67.0364 -61.6733 0.122 -0.944 -0.306 29 32 13
-28.3034 70.9461 -36.0013 0.711 -0.676 0.195 50 55 25
-8.8551 112.5233 -62.5354 0.622 -0.748 0.232 77 82 42
-8.3946 115.0745 -63.8770 -0.067 -0.869 0.491 63 66 37
-8.0587 114.9950 -63.9722 -0.067 -0.869 0.491 67 70 39
-7.7409 115.0110 -64.1038 0.391 -0.852 0.349 74 77 44
11.2461 117.1513 -72.5023 -0.118 -0.720 0.684 80 82 42
11.4696 118.5358 -73.2201 0.435 -0.807 0.398 78 80 43
11.7892 118.7383 -73.4373 0.423 -0.808 0.411 70 71 38
12.1185 118.8250 -73.6055 0.423 -0.808 0.411 58 58 28
12.4570 118.7919 -73.7228 0.431 -0.806 0.406 70 71 40
40.6321 76.9486 -65.6889 -0.164 -0.701 0.694 45 47 29
40.9087 77.0149 -65.8272 -0.261 -0.694 0.671 48 49 32
42.1230 69.2404 -62.7624 0.368 -0.734 -0.570 43 45 24
42.3188 68.7554 -62.6181 0.332 -0.801 -0.498 41 42 24
44.2351 39.1422 -49.8849 -0.431 0.133 0.893 19 21 16
-28.3727 70.8225 -36.2157 0.675 -0.676 -0.294 50 55 25
-8.5263 115.0394 -64.2143 -0.052 -0.868 0.493 63 66 37
-8.1911 114.9643 -64.3111 -0.052 -0.868 0.493 67 70 39
11.1489 116.7568 -72.6984 -0.157 -0.732 0.663 80 82 42
39.3760 84.8360 -69.1358 0.321 -0.879 -0.352 52 54 32
39.3054 81.0038 -67.3546 0.373 -0.696 -0.613 50 52 30
40.5719 77.1982 -66.1087 0.145 -0.957 0.253 41 42 26
41.9963 68.8557 -62.8486 -0.733 -0.679 0.048 40 41 23
42.2665 68.9777 -63.0101 0.332 -0.801 -0.498 38 39 22
42.7467 68.7344 -63.0867 0.532 -0.606 -0.591 29 30 16
-8.2992 114.8060 -64.6012 -0.052 -0.868 0.493 67 70 39
39.2785 81.6862 -67.9966 0.256 -0.756 -0.603 47 48 30
43.8837 24.1705 -43.3480 -0.791 -0.612 -0.002 26 26 18
44.1667 23.0495 -42.9433 -0.655 -0.755 0.028 39 40 25
44.3049 22.8960 -42.9268 -0.666 -0.746 0.000 42 43 25
-28.4841 71.0821 -36.8888 0.645 -0.682 -0.344 53 58 26
-27.0550 69.2298 -36.5926 0.201 -0.977 -0.075 66 72 36
30.8825 89.8795 -68.8352 0.483 -0.874 0.058 69 65 29
38.8722 84.4339 -69.4483 -0.322 -0.840 -0.436 49 50 34
40.4797 72.8782 -64.7368 -0.506 -0.838 0.204 37 38 24
41.0440 73.2357 -65.1231 -0.100 -0.350 0.931 41 42 27
44.1103 23.0094 -43.1090 -0.775 -0.568 0.277 41 39 25
44.1988 22.6202 -42.9638 -0.762 -0.608 0.223 44 43 25
-27.8720 68.7008 -36.3222 0.740 -0.606 -0.292 49 54 24
-27.0976 69.6185 -37.0521 0.204 -0.977 -0.058 67 73 35
31.0708 89.8320 -69.2451 0.482 -0.871 0.098 67 62 30
43.6236 23.3709 -43.2927 -0.758 -0.580 0.299 32 27 21
44.1023 24.0299 -43.7865 -0.781 -0.624 0.011 38 34 22
44.2292 22.9917 -43.3540 -0.226 -0.480 0.848 47 43 26
-27.8507 68.9207 -36.7279 0.757 -0.596 -0.266 49 54 22
-8.2501 115.7450 -66.2766 0.407 -0.794 0.452 74 76 37
37.0931 82.1167 -68.3641 -0.139 -0.722 -0.678 47 48 35
38.1822 85.1834 -70.2230 -0.386 -0.907 -0.165 40 40 28
38.7324 84.9555 -70.3325 -0.322 -0.842 -0.433 40 40 28
39.1181 82.9153 -69.5313 0.261 -0.756 -0.600 40 40 28
-27.7417 68.3599 -36.8032 0.599 -0.406 0.690 49 54 22
-27.5494 68.4463 -36.9192 0.599 -0.406 0.690 54 59 27
-27.3498 68.5155 -37.0300 0.584 -0.384 0.715 59 65 31
-8.3021 115.2863 -66.4503 0.274 -0.860 0.430 74 76 37
11.1400 117.0925 -74.9292 0.800 -0.338 0.495 68 69 37
36.0147 88.2187 -71.1463 -0.678 -0.580 -0.452 50 48 28
-27.7373 68.0597 -36.9580 0.584 -0.384 0.715 49 54 22
-27.5435 68.1412 -37.0726 0.584 -0.384 0.715 54 59 27
-27.3494 68.2228 -37.1873 0.584 -0.384 0.715 59 64 31
-8.3882 115.0090 -66.6945 0.262 -0.846 0.465 74 76 37
11.0478 116.6328 -75.0941 0.800 -0.338 0.495 66 67 34
11.6795 117.0772 -75.5518 0.754 -0.419 0.505 66 67 36
34.8881 90.4313 -72.1041 -0.762 -0.630 -0.150 57 42 27
35.9584 88.8318 -71.7704 -0.677 -0.581 -0.451 47 49 30
36.1621 87.5410 -71.2417 -0.910 -0.396 -0.127 49 49 32
42.9469 66.0918 -63.7934 0.269 0.010 0.963 16 15 11
-27.7736 67.8605 -37.1438 0.494 -0.484 0.722 49 54 24
-27.4621 67.6501 -37.1666 0.589 -0.397 0.703 53 58 27
-27.0521 67.7559 -37.3778 0.357 -0.343 0.869 62 67 35
-26.7459 67.5565 -37.4037 0.351 -0.350 0.869 64 70 36
-26.5410 67.6103 -37.5097 0.288 -0.362 0.887 67 73 36
36.0851 87.8277 -71.7034 -0.910 -0.397 -0.124 39 40 31
36.8051 85.7817 -71.0169 -0.882 -0.450 -0.141 46 46 37
37.0877 85.7366 -71.1066 -0.124 -0.695 -0.708 37 37 27
-27.8070 67.6546 -37.3270 0.397 -0.384 0.834 48 52 25
-27.4785 67.4022 -37.3361 0.379 -0.356 0.854 49 54 25
-27.2217 67.3257 -37.4006 0.370 -0.360 0.856 51 56 25
-27.0331 67.4182 -37.5188 0.357 -0.343 0.869 58 63 31
-26.7777 67.3448 -37.5844 0.370 -0.360 0.856 61 67 33
-26.5555 67.3544 -37.6763 0.370 -0.360 0.856 64 70 34
-9.4698 112.5783 -65.9296 0.650 -0.393 0.650 70 74 41
30.2186 70.0615 -61.2938 0.629 -0.778 -0.000 53 48 26
35.5497 90.0622 -72.9139 -0.411 -0.690 -0.595 26 27 19
37.0284 86.2121 -71.6622 -0.125 -0.697 -0.707 36 36 26
42.0534 66.2285 -64.1231 0.146 0.002 0.989 32 32 22
-27.4484 67.0407 -37.4687 0.335 -0.354 0.873 50 54 26
-27.1940 66.9689 -37.5344 0.375 -0.349 0.859 52 57 26
-27.0142 67.0819 -37.6593 0.357 -0.343 0.869 59 64 32
-26.7972 67.1033 -37.7549 0.365 -0.346 0.865 61 67 33
10.5163 114.4029 -75.0719 0.074 -0.204 0.976 80 82 43
11.1581 114.6127 -75.4249 0.056 -0.125 0.991 62 63 31
29.8839 70.3026 -61.5921 0.604 -0.569 0.558 58 54 29
36.9666 86.6631 -72.2078 -0.163 -0.703 -0.693 35 35 25
-27.4302 66.7095 -37.6100 0.335 -0.354 0.873 50 54 28
-27.1768 66.6392 -37.6760 0.375 -0.349 0.859 52 56 27
-27.0582 66.9023 -37.8492 0.370 -0.375 0.850 59 64 32
-26.8967 67.6254 -38.2605 0.357 -0.624 0.695 64 70 34
-26.5265 67.2657 -38.2333 0.441 -0.626 0.643 66 72 34
29.7959 70.3168 -61.8799 0.637 -0.604 0.480 58 53 31
33.9883 92.0688 -73.9899 -0.544 -0.619 -0.567 64 40 27
-27.4302 66.4239 -37.7650 0.379 -0.356 0.854 49 53 27
-27.1369 66.8091 -38.0667 0.160 -0.736 0.657 56 61 29
-26.6801 67.3589 -38.5123 0.573 -0.819 -0.033 65 71 33
35.7932 89.2975 -73.7301 -0.793 -0.362 0.490 20 21 15
-26.8249 67.4292 -38.7846 0.571 -0.820 -0.037 64 70 32
33.8531 93.3816 -75.3106 -0.556 -0.604 -0.571 70 42 30
35.4489 90.0504 -74.3225 -0.781 -0.355 0.514 21 22 16
35.6829 89.1050 -73.9558 -0.447 -0.623 0.642 20 21 15
36.2353 88.6120 -73.9342 -0.796 -0.367 0.482 20 21 15
38.5163 81.1872 -71.2287 0.012 -0.953 -0.303 18 19 13
38.8302 81.5784 -71.5424 0.616 -0.502 0.607 18 19 13
39.5873 72.3730 -67.3716 -0.568 -0.137 0.811 18 19 13
41.4045 63.4857 -63.7731 0.483 -0.852 -0.201 29 29 19
51.1794 20.4375 -46.7267 -0.040 -0.583 -0.812 126 131 79
-27.3009 66.0872 -38.2377 0.665 -0.404 0.628 46 51 22
-27.4282 68.0736 -39.1566 0.218 -0.943 0.252 59 65 29
-26.9194 67.3737 -39.0159 0.571 -0.820 -0.037 64 70 32
10.2426 111.6761 -75.2923 0.152 -0.572 0.806 78 80 41
11.4896 112.3428 -76.1096 0.138 -0.202 0.970 76 77 45
29.2803 70.5221 -62.7261 0.776 -0.599 -0.198 57 53 28
33.8037 94.4304 -76.1749 -0.649 -0.641 -0.410 71 40 29
34.0706 93.7483 -75.9475 -0.676 -0.632 -0.378 68 44 30
34.3612 93.5541 -75.9674 -0.628 -0.645 -0.436 58 42 28
34.6454 93.2547 -75.9335 -0.628 -0.645 -0.436 43 38 31
35.5716 88.8931 -74.1710 -0.298 -0.928 0.224 20 21 15
35.8447 88.5946 -74.1331 -0.311 -0.923 0.226 20 21 15
36.1473 88.7514 -74.3291 -0.748 -0.406 0.525 20 21 15
36.3705 87.7470 -73.9271 -0.792 -0.336 0.510 20 21 14
36.8597 82.6235 -71.6206 0.042 -0.761 0.648 34 34 24
37.1368 82.5685 -71.7030 0.042 -0.761 0.648 40 40 30
37.4096 82.4603 -71.7579 0.047 -0.759 0.650 33 33 23
38.8963 80.2153 -71.2492 0.654 -0.524 0.546 15 16 10
41.0589 63.3069 -63.8534 0.312 -0.948 0.056 29 29 17
41.3059 63.3105 -63.9526 0.475 -0.844 -0.249 27 27 17
-27.3603 65.9483 -38.4390 0.489 -0.871 -0.044 46 51 21
-27.2388 66.2005 -38.6105 0.465 -0.883 -0.056 50 55 23
-27.1661 67.1333 -39.0965 0.546 -0.832 -0.100 59 65 29
-26.8497 67.4743 -39.3887 0.309 -0.879 0.362 68 75 34
10.1457 111.3347 -75.4963 0.147 -0.587 0.796 78 80 42
11.4105 111.7580 -76.2032 0.120 -0.578 0.807 76 77 45
34.2965 94.2503 -76.6563 -0.654 -0.632 -0.416 62 43 31
34.5872 94.0394 -76.6678 -0.642 -0.632 -0.434 52 44 37
34.8392 93.1592 -76.3357 -0.632 -0.604 -0.486 44 39 32
35.2518 90.0586 -74.9787 -0.890 -0.433 -0.147 27 24 18
44.5526 51.6365 -59.8155 0.160 -0.261 0.952 23 17 17
-27.3610 66.2148 -38.8628 0.555 -0.794 -0.248 49 55 21
-27.2676 67.0952 -39.3334 0.546 -0.832 -0.100 58 64 30
-26.6997 66.8089 -39.4167 0.167 -0.907 0.387 68 72 34
10.0302 111.2038 -75.7956 0.160 -0.579 0.800 78 78 44
34.2293 94.9215 -77.3358 -0.654 -0.631 -0.416 70 35 30
34.5153 94.5930 -77.2870 -0.654 -0.631 -0.416 61 38 33
35.1765 90.4525 -75.5087 -0.888 -0.434 -0.149 39 27 20
36.6737 82.6240 -72.2441 -0.194 -0.964 0.180 47 44 31
37.9948 78.2704 -70.6215 -0.895 -0.305 0.326 12 14 7
40.6342 63.1114 -64.1974 0.517 -0.852 -0.080 28 20 18
52.4556 27.6399 -51.3953 -0.025 -0.578 -0.816 58 57 33
-27.4976 66.2638 -39.1271 0.566 -0.785 -0.251 47 53 19
-26.5994 66.2695 -39.4850 0.410 -0.864 0.291 64 68 31
9.9219 110.9938 -76.0585 0.380 -0.488 0.786 78 78 44
34.4220 94.7651 -77.7120 -0.672 -0.633 -0.385 62 35 31
37.5075 80.1334 -71.6901 -0.896 -0.231 0.379 35 31 17
38.0265 76.5005 -70.0972 -0.874 -0.250 0.416 16 18 11
39.0835 73.3942 -68.9777 -0.914 -0.296 0.276 13 14 18
39.2549 72.4342 -68.5703 -0.900 -0.307 0.310 13 13 17
43.7497 50.2618 -59.3734 0.457 -0.116 0.882 27 15 14
-27.6222 66.2830 -39.3818 0.482 -0.804 0.349 47 53 19
-26.6230 66.0397 -39.6560 0.555 -0.735 0.390 64 68 34
9.8288 110.6200 -76.2455 0.380 -0.488 0.786 78 78 44
35.0672 91.9730 -76.9564 -0.810 -0.504 -0.300 51 30 24
35.3040 90.9494 -76.5411 -0.809 -0.503 -0.303 54 35 28
35.5457 90.0646 -76.1967 -0.821 -0.492 -0.290 54 37 29
36.1496 85.9258 -74.3774 -0.827 -0.468 -0.312 58 55 34
36.3591 84.8092 -73.9049 -0.841 -0.454 -0.293 61 59 36
38.6254 75.1239 -69.9851 -0.880 -0.298 0.370 19 17 17
-27.7564 66.3255 -39.6447 0.141 -0.568 0.811 47 52 20
-26.9316 65.9591 -39.7881 0.166 -0.566 0.807 60 65 32
-28.0530 69.8664 -41.2966 0.647 -0.735 0.201 65 69 34
28.9145 87.2879 -72.5517 -0.459 -0.865 -0.201 59 58 29
39.0508 72.0816 -68.9661 -0.884 -0.312 0.348 28 21 24
52.6995 29.6301 -53.1576 -0.109 -0.685 -0.720 17 18 6
47.6701 10.4599 -41.5882 -0.361 -0.438 0.823 11 11 13
-27.8780 66.3366 -39.8974 -0.281 -0.561 0.779 46 51 22
-27.5759 66.1496 -39.9233 -0.281 -0.561 0.779 50 55 26
-26.9466 65.7097 -39.9517 -0.287 -0.600 0.747 59 64 34
-28.4698 70.0275 -41.5160 0.754 -0.655 0.055 63 67 35
-28.1239 69.7454 -41.5114 0.647 -0.735 0.201 65 69 34
35.9427 85.7027 -74.8994 -0.639 -0.732 -0.238 57 49 26
36.6124 83.0361 -73.8260 -0.493 -0.775 0.395 63 59 31
37.4096 82.3669 -73.8058 -0.440 -0.788 0.431 60 55 27
37.6674 82.0633 -73.7555 -0.437 -0.813 0.385 54 49 23
38.2251 78.7316 -72.3038 -0.834 -0.516 -0.195 40 30 21
52.8017 30.1568 -53.6917 -0.103 -0.683 -0.723 12 11 6
47.0306 6.9193 -39.7399 -0.404 -0.908 -0.109 13 15 12
47.1635 6.8837 -39.7747 -0.567 -0.329 0.755 21 25 11
-27.9598 66.2507 -40.1175 0.221 -0.613 0.758 42 46 22
-27.6624 66.0756 -40.1470 0.231 -0.606 0.761 45 49 24
-27.1358 65.8887 -40.2615 0.220 -0.602 0.767 55 59 32
-28.5494 69.9279 -41.7386 0.744 -0.660 0.104 61 64 33
-28.2591 69.7840 -41.7811 0.645 -0.738 0.197 64 68 34
35.6777 87.5445 -76.0816 -0.628 -0.624 -0.465 60 32 27
36.7793 82.7311 -74.0903 -0.396 -0.907 0.146 64 51 30
37.0466 82.5274 -74.0935 -0.355 -0.924 0.140 64 51 30
37.3073 82.2465 -74.0552 -0.391 -0.914 0.113 64 51 30
38.1786 79.2382 -72.8831 -0.833 -0.515 -0.204 49 35 26
38.4613 79.3045 -73.0286 -0.082 -0.972 0.219 42 27 22
46.7362 6.5297 -39.6008 -0.479 -0.041 0.877 14 15 16
-28.0396 66.1602 -40.3359 0.274 -0.616 0.739 43 46 24
-27.7341 65.9655 -40.3585 0.272 -0.593 0.758 45 48 27
-27.4194 65.7473 -40.3726 0.242 -0.786 0.569 50 53 32
-27.1505 65.6393 -40.4246 0.164 -0.825 0.541 54 58 33
-28.3040 69.5990 -41.9738 0.738 -0.624 0.258 64 68 34
35.4097 89.4948 -77.3266 -0.580 -0.648 -0.494 61 25 24
35.6587 88.7706 -77.0584 -0.666 -0.627 -0.404 61 27 25
-27.7579 65.7396 -40.5298 0.343 -0.870 0.355 45 48 28
-27.4541 65.5477 -40.5526 0.331 -0.853 0.403 50 53 32
-27.1559 65.3678 -40.5793 0.499 -0.862 -0.088 55 59 35
-28.2109 69.6460 -42.3389 0.671 -0.628 0.393 68 70 34
8.9483 109.7728 -77.5173 -0.373 -0.581 0.723 75 75 41
36.0667 87.5478 -76.9641 -0.732 -0.624 -0.275 57 24 21
36.2756 86.3440 -76.4342 -0.817 -0.551 -0.169 60 27 23
36.5570 86.2239 -76.4847 -0.815 -0.553 -0.171 62 29 24
36.8165 85.8077 -76.3757 -0.815 -0.553 -0.171 65 32 27
37.5118 83.6178 -75.5367 -0.835 -0.514 -0.197 67 35 30
-27.7742 65.4963 -40.6944 0.515 -0.839 -0.177 45 48 27
-27.4940 65.3612 -40.7366 0.359 -0.870 -0.339 49 53 31
-27.2423 65.2947 -40.8025 0.397 -0.857 -0.330 54 58 33
-28.2667 69.4875 -42.5405 0.673 -0.627 0.393 68 69 35
-8.8103 106.9162 -69.4135 -0.313 -0.919 0.240 64 68 34
-8.3778 106.3096 -69.2749 -0.287 -0.947 0.142 69 73 38
8.8344 109.6331 -77.8107 -0.362 -0.576 0.733 74 73 42
28.1164 87.0634 -73.9231 -0.395 -0.799 -0.454 55 53 29
37.1972 84.4664 -76.2010 -0.834 -0.514 -0.201 64 21 22
47.3707 15.6443 -45.0363 0.612 -0.770 -0.177 111 116 76
48.7775 17.2159 -46.3990 -0.094 -0.621 -0.778 13 14 10
46.9579 5.7239 -39.7977 -0.467 -0.041 0.883 24 29 11
-28.3995 69.5195 -42.8090 0.824 -0.420 0.380 65 66 32
-8.3388 105.4475 -69.2453 -0.409 -0.817 0.407 68 72 37
8.7308 109.3884 -78.0540 -0.362 -0.576 0.733 74 73 42
48.1163 16.1652 -45.7964 -0.747 -0.388 0.540 18 20 15
-29.7489 69.6874 -42.6644 0.310 -0.694 0.650 42 45 24
-29.1991 68.9190 -42.4864 0.324 -0.717 0.618 45 49 26
-28.9753 68.9360 -42.5841 0.324 -0.717 0.618 46 50 24
-28.7985 69.0680 -42.7226 0.317 -0.714 0.624 56 59 30
-26.6760 64.4375 -41.1758 0.281 -0.907 0.315 61 65 33
-8.8626 105.8448 -69.6385 -0.500 -0.794 0.345 63 67 32
-8.4521 105.3438 -69.5431 -0.402 -0.822 0.404 68 72 37
8.6274 109.1442 -78.2970 -0.362 -0.576 0.733 74 73 42
-29.0323 68.7833 -42.7864 0.327 -0.716 0.617 47 51 25
-28.8421 68.8819 -42.9133 0.317 -0.714 0.624 56 59 31
-26.8194 64.5051 -41.4479 0.190 -0.911 0.366 61 64 32
-27.6454 67.6419 -42.7463 0.369 -0.788 0.493 65 69 36
-8.8645 105.1963 -69.6991 -0.411 -0.857 0.312 64 68 33
8.5312 108.8297 -78.5059 -0.375 -0.580 0.723 74 73 42
28.0683 84.9326 -73.8846 0.798 -0.576 -0.178 52 50 29
-29.3135 68.6157 -42.8914 0.410 -0.903 -0.124 44 48 25
-29.0879 68.6276 -42.9874 0.367 -0.837 0.407 46 50 25
-28.8983 68.7271 -43.1148 0.372 -0.842 0.392 56 59 31
-27.7022 67.4901 -42.9464 0.369 -0.788 0.493 65 69 36
8.4210 108.6568 -78.7819 -0.362 -0.576 0.733 72 71 40
40.3149 66.4793 -69.5029 0.088 -0.009 0.996 43 18 14
40.4093 60.7178 -66.5381 0.432 -0.212 0.877 31 13 13
43.0858 50.8033 -62.4374 0.010 -0.851 0.525 24 16 12
-29.1563 68.5029 -43.1993 0.427 -0.898 -0.104 42 46 21
-28.9967 68.6747 -43.3528 0.432 -0.896 -0.105 51 54 26
-9.0991 105.0281 -70.3117 -0.399 -0.861 0.316 60 64 29
8.3762 107.8424 -78.7478 -0.285 -0.448 0.847 72 71 40
29.2180 94.9268 -80.2908 0.454 -0.697 -0.555 46 23 15
29.5567 96.4163 -81.2055 0.452 -0.700 -0.552 64 29 25
40.2023 66.1908 -69.6243 0.094 -0.006 0.996 50 19 17
42.8104 50.9350 -62.6771 -0.557 -0.770 0.312 22 11 11
-29.1632 68.2307 -43.3578 0.726 -0.464 0.508 42 46 21
-29.0482 68.5090 -43.5500 0.547 -0.756 0.359 49 52 24
-28.2912 68.3510 -43.7687 0.409 -0.870 0.275 60 64 31
-10.5029 105.2022 -70.2410 -0.603 -0.498 0.623 67 71 36
8.7668 105.8822 -78.2815 -0.204 -0.111 0.973 70 69 38
27.4750 84.3262 -74.4042 0.839 -0.531 -0.118 52 50 27
40.1217 66.1921 -69.9098 0.075 -0.014 0.997 55 20 20
46.7710 18.7348 -47.6032 -0.736 -0.433 -0.520 76 78 37
46.8935 17.9086 -47.2175 -0.738 -0.436 -0.514 108 115 65
46.9452 17.4679 -47.0064 -0.739 -0.436 -0.513 105 109 71
48.0123 18.3758 -47.9093 0.135 -0.848 0.513 12 13 9
-29.0650 68.2597 -43.7165 0.640 -0.566 0.519 47 50 23
-28.3767 68.2676 -43.9953 0.535 -0.592 0.603 63 67 34
27.3786 84.7394 -74.9419 0.678 -0.688 -0.259 52 50 28
27.6609 84.5331 -74.9455 0.702 -0.659 -0.270 44 42 22
27.9717 86.4174 -76.0650 0.824 -0.548 -0.143 35 30 14
29.0229 95.8706 -81.4785 0.340 -0.693 -0.635 49 21 15
42.1063 53.3955 -64.2585 -0.533 -0.837 0.120 31 9 17
46.8765 20.6907 -48.8837 -0.043 -0.994 0.102 56 55 25
46.3113 3.0085 -39.3166 -0.717 -0.244 0.653 22 24 14
-29.3203 68.5853 -44.0921 0.643 -0.354 0.679 45 47 23
-28.8949 68.1157 -44.0127 0.637 -0.564 0.525 49 53 27
-28.7010 68.2042 -44.1371 0.541 -0.587 0.602 57 61 35
-28.4980 68.2716 -44.2539 0.541 -0.587 0.602 65 68 39
-8.9446 103.8176 -70.9250 -0.362 -0.929 0.072 66 67 35
8.6301 104.7561 -78.4393 -0.204 -0.111 0.973 70 71 40
27.8526 85.1113 -75.6877 0.809 -0.584 -0.065 33 31 13
28.9234 96.2972 -82.0517 0.339 -0.699 -0.630 62 28 24
40.6798 65.7985 -70.5591 0.631 -0.757 -0.170 54 18 19
40.8787 65.3201 -70.3847 0.718 -0.623 -0.310 51 16 19
46.8588 20.8043 -49.1469 -0.031 -0.995 0.093 54 55 24
46.7008 11.4957 -44.1437 -0.961 -0.228 0.154 78 85 55
46.7246 8.3724 -42.4956 -0.666 -0.128 0.734 14 16 11
46.3705 3.3154 -39.6703 -0.588 -0.037 0.808 13 14 5
-28.7876 68.1235 -44.3647 0.276 -0.512 0.813 52 55 34
-28.2225 67.8701 -44.4553 0.355 -0.539 0.764 60 65 35
21.4443 10.0407 -33.4663 -0.075 -0.679 0.730 71 72 38
46.7043 15.7781 -46.6162 -0.951 -0.228 0.207 19 17 20
-9.1047 103.2990 -71.3763 -0.356 -0.633 0.688 66 67 36
19.9406 8.9678 -32.4689 -0.465 -0.390 0.795 73 72 37
28.7220 97.1452 -83.2020 0.247 -0.812 -0.528 68 29 26
46.1560 3.2873 -39.9064 -0.440 -0.887 0.143 13 16 7
-10.6175 104.0177 -71.5538 -0.538 -0.843 0.033 66 67 35
46.7943 21.1041 -49.9152 0.532 -0.797 0.284 54 56 32
46.5509 12.5202 -45.2000 -0.964 -0.250 0.085 57 68 30
46.2979 7.7849 -42.5514 -0.980 -0.191 0.061 61 67 38
46.1598 5.3037 -41.1614 -0.967 -0.167 0.191 106 115 71
5.4325 93.9063 -72.9123 -0.495 -0.606 -0.623 74 76 37
5.7236 93.9313 -73.0424 -0.439 -0.637 -0.634 74 76 36
6.0433 93.7298 -73.0615 -0.439 -0.637 -0.634 76 77 36
28.4575 77.5924 -73.3131 0.599 -0.801 -0.017 82 27 30
46.2996 20.6705 -49.6952 0.422 -0.378 0.824 46 49 29
46.5160 20.8572 -49.8827 0.426 -0.466 0.776 38 39 20
46.6984 20.9013 -49.9795 0.422 -0.461 0.781 46 48 28
46.2805 7.3415 -42.4847 -0.978 -0.156 0.142 111 122 69
-24.1824 53.4543 -39.4707 -0.631 -0.589 -0.505 29 30 16
5.4991 97.0925 -75.0469 -0.447 -0.636 -0.628 84 85 44
46.1754 20.3463 -49.6808 0.365 -0.403 0.839 42 45 27
46.7007 17.7092 -48.4598 -0.831 -0.147 0.536 15 15 13
46.5750 14.0955 -46.4479 -0.965 -0.249 0.081 104 115 61
46.3218 8.6590 -43.3955 -0.942 -0.230 0.243 53 61 36
-27.6806 58.8934 -41.3069 -0.673 -0.590 -0.447 26 26 16
-10.6674 102.3893 -71.8417 -0.622 -0.711 0.328 65 66 34
46.2866 20.2911 -49.9061 0.385 -0.414 0.825 37 37 24
46.4453 20.2421 -49.9431 0.358 -0.414 0.837 30 30 20
46.5463 14.1447 -46.6590 -0.964 -0.250 0.090 96 105 60
46.3446 12.2044 -45.5202 -0.697 -0.166 0.698 34 42 18
46.2788 7.5970 -42.9817 -0.978 -0.157 0.140 90 99 54
-14.6055 75.8278 -56.1110 0.007 -0.979 0.204 67 71 36
-16.7471 95.1744 -65.8477 0.372 -0.822 0.431 70 71 38
-16.5435 95.4931 -66.1039 0.386 -0.819 0.424 70 71 38
25.9813 67.8879 -68.0408 -0.224 -0.090 0.970 45 44 23
46.2146 18.1119 -48.8948 -0.868 -0.142 0.477 13 12 8
46.4984 14.1208 -46.8228 -0.937 -0.186 0.296 62 69 34
-18.6055 112.3449 -74.9246 0.362 -0.867 -0.343 72 78 35
8.3481 78.2895 -67.0079 -0.459 -0.545 -0.702 83 83 48
21.4411 72.6268 -69.1475 -0.872 -0.313 0.376 52 49 30
26.1450 68.2908 -68.6501 -0.488 -0.710 0.508 43 40 24
-16.2217 58.6272 -46.6192 0.240 -0.475 0.847 69 73 38
-19.3641 93.3334 -64.5342 -0.434 -0.787 -0.439 75 82 41
-20.0116 97.6217 -66.6437 -0.612 -0.791 -0.007 73 80 39
5.9245 97.0065 -76.7198 -0.614 -0.278 0.739 78 77 46
22.4379 70.7165 -68.8251 -0.893 -0.306 0.330 42 39 21
45.9514 20.1828 -50.3458 -0.359 -0.895 0.266 54 57 37
46.1055 20.1138 -50.3696 -0.359 -0.895 0.266 31 33 21
-18.8103 88.0872 -62.2181 0.546 -0.836 -0.059 82 86 49
-19.1832 90.3075 -63.3005 0.504 -0.854 -0.130 81 88 46
1.3112 87.6334 -70.0526 -0.445 -0.527 -0.724 77 79 42
45.9127 20.2150 -50.5597 -0.360 -0.896 0.260 53 56 36
72.4163 115.0287 -113.8321 -0.431 -0.701 0.568 16 17 22
68.6793 99.3565 -103.6322 0.231 -0.961 0.150 9 10 14
-29.4465 66.2855 -46.1485 0.603 -0.522 0.603 23 23 11
-18.0134 84.0304 -60.6380 0.156 -0.930 0.332 80 84 49
-19.2013 89.9206 -63.4438 0.527 -0.845 -0.094 80 87 46
-19.0931 112.5377 -76.0950 0.040 -0.583 0.811 79 83 45
-17.0216 110.6520 -75.8769 -0.561 -0.628 0.539 79 84 45
-11.6784 103.8935 -74.2581 -0.715 -0.698 0.034 64 68 35
-9.4156 101.9470 -74.0831 0.546 -0.828 -0.131 65 68 37
-1.7810 93.3516 -72.3618 -0.385 -0.536 -0.752 74 75 42
6.3555 91.6122 -74.6641 -0.396 -0.504 -0.768 63 62 34
28.1964 69.7980 -71.2870 -0.065 -0.034 0.997 73 23 28
28.6435 66.4624 -69.6074 -0.016 -0.010 1.000 75 23 27
45.7057 20.2591 -50.7130 -0.370 -0.889 0.270 58 62 40
45.5988 10.7330 -45.3598 -0.841 -0.341 0.420 10 10 6
45.8937 9.5690 -44.8295 -0.587 -0.201 0.784 97 103 68
-29.4610 66.0375 -46.3089 0.608 -0.508 0.610 25 25 13
-29.3042 66.2061 -46.4664 0.456 -0.521 0.721 22 22 10
-20.8756 83.4075 -59.4891 -0.299 -0.270 0.915 67 68 37
-20.3755 82.6606 -59.2722 -0.273 -0.624 0.732 69 70 36
-18.6723 83.1415 -60.2269 0.224 -0.943 -0.245 78 79 45
-19.3093 86.1447 -61.6520 -0.435 -0.887 -0.156 78 79 45
-18.9224 85.7565 -61.5903 -0.041 -0.957 -0.288 78 79 45
-9.5119 57.1815 -49.3782 -0.728 -0.684 -0.055 76 82 46
-8.9940 57.6705 -49.8603 -0.652 -0.742 0.159 76 82 46
-9.5430 101.9152 -74.4118 0.546 -0.828 -0.131 63 66 37
-9.3971 107.1419 -77.3969 0.691 -0.675 -0.257 67 68 36
-8.7271 105.4035 -76.6932 0.719 -0.682 -0.134 68 69 36
-4.9324 98.5705 -74.3944 -0.346 -0.520 -0.781 69 72 41
-2.2047 98.4714 -75.4366 -0.388 -0.515 -0.764 66 66 38
-1.6893 104.5575 -79.0516 0.546 -0.708 0.448 65 65 37
1.3649 96.8600 -75.9708 -0.404 -0.538 -0.740 59 60 30
5.5069 95.0407 -76.6190 -0.398 -0.529 -0.750 54 52 27
5.6994 95.8801 -77.1664 -0.413 -0.516 -0.751 54 52 27
7.7335 96.4793 -78.3205 -0.362 -0.553 -0.751 51 51 27
8.4098 95.8158 -78.2211 -0.435 -0.543 -0.718 49 49 25
8.7483 95.4652 -78.1610 -0.435 -0.543 -0.718 47 47 23
28.1118 70.1877 -71.8003 -0.143 -0.083 0.986 64 19 25
45.8514 17.5425 -49.4630 -0.890 -0.154 0.429 15 16 11
67.4553 96.5882 -102.4138 -0.519 -0.855 0.005 12 14 11
67.0784 93.8861 -100.7493 0.498 -0.815 -0.296 16 16 16
-29.3220 65.9652 -46.6292 0.456 -0.521 0.721 25 26 13
-23.7015 57.7615 -44.2790 -0.612 -0.099 0.784 71 72 38
-13.0727 91.1958 -67.3607 -0.002 -0.939 0.345 67 71 40
-12.7803 91.1595 -67.4581 -0.002 -0.939 0.345 68 71 39
-13.4091 96.0374 -69.9480 0.561 -0.776 0.288 67 70 38
-13.1700 96.2572 -70.1679 0.466 -0.835 0.293 67 70 39
-12.7894 95.8950 -70.1174 -0.165 -0.877 0.451 67 70 39
-13.0525 99.4616 -72.0172 0.152 -0.593 -0.790 65 68 39
-14.3923 107.7404 -76.1332 -0.538 -0.309 0.784 64 67 38
-12.0193 104.1921 -75.0934 -0.688 -0.715 0.122 61 64 35
-10.7226 101.1247 -73.8906 -0.343 -0.864 0.369 56 59 32
-10.5483 101.7127 -74.2915 0.535 -0.833 -0.140 56 58 32
-10.2880 101.9168 -74.5110 0.535 -0.833 -0.140 55 58 32
-9.8146 102.5571 -75.0617 0.522 -0.840 -0.149 60 63 36
-10.6562 109.4746 -78.6129 0.536 -0.840 0.085 64 67 40
-6.7174 100.8671 -75.3585 -0.312 -0.518 -0.796 64 65 33
-6.6113 103.4645 -76.8619 -0.292 -0.525 -0.799 64 65 34
2.2285 100.4364 -78.7186 -0.443 -0.550 -0.708 51 50 30
33.7120 53.6311 -65.0752 -0.667 -0.129 0.733 80 26 28
45.6241 9.9811 -45.3254 -0.803 -0.467 -0.371 93 97 70
-34.3101 62.8234 -43.1500 0.855 -0.474 0.210 58 59 27
-33.7972 64.0917 -44.0730 0.862 -0.412 0.294 34 33 15
-29.3396 65.7250 -46.7916 0.456 -0.521 0.721 26 27 13
-9.5135 37.7443 -38.9767 -0.554 -0.671 -0.493 66 70 33
-21.6329 78.5503 -57.1408 0.225 -0.861 0.456 64 65 34
-11.6175 67.7292 -55.0646 -0.145 -0.735 0.662 64 67 38
-18.8397 96.2169 -68.2446 0.684 -0.633 0.362 64 67 35
-14.5349 95.3417 -69.4848 0.463 -0.426 0.777 61 64 38
-13.7649 99.3764 -72.0739 -0.406 -0.861 0.306 59 62 33
-14.6267 109.4913 -77.4396 -0.526 -0.833 -0.169 56 59 34
-11.6195 101.8136 -74.3149 -0.463 -0.546 0.698 55 57 32
-10.3531 104.4356 -76.3061 -0.084 -0.976 -0.203 56 58 35
-10.0428 104.4350 -76.4308 -0.084 -0.976 -0.203 55 57 35
-9.8582 108.0350 -78.5385 -0.329 -0.522 -0.787 57 57 30
-8.9274 108.1419 -78.9740 -0.333 -0.522 -0.785 57 58 27
-8.6538 108.3631 -79.2091 -0.331 -0.523 -0.786 56 57 26
-6.3132 107.7828 -79.8245 -0.350 -0.522 -0.778 53 55 31
-5.0497 107.8411 -80.3665 -0.354 -0.524 -0.775 52 54 31
-4.9272 108.9455 -81.0397 -0.377 -0.519 -0.768 51 50 32
31.8781 65.3432 -71.2432 -0.772 -0.621 -0.138 60 18 24
65.8906 91.1843 -99.5434 -0.798 -0.589 -0.127 10 12 7
45.6295 10.1504 -45.6108 -0.806 -0.463 -0.367 99 103 82
45.5302 8.6566 -44.7271 -0.952 -0.296 0.083 78 83 53
-34.4033 62.7668 -43.3769 0.848 -0.449 0.283 58 59 27
-33.7586 63.7497 -44.1944 0.870 -0.377 0.318 33 32 13
-15.7761 45.3951 -41.0331 -0.446 -0.195 0.874 63 66 35
-13.6074 49.8384 -44.4281 -0.190 -0.896 -0.401 58 63 24
-13.7547 52.0658 -45.6322 -0.155 -0.969 -0.191 59 60 29
-13.6277 52.9232 -46.1699 -0.559 -0.748 -0.358 59 60 29
-13.5910 74.2618 -58.2894 -0.485 -0.378 0.789 56 59 29
-15.1387 92.6939 -68.1213 0.437 -0.555 -0.708 54 56 35
-10.9776 106.6979 -77.7431 -0.301 -0.884 -0.358 51 53 31
-7.7279 111.1297 -81.5674 -0.355 -0.820 -0.449 48 49 26
28.5760 81.9968 -79.6793 -0.581 -0.696 0.421 45 9 15
32.2999 65.3972 -71.7644 -0.831 -0.543 0.118 59 15 16
45.4068 19.0506 -50.7582 -0.753 -0.114 0.648 18 18 15
45.5190 9.3171 -45.2819 -0.948 -0.316 0.027 75 78 64
-24.0055 57.1660 -44.6780 -0.593 -0.081 0.801 57 58 25
-15.2944 52.0172 -45.2594 -0.770 -0.452 0.450 56 60 27
-18.8116 71.5539 -54.9709 -0.382 -0.784 0.489 51 51 25
-17.1849 74.9801 -57.5793 0.253 -0.373 0.893 55 55 28
-15.8177 81.6411 -61.9260 0.333 -0.790 -0.514 52 51 27
-16.2311 84.0279 -63.1190 0.533 -0.748 -0.395 52 51 27
-15.5634 86.4924 -64.7925 0.470 -0.650 -0.597 51 50 28
-17.1462 113.4626 -79.5198 0.282 -0.360 0.889 48 47 25
45.3094 18.1169 -50.3975 -0.741 -0.136 0.658 9 10 4
-34.7465 62.5199 -43.6912 0.832 -0.327 0.448 57 61 26
-19.8095 71.2718 -54.7298 0.123 -0.864 0.488 48 48 24
-18.2181 68.6730 -53.8853 -0.108 -0.689 0.716 46 46 23
-19.4005 110.3182 -77.2374 -0.387 -0.917 -0.094 45 42 23
-34.7539 62.2841 -43.8497 0.832 -0.327 0.448 55 59 24
-16.0850 45.9406 -42.0000 -0.363 -0.791 -0.493 46 45 25
-15.8620 45.8687 -42.0488 -0.363 -0.791 -0.493 46 45 25
-17.8069 56.6779 -47.4748 0.611 -0.685 0.397 43 44 25
-17.3470 58.4367 -48.6714 0.022 -0.927 -0.374 47 47 21
65.3656 91.6902 -101.1986 -0.337 -0.276 0.900 10 12 12
-27.9997 64.3704 -48.0813 0.316 -0.218 0.923 39 37 21
-24.3457 56.6661 -45.1120 -0.637 -0.102 0.764 40 42 20
61.3706 79.7082 -93.0646 0.322 -0.511 0.797 11 12 16
65.9076 91.6492 -101.7907 -0.348 -0.264 0.899 20 25 8
39.6487 36.2494 -59.4533 -0.560 -0.353 0.750 53 16 19
39.9959 35.8687 -59.3731 -0.560 -0.353 0.750 55 17 21
42.8434 48.0937 -67.6111 -0.701 -0.525 0.482 62 21 26
44.7056 19.2188 -51.6277 0.277 -0.756 0.593 30 33 24
44.8987 19.3218 -51.7655 0.459 -0.785 0.416 8 13 6
45.2381 16.4833 -50.2575 -0.964 -0.245 0.104 41 45 33
65.6626 91.0224 -101.7256 -0.354 -0.278 0.893 32 37 14
-10.3662 96.1140 -74.3073 -0.077 -0.693 0.717 52 51 31
44.6830 37.6511 -62.5605 -0.628 -0.627 -0.462 69 22 26
44.2544 18.9243 -51.4858 -0.146 -0.673 0.725 59 58 41
-21.8033 34.1218 -33.8223 0.845 -0.464 0.267 55 59 24
-21.7269 34.3181 -33.9680 0.835 -0.455 0.309 55 56 22
-21.7132 34.6459 -34.1652 0.916 -0.328 0.232 52 53 21
-21.4326 35.1420 -34.5688 0.901 -0.361 0.241 35 33 10
-10.4473 95.8914 -74.5331 -0.079 -0.701 0.709 48 47 27
-10.1283 95.7868 -74.6012 -0.079 -0.701 0.709 49 48 28
44.1733 18.7692 -51.5741 0.484 -0.738 0.471 55 53 37
55.1764 58.4614 -79.2355 -0.698 -0.503 0.509 18 21 13
-21.8982 33.7724 -33.8107 0.891 -0.163 0.425 57 61 26
-21.7388 34.1479 -34.0957 0.870 -0.329 0.366 55 56 22
-10.4192 93.9085 -73.7693 -0.528 -0.493 0.691 41 39 19
44.1465 18.8604 -51.8283 -0.167 -0.695 0.700 39 37 23
44.3113 18.8415 -51.8841 -0.079 -0.759 0.646 15 16 8
44.9024 18.4688 -51.9049 0.404 -0.647 0.647 33 37 15
44.7572 9.9340 -46.8353 -0.815 -0.180 0.550 11 14 5
42.8590 24.7264 -54.9768 -0.553 0.038 0.832 44 16 15
44.0631 19.4708 -52.3666 -0.935 -0.337 -0.110 48 46 34
44.1588 19.1310 -52.2051 -0.932 -0.342 -0.117 19 21 4
44.5466 18.5918 -52.0445 0.628 -0.466 0.624 37 40 30
44.6991 18.5197 -52.0638 0.599 -0.497 0.628 44 49 28
44.8231 18.3249 -51.9993 0.404 -0.647 0.647 38 43 21
44.4381 18.3165 -52.0493 0.627 -0.470 0.621 51 56 35
44.6099 18.3313 -52.1278 0.599 -0.497 0.628 55 61 30
44.7440 18.1813 -52.0935 0.404 -0.647 0.647 37 43 18
55.8586 63.2964 -83.3169 -0.480 -0.491 0.726 11 14 7
59.8174 68.5631 -88.0421 0.139 -0.568 0.811 8 9 11
40.5365 -17.4383 -29.2958 -0.880 -0.102 0.464 102 111 68
43.6543 21.2380 -53.6795 0.101 -0.994 0.029 36 39 25
44.6075 18.5257 -52.4540 0.683 -0.667 0.297 65 72 38
43.6030 21.2273 -53.8712 0.101 -0.994 0.029 35 40 26
42.2483 -6.8556 -36.5526 -0.952 -0.300 0.064 89 97 60
-35.3308 59.2261 -44.7696 0.615 -0.719 0.324 59 63 30
-21.8519 32.3792 -34.1546 0.853 -0.315 0.416 56 60 27
43.5361 21.1416 -54.0118 0.105 -0.994 -0.006 36 40 25
44.3691 15.7043 -51.0904 0.692 -0.720 -0.054 12 15 3
44.5859 15.9321 -51.3152 0.695 -0.717 -0.060 19 22 12
-35.2338 58.7906 -44.8402 0.720 -0.497 0.484 60 64 31
-21.7887 32.0632 -34.2196 0.818 -0.197 0.540 56 60 27
43.2257 20.7139 -53.8472 0.693 -0.693 0.197 45 45 32
43.9628 20.1133 -53.7856 -0.917 -0.348 -0.197 12 13 8
54.6092 54.9579 -79.0989 -0.790 -0.336 0.512 61 64 53
54.7869 54.6824 -79.0054 -0.790 -0.336 0.512 54 57 48
-35.2562 58.5964 -45.0064 0.720 -0.497 0.484 57 61 28
-35.0948 58.7031 -45.1367 0.720 -0.497 0.484 57 61 29
-21.9570 32.5553 -34.6778 0.885 -0.174 0.431 52 55 27
-21.7236 32.4246 -34.6938 0.914 -0.167 0.370 42 45 18
-0.4722 96.0556 -81.8220 -0.399 -0.569 0.719 47 38 21
-0.0681 95.4250 -81.6052 -0.405 -0.557 0.725 48 39 21
43.9582 20.3172 -54.1241 -0.917 -0.348 -0.197 9 10 5
44.4664 15.8040 -51.6023 0.828 -0.561 -0.002 34 38 20
-35.1174 58.5090 -45.3026 0.720 -0.497 0.484 56 60 28
-34.6314 57.9604 -45.1676 0.724 -0.516 0.457 50 53 25
-34.4714 58.0689 -45.2986 0.724 -0.516 0.457 40 42 18
-21.6277 32.7280 -35.1475 0.908 -0.163 0.385 36 35 15
43.9440 20.4772 -54.4334 -0.920 -0.341 -0.194 9 11 6
54.5760 53.3567 -78.7291 -0.592 -0.553 0.586 9 10 14
52.7624 43.2109 -71.8300 -0.387 -0.546 -0.743 44 48 34
52.9571 42.2359 -71.3174 -0.392 -0.521 -0.758 81 90 61
-35.3470 58.3014 -45.3752 0.718 -0.510 0.474 56 60 27
-34.9968 58.0278 -45.3513 0.717 -0.500 0.485 55 58 27
-34.7484 57.9578 -45.4099 0.717 -0.500 0.486 48 51 24
-34.4978 57.8830 -45.4665 0.724 -0.516 0.457 37 40 13
-21.8097 32.5631 -35.2043 0.857 -0.223 0.464 32 34 10
41.4626 14.3201 -49.8863 -0.683 -0.640 0.351 37 27 25
41.6308 14.3601 -49.9793 -0.719 -0.606 0.339 40 35 30
44.2628 16.7487 -52.5089 -0.900 -0.429 -0.077 34 37 24
54.2305 52.2057 -78.1910 -0.447 -0.871 -0.205 8 9 13
-22.0048 32.7685 -35.4819 0.598 -0.327 0.731 32 31 10
8.6923 89.4899 -82.7340 0.304 -0.140 0.942 43 32 12
41.7696 14.4795 -50.3119 -0.517 -0.283 0.808 21 20 16
-22.1959 31.7571 -35.2443 0.677 -0.608 0.415 46 46 21
-22.0660 31.8335 -35.3445 0.677 -0.608 0.415 38 37 15
-21.9359 31.9100 -35.4449 0.677 -0.608 0.415 36 35 15
-21.9737 32.3261 -35.6863 0.607 -0.791 0.069 35 34 16
43.6733 17.7290 -53.5031 -0.662 -0.538 -0.522 10 11 16
-22.0955 31.7056 -35.4837 0.677 -0.608 0.415 33 32 12
-21.8987 31.6479 -35.5284 0.737 -0.625 0.258 34 33 13
8.8226 87.8000 -82.8942 0.190 -0.304 0.933 50 42 23
43.7184 18.1534 -53.9974 -0.662 -0.538 -0.522 9 10 15
-21.9384 31.5404 -35.6757 0.737 -0.625 0.258 31 30 10
7.8343 90.2885 -84.4202 0.455 -0.771 -0.446 44 36 17
6.6307 87.2125 -82.3935 0.281 -0.690 -0.667 58 46 20
7.6952 90.4601 -84.8588 0.455 -0.771 -0.446 47 39 20
43.9076 18.6791 -54.8323 -0.664 -0.536 -0.521 6 8 7
6.4523 87.6886 -82.9998 0.288 -0.692 -0.662 56 44 19
8.2953 86.8229 -83.2118 0.137 -0.300 0.944 54 45 26
6.2782 88.1251 -83.5858 0.292 -0.691 -0.662 55 44 23
6.5091 88.5999 -83.9796 0.292 -0.691 -0.662 42 31 10
7.3956 90.9736 -85.8385 0.455 -0.760 -0.464 54 41 24
8.1501 87.0687 -83.6879 0.176 -0.322 0.930 56 44 25
6.6863 86.2778 -82.9689 0.283 -0.776 -0.564 36 25 5
7.0479 90.4035 -85.7269 -0.324 -0.697 -0.639 53 40 24
6.7253 86.3948 -83.8200 -0.113 -0.990 0.082 42 31 13
7.0190 86.3534 -83.9143 -0.113 -0.990 0.082 53 37 22
6.5994 86.4618 -84.1926 -0.145 -0.984 0.100 45 34 16
-32.5901 43.2641 -40.6828 0.720 -0.690 -0.073 45 47 23
-32.7687 43.3938 -40.9534 0.716 -0.693 -0.082 42 44 20
-25.4217 19.3853 -28.6848 0.700 -0.525 -0.483 66 73 33
-25.3799 19.5521 -28.8101 0.703 -0.531 -0.474 66 73 32
-32.7384 42.7978 -40.8408 0.235 -0.780 -0.579 36 38 16
-33.1416 43.8788 -41.3751 0.384 -0.848 -0.365 35 37 16
53.9135 55.0174 -84.4591 -0.343 -0.580 -0.739 4 9 3
39.5629 -23.4655 -27.6926 -0.969 -0.245 0.028 8 12 14
-25.6561 19.6253 -28.9459 0.708 -0.547 -0.448 67 73 37
-25.6102 19.7858 -29.0692 0.708 -0.547 -0.448 67 73 35
-65.2300 97.7001 -63.4217 -0.183 -0.721 0.668 68 69 36
-34.0848 44.3640 -41.5646 -0.759 -0.610 0.229 34 36 15
50.0398 30.3929 -67.1586 0.040 -0.638 -0.769 9 11 11
-25.3454 15.8528 -26.8125 0.115 -0.568 -0.815 41 44 24
-25.4352 16.6428 -27.2914 -0.026 -0.523 -0.852 47 50 32
-25.5028 16.9687 -27.4764 -0.023 -0.523 -0.852 47 50 31
-25.5291 17.2310 -27.6368 -0.023 -0.523 -0.852 46 49 30
-25.5556 17.4951 -27.7984 -0.023 -0.523 -0.852 46 49 27
-25.5883 17.7706 -27.9649 -0.023 -0.524 -0.852 49 53 28
-25.6590 18.1085 -28.1564 -0.022 -0.524 -0.852 51 55 28
-25.7612 18.4989 -28.3691 -0.034 -0.520 -0.854 53 57 28
-25.7629 18.7299 -28.5194 -0.023 -0.520 -0.854 54 59 31
-25.7713 18.9731 -28.6747 -0.011 -0.524 -0.852 57 61 34
-25.8420 19.3185 -28.8711 0.062 -0.547 -0.835 59 63 38
-25.8411 19.5498 -29.0226 0.062 -0.547 -0.835 58 62 36
-25.8450 19.7904 -29.1781 0.031 -0.535 -0.844 58 62 33
-25.8983 20.1128 -29.3667 0.043 -0.501 -0.865 58 63 32
-43.8895 53.3881 -43.6775 0.913 -0.399 -0.089 63 70 29
-44.0263 53.9637 -43.9970 0.913 -0.408 0.014 63 70 29
-46.2840 59.5948 -46.7434 0.726 -0.526 -0.443 63 70 29
-45.6043 61.0424 -47.9693 -0.396 -0.861 -0.318 72 79 37
39.3741 -22.8582 -28.2297 -0.861 -0.097 0.499 19 27 7
-25.7526 16.3565 -27.1677 0.117 -0.567 -0.815 32 34 19
-26.1305 18.0470 -28.1202 -0.023 -0.524 -0.852 35 37 23
-26.1588 18.3160 -28.2848 -0.023 -0.524 -0.852 35 37 22
-26.1874 18.5868 -28.4506 -0.023 -0.524 -0.852 37 39 22
-26.2578 18.9261 -28.6440 -0.022 -0.524 -0.852 39 42 23
-26.3421 19.2894 -28.8475 -0.013 -0.523 -0.852 40 43 24
-26.3282 19.4974 -28.9896 -0.011 -0.524 -0.852 42 45 26
-26.3569 19.7750 -29.1598 -0.011 -0.524 -0.852 44 47 30
-26.2573 19.8476 -29.2485 0.062 -0.547 -0.835 46 49 32
-26.3530 20.2363 -29.4639 0.037 -0.535 -0.844 46 49 31
-26.3652 20.4919 -29.6264 0.037 -0.535 -0.844 45 49 27
-26.4355 20.8436 -29.8280 0.049 -0.501 -0.864 46 50 27
-26.4886 21.1692 -30.0196 0.049 -0.501 -0.864 52 55 31
-26.8480 21.9977 -30.4145 0.066 -0.508 -0.859 55 58 27
-26.9447 22.4001 -30.6385 0.065 -0.509 -0.859 57 60 28
-27.0718 22.8550 -30.8843 0.063 -0.509 -0.858 59 62 30
-44.6331 54.4355 -44.3423 0.839 -0.454 0.300 61 67 30
-44.6149 54.7516 -44.5571 0.841 -0.444 0.308 60 66 29
-44.7106 55.2625 -44.8526 0.849 -0.489 0.199 64 70 33
-44.7131 55.6183 -45.0849 0.839 -0.508 0.195 64 70 33
-46.4245 59.6180 -47.0010 0.726 -0.526 -0.443 64 70 31
-46.4978 60.1132 -47.2955 0.733 -0.552 -0.397 64 70 31
49.3874 25.2947 -64.0497 0.493 -0.260 0.830 42 50 32
-26.6785 20.3841 -29.6311 0.062 -0.547 -0.835 36 38 26
-26.7429 20.7232 -29.8277 0.064 -0.547 -0.835 36 38 24
-26.9062 21.2245 -30.0903 0.026 -0.537 -0.843 35 38 23
-26.9184 21.4834 -30.2557 0.026 -0.537 -0.843 36 39 22
-27.2170 22.2101 -30.6107 0.111 -0.517 -0.848 41 44 25
-27.2701 22.5403 -30.8061 0.114 -0.517 -0.848 44 48 24
-27.6727 23.4445 -31.2350 0.136 -0.521 -0.843 45 49 24
-27.6643 23.6792 -31.3930 0.042 -0.519 -0.854 47 51 26
-27.6974 23.9836 -31.5798 0.042 -0.519 -0.854 50 54 29
-27.6605 24.1744 -31.7206 0.038 -0.520 -0.853 50 55 30
-27.6936 24.4822 -31.9095 0.038 -0.520 -0.853 50 55 30
-27.7269 24.7922 -32.0999 0.038 -0.520 -0.853 49 54 29
-27.7666 25.1148 -32.2958 -0.013 -0.518 -0.855 52 57 30
-27.9072 25.6078 -32.5623 0.034 -0.516 -0.856 58 64 33
-45.0976 55.0100 -44.8166 0.750 -0.616 0.240 57 64 31
-45.1325 55.4169 -45.0700 0.766 -0.558 0.319 56 63 30
-45.7477 56.8069 -45.7309 0.879 -0.453 0.149 59 66 33
-45.8849 57.7536 -46.2975 0.772 -0.584 0.251 61 68 35
-46.4353 59.0529 -46.9255 0.355 -0.758 -0.548 61 68 35
-47.1033 60.5610 -47.6423 0.731 -0.626 -0.272 60 67 33
49.2680 25.0272 -64.0632 0.488 -0.260 0.833 34 41 27
39.4119 -23.1487 -28.2762 -0.980 -0.179 0.088 16 19 8
-28.0459 23.9052 -31.5979 0.134 -0.520 -0.843 30 37 18
-28.1841 24.3811 -31.8553 0.040 -0.519 -0.854 28 35 17
-28.2159 24.6852 -32.0431 0.040 -0.519 -0.854 33 40 22
-28.1329 24.8017 -32.1544 0.045 -0.518 -0.854 35 42 24
-28.2686 25.2804 -32.4147 0.042 -0.514 -0.857 35 42 24
-28.3517 25.6748 -32.6411 0.042 -0.513 -0.857 34 41 23
-28.4050 26.0221 -32.8486 0.040 -0.513 -0.857 37 43 24
-28.5353 26.5000 -33.1105 0.038 -0.515 -0.857 43 49 24
-28.5769 26.8324 -33.3130 0.041 -0.515 -0.856 43 48 23
-28.6205 27.1701 -33.5182 0.041 -0.515 -0.856 42 48 22
-45.3331 55.5464 -45.3635 0.768 -0.550 0.328 42 48 22
-45.9442 56.9276 -46.0237 0.837 -0.520 0.171 45 51 25
-45.9070 57.2203 -46.2325 0.814 -0.545 0.199 47 53 27
-46.1046 57.9132 -46.6088 0.760 -0.592 0.270 50 55 30
-47.4390 60.5450 -47.7966 0.561 -0.744 -0.363 51 56 30
-47.8086 61.5459 -48.3052 0.553 -0.741 -0.380 48 57 28
48.3263 17.0490 -58.6395 -0.815 -0.554 0.168 21 25 9
-27.5515 21.2640 -30.2640 0.132 -0.544 -0.829 25 31 19
-27.6230 21.6152 -30.4674 0.121 -0.544 -0.830 26 32 20
-27.8103 22.1546 -30.7479 0.067 -0.545 -0.836 26 32 18
-27.9596 22.6359 -31.0054 0.146 -0.508 -0.849 26 32 18
-29.1503 28.4368 -34.3619 0.756 -0.521 -0.396 33 41 19
-46.2761 57.6319 -46.6486 0.712 -0.633 0.305 34 42 20
-46.4214 58.2365 -46.9897 0.764 -0.601 0.234 36 44 22
-48.0473 61.7318 -48.6363 0.488 -0.772 -0.407 39 47 23
-48.6503 63.1365 -49.3189 0.529 -0.742 -0.412 39 48 23
5.6728 85.4505 -86.5977 0.139 -0.904 0.405 63 51 26
-28.9578 25.3431 -32.6067 0.141 -0.537 -0.832 29 35 22
-28.8235 25.8879 -33.0252 0.718 -0.542 -0.436 25 31 19
-29.0116 26.4565 -33.3260 0.730 -0.533 -0.429 25 31 19
-29.3057 28.5370 -34.5901 0.740 -0.532 -0.412 27 34 16
-29.2073 28.6425 -34.7012 0.107 -0.524 -0.845 29 36 18
-29.1573 28.8308 -34.8473 0.124 -0.525 -0.842 31 38 20
-48.4770 62.2418 -49.1054 0.495 -0.784 -0.374 34 42 19
5.6567 66.2215 -74.1665 0.882 -0.334 0.334 56 46 18
6.2861 84.2803 -86.4565 -0.462 -0.883 -0.087 56 47 16
-29.7580 29.6824 -35.3952 0.136 -0.529 -0.838 30 37 20
6.1701 84.2728 -86.7854 -0.189 -0.939 -0.288 58 49 18
52.0568 45.3489 -79.7647 -0.261 -0.588 -0.766 5 7 6
48.7491 23.7895 -63.9769 0.233 -0.869 -0.435 19 24 16
48.8571 20.9394 -62.3447 0.708 -0.548 0.445 35 42 24
5.9149 84.4271 -87.5493 -0.176 -0.962 -0.211 57 50 25
48.4889 20.4082 -62.0635 0.737 -0.542 0.404 17 23 12
48.7087 20.5620 -62.2583 0.737 -0.542 0.404 32 39 24
6.5566 83.0210 -87.2484 0.098 -0.952 0.289 50 42 23
48.2609 21.0758 -62.6489 -0.706 -0.184 0.684 19 25 15
48.2160 20.2268 -62.0558 0.431 -0.473 0.769 20 26 15
48.3946 20.2292 -62.1316 0.737 -0.542 0.404 20 23 12
48.6219 20.4121 -62.3497 0.733 -0.544 0.409 27 30 20
30.9772 15.7820 -52.1040 0.100 -0.650 0.753 17 19 6
47.2320 24.4479 -64.7422 -0.635 -0.736 -0.234 8 11 2
47.5201 24.1040 -64.6283 -0.613 -0.750 -0.248 49 52 44
47.9787 21.5586 -63.0899 -0.723 -0.152 0.674 14 17 10
48.0846 20.5831 -62.4714 -0.729 -0.163 0.665 30 34 22
48.2963 20.0348 -62.1869 0.448 -0.511 0.733 25 29 16
48.5015 20.1370 -62.3415 0.350 -0.555 0.755 27 29 24
36.8358 43.5741 -73.7011 -0.420 -0.622 -0.660 14 18 17
47.5731 23.7685 -64.6600 -0.447 -0.820 -0.358 40 42 38
47.5543 22.9489 -64.0934 -0.400 -0.509 0.762 27 29 24
48.1423 19.6298 -62.0747 0.485 -0.521 0.702 35 39 25
48.3417 19.7133 -62.2145 0.464 -0.527 0.712 28 31 26
44.3998 2.8706 -49.0918 -0.412 -0.619 0.669 14 19 11
35.2331 43.6260 -73.3569 0.427 -0.895 -0.132 9 10 12
35.6636 43.5344 -73.4733 0.428 -0.894 -0.132 9 11 8
43.9952 0.5400 -47.5102 0.086 -0.924 0.372 11 16 13
40.5009 -30.9183 -24.5241 -0.968 -0.209 0.140 13 16 9
32.5366 23.5028 -58.6946 -0.206 -0.895 0.397 22 22 18
33.0400 23.1224 -58.6428 0.112 -0.839 -0.533 14 15 11
35.9128 44.6292 -74.6163 -0.147 -0.975 -0.168 7 9 4
36.9713 46.3283 -76.2244 -0.356 -0.627 -0.693 5 7 4
46.8267 16.2928 -59.6889 0.866 -0.123 0.485 62 67 47
47.2244 17.1604 -60.4506 0.872 -0.124 0.473 60 65 45
47.6627 18.1671 -61.3248 0.941 -0.178 0.289 52 56 37
47.6745 17.5581 -60.9112 0.938 -0.159 0.308 36 40 27
47.8724 17.6510 -61.0575 0.938 -0.124 0.324 21 23 18
29.2374 27.0703 -60.0147 0.138 -0.734 0.665 13 14 8
23.1308 34.0671 -62.5563 -0.198 -0.645 0.738 41 30 26
23.5238 33.9824 -62.6615 -0.581 -0.429 0.692 41 30 24
30.0955 27.0773 -60.6197 0.327 -0.567 0.756 17 18 12
30.2801 27.0794 -60.6981 0.327 -0.567 0.756 18 19 11
32.2378 23.4641 -59.0109 -0.110 -0.937 0.330 61 66 37
32.7583 23.2824 -59.1020 0.194 -0.875 -0.444 64 70 37
33.1031 23.1446 -59.1504 0.071 -0.880 -0.469 37 41 30
22.2603 34.5340 -62.7773 -0.087 -0.950 0.301 51 47 30
22.4532 34.6269 -62.9224 -0.040 -0.945 0.326 49 45 27
22.6588 34.3472 -62.8137 0.362 -0.664 0.654 46 45 29
23.0670 33.7775 -62.5880 -0.258 -0.631 0.731 42 41 28
30.0409 27.2598 -60.9668 0.239 -0.721 0.650 27 28 19
30.2256 27.2548 -61.0404 0.239 -0.721 0.650 37 40 22
32.1795 23.4748 -59.2281 -0.438 -0.573 0.692 72 80 43
32.3442 23.2911 -59.1691 -0.436 -0.573 0.694 77 85 46
32.7116 23.4343 -59.4219 0.194 -0.875 -0.444 75 81 47
32.8955 23.5021 -59.5458 0.218 -0.864 -0.455 70 75 52
21.7799 15.7058 -49.7012 -0.518 -0.851 0.087 65 70 37
30.3341 26.9768 -61.1357 0.164 -0.958 0.236 65 70 37
30.4350 25.3321 -60.0303 -0.159 -0.730 0.665 70 76 36
31.1754 25.5747 -60.5086 0.324 -0.829 0.455 89 97 47
31.9471 23.5487 -59.4172 -0.448 -0.576 0.684 55 61 34
32.1127 23.3671 -59.3596 -0.438 -0.573 0.692 69 76 44
32.2774 23.1833 -59.3001 -0.436 -0.573 0.694 75 82 49
40.3560 -30.4016 -25.2856 -0.954 -0.209 0.216 7 13 2
19.8646 29.9067 -59.0582 0.282 -0.943 0.175 53 55 39
28.2954 28.9498 -61.9096 -0.876 -0.483 -0.000 60 64 35
28.4742 28.6253 -61.7570 -0.876 -0.483 -0.000 59 63 39
28.6518 28.3029 -61.6054 -0.876 -0.483 -0.000 61 67 42
30.2777 27.1102 -61.4492 0.155 -0.963 0.219 70 75 40
30.4483 26.8220 -61.3186 -0.381 -0.891 0.246 74 81 39
30.5409 25.0635 -60.1257 -0.130 -0.764 0.632 79 86 45
30.9066 25.1263 -60.3224 0.470 -0.825 0.313 87 94 49
31.1087 25.4811 -60.6553 0.293 -0.812 0.505 83 90 47
31.7061 23.5022 -59.5189 -0.473 -0.212 0.855 25 28 16
31.8751 23.3648 -59.4934 -0.223 -0.424 0.878 43 47 32
46.8660 17.3185 -61.5205 -0.628 -0.688 -0.364 33 38 31
7.4533 78.1321 -88.0229 -0.175 -0.888 0.426 40 39 18
17.2454 58.1279 -78.0524 0.088 -0.652 0.753 24 25 19
26.9198 29.2604 -61.8016 -0.457 -0.624 0.634 24 27 11
28.0479 29.2019 -62.2320 -0.852 -0.524 0.022 85 92 49
28.2306 28.9787 -62.1515 -0.854 -0.520 0.013 85 91 55
29.6567 27.0368 -61.3824 -0.071 -0.858 -0.509 31 33 30
30.3823 26.7553 -61.4878 -0.376 -0.896 0.237 60 67 29
30.4773 25.0212 -60.3084 -0.109 -0.775 0.623 65 71 37
31.4659 26.3543 -61.6588 0.213 -0.913 -0.348 43 45 32
41.1178 -31.2681 -25.1831 -0.905 -0.087 0.417 21 28 19
6.8712 79.5794 -89.1748 0.595 -0.684 0.421 45 36 13
18.4658 52.6769 -75.0398 -0.781 -0.610 -0.136 26 27 21
26.8521 29.1584 -61.9508 -0.457 -0.624 0.634 22 25 9
27.9832 29.2569 -62.4934 -0.853 -0.522 0.019 89 95 54
28.1664 29.0348 -62.4133 -0.857 -0.515 0.011 84 89 54
28.3492 28.8288 -62.3444 -0.852 -0.521 -0.045 76 80 53
32.0527 22.5132 -59.4366 -0.474 -0.202 0.857 13 15 10
32.6847 21.5567 -59.0260 -0.296 -0.821 0.489 20 22 9
32.8922 21.9528 -59.3923 0.785 -0.596 0.168 16 19 4
-22.4858 20.1870 -35.1936 0.490 -0.850 -0.195 32 31 12
18.5506 53.6159 -76.0503 -0.531 -0.799 -0.281 13 15 4
27.7184 28.7458 -62.2707 0.320 -0.611 0.724 71 76 46
27.9102 28.9384 -62.4874 -0.517 -0.446 0.730 67 72 42
31.9859 22.3980 -59.5604 -0.522 -0.218 0.825 19 21 19
32.1503 22.2283 -59.5090 -0.522 -0.223 0.823 25 28 23
-22.5521 19.8910 -35.1670 0.632 -0.767 -0.114 30 28 12
-22.5345 20.1192 -35.3366 0.549 -0.827 -0.123 33 32 12
25.5875 30.5322 -62.8973 -0.523 -0.204 0.827 62 64 48
26.7158 28.8279 -62.1582 -0.440 -0.627 0.643 23 24 17
27.2720 28.3921 -62.0812 -0.432 -0.633 0.643 46 48 35
28.8952 26.5470 -61.4493 -0.301 -0.179 0.937 11 12 14
31.1171 23.6212 -60.2996 -0.686 -0.213 0.696 35 37 22
31.5799 22.4926 -59.6909 -0.787 -0.557 0.265 28 33 15
32.0603 21.7906 -59.3930 -0.904 -0.356 0.235 38 42 27
32.2254 21.6470 -59.3601 -0.797 -0.539 0.274 54 59 37
40.1278 -30.5843 -25.5318 -0.294 -0.108 0.950 33 39 28
-22.6143 19.8472 -35.3207 0.647 -0.756 -0.101 29 28 10
-22.7404 20.3250 -35.6089 0.550 -0.828 -0.111 34 33 13
-22.6307 20.3945 -35.7044 0.552 -0.829 -0.087 38 37 17
