ply
format ascii 1.0
element vertex 900
property float x
property float y
property float z
property float nx
property float ny
property float nz
property uchar diffuse_red
property uchar diffuse_green
property uchar diffuse_blue
end_header
33.6126 71.8967 -3.3675 -0.673 -0.285 0.683 80 87 44
33.6470 71.6903 -3.3645 -0.664 -0.285 0.691 69 76 30
33.6387 71.3573 -3.3468 -0.890 -0.425 -0.167 55 63 17
33.6954 71.2232 -3.3518 -0.827 -0.456 -0.328 54 61 15
33.7442 71.0667 -3.3541 -0.822 -0.459 -0.336 51 59 12
33.8266 71.0119 -3.3681 -0.854 -0.469 -0.225 49 57 11
33.9756 70.2715 -3.3625 -0.907 -0.407 -0.105 60 67 23
34.0217 70.1167 -3.3643 -0.909 -0.402 -0.108 64 71 27
34.2359 69.3190 -3.3691 -0.844 -0.415 -0.339 73 82 37
34.2543 69.0951 -3.3620 -0.839 -0.413 -0.354 61 70 26
34.2935 68.6604 -3.3490 -0.645 -0.470 -0.603 58 67 22
34.3184 68.4609 -3.3444 -0.693 -0.468 -0.549 58 67 21
34.6838 67.3768 -3.3659 -0.070 -0.738 -0.671 120 128 76
34.8140 67.4726 -3.3968 0.243 -0.630 -0.737 99 107 55
34.9368 67.5480 -3.4252 0.291 -0.603 -0.743 87 96 42
-31.7306 98.6767 8.3667 -0.426 -0.402 0.811 88 98 49
-25.3386 99.6761 7.0280 0.001 -0.554 0.833 34 41 9
-12.0891 99.1724 4.3816 -0.084 -0.517 0.852 61 72 42
-11.8649 98.9335 4.3483 0.043 -0.423 0.905 63 73 46
-11.7400 99.0332 4.3182 -0.045 -0.552 0.833 60 73 47
-9.6689 95.9987 4.0520 -0.229 -0.565 0.793 50 60 35
-9.4644 95.7952 4.0209 -0.147 -0.577 0.804 50 60 33
-10.0310 99.5478 3.9479 0.519 -0.256 0.816 42 52 25
-9.9138 99.6881 3.9173 0.519 -0.256 0.816 42 52 25
-9.8439 100.0080 3.8872 0.524 -0.233 0.819 40 50 23
-9.6313 100.3833 3.8256 -0.282 -0.866 0.414 40 48 24
-9.3641 99.9572 3.7930 -0.303 -0.862 0.407 39 47 23
-9.2064 99.9483 3.7617 0.028 -0.957 -0.290 40 48 24
-8.8366 99.7168 3.6986 0.171 -0.944 -0.281 39 47 23
-8.6907 99.7525 3.6675 0.171 -0.944 -0.281 38 46 22
-8.5578 99.8402 3.6363 0.181 -0.942 -0.284 38 47 20
-8.0097 100.1349 3.5111 0.339 -0.935 -0.101 42 46 21
-7.8785 100.2350 3.4796 0.287 -0.945 -0.154 43 47 22
-7.7414 100.3119 3.4481 -0.257 -0.934 0.248 43 47 22
-7.5535 100.1780 3.4169 -0.427 -0.857 0.288 43 47 22
-7.2530 100.2229 3.3541 -0.264 -0.954 0.141 47 51 26
-4.6223 99.5363 2.8579 0.399 -0.799 0.450 54 57 36
-4.4792 99.5899 2.8264 0.399 -0.799 0.450 53 58 35
1.7852 97.6926 1.6580 0.046 -0.136 0.990 35 39 21
4.3115 96.5698 1.2046 0.906 -0.384 0.177 37 44 27
4.4313 96.8286 1.1675 0.908 -0.382 0.174 45 51 22
5.5308 104.5477 0.5606 0.992 -0.122 0.011 221 229 180
24.5807 92.1757 -2.6630 -0.723 -0.415 0.552 96 104 57
25.3283 83.0970 -2.3607 -0.498 -0.847 0.186 35 39 15
25.4503 83.0936 -2.3851 -0.460 -0.869 0.179 35 39 15
25.5703 83.0788 -2.4086 -0.506 -0.840 0.196 35 39 15
25.6802 83.0031 -2.4270 -0.566 -0.534 0.628 35 39 16
26.0897 82.5430 -2.4866 -0.565 -0.519 0.642 27 32 12
26.4253 82.3817 -2.5462 -0.297 -0.590 0.751 36 41 19
26.7327 82.0765 -2.5929 -0.515 -0.851 0.102 36 43 11
26.8415 82.0127 -2.6117 -0.523 -0.846 0.106 40 47 15
27.0319 81.7444 -2.6367 -0.270 -0.549 0.791 44 51 18
27.2988 81.2635 -2.6665 -0.435 -0.807 0.399 51 57 22
27.7765 81.2702 -2.7632 0.230 -0.932 -0.281 67 71 38
27.8746 81.1662 -2.7777 -0.607 -0.744 0.281 69 72 41
27.9779 81.0899 -2.7948 -0.611 -0.746 0.265 71 74 43
28.0824 81.0202 -2.8124 -0.606 -0.722 0.334 73 78 46
28.9234 79.9960 -2.9308 -0.622 -0.781 -0.057 57 61 25
28.9871 79.7574 -2.9318 -0.804 -0.592 -0.053 49 53 17
29.1022 79.7519 -2.9547 -0.816 -0.575 -0.065 70 71 36
29.2997 79.0908 -2.9615 -0.022 -0.988 0.155 95 96 62
30.6385 77.5699 -3.1556 -0.823 -0.539 -0.177 131 137 92
30.8687 77.1582 -3.1814 -0.642 -0.647 -0.411 158 164 119
30.9706 77.1206 -3.2001 -0.478 -0.676 -0.561 172 178 133
31.2202 76.8013 -3.2345 -0.757 -0.521 -0.394 203 211 160
31.3012 76.6893 -3.2452 -0.751 -0.525 -0.401 197 206 151
32.0124 75.2994 -3.3193 -0.765 -0.548 -0.339 77 86 31
32.0714 75.1273 -3.3226 -0.653 -0.656 -0.378 83 92 37
32.1570 75.0498 -3.3360 -0.653 -0.656 -0.378 90 99 44
32.5018 74.0372 -3.3550 -0.685 -0.624 -0.376 91 100 44
32.5961 73.9978 -3.3720 -0.818 -0.570 -0.076 91 100 43
32.6769 73.9143 -3.3841 -0.844 -0.537 -0.007 93 102 45
32.7506 73.8085 -3.3937 -0.818 -0.550 0.169 91 100 44
33.4303 72.3121 -3.4561 -0.498 -0.190 0.846 130 138 89
33.4835 72.1585 -3.4592 -0.498 -0.190 0.846 130 139 86
33.5291 71.9828 -3.4596 -0.500 -0.190 0.845 130 139 86
33.5817 71.8306 -3.4626 -0.500 -0.190 0.845 131 139 86
33.6213 71.6402 -3.4611 -0.501 -0.190 0.845 127 135 83
33.6701 71.4799 -3.4629 -0.604 -0.273 0.748 117 125 74
33.7360 71.3725 -3.4708 -0.603 -0.274 0.749 106 115 63
33.7920 71.2368 -3.4754 -0.603 -0.274 0.749 94 103 51
33.9195 70.7181 -3.4752 -0.863 -0.449 -0.233 60 68 21
34.3219 68.7622 -3.4587 -0.645 -0.470 -0.603 67 76 33
34.3834 68.6638 -3.4662 -0.644 -0.471 -0.603 65 74 30
34.7450 67.5607 -3.4841 0.235 -0.631 -0.739 112 122 74
34.9937 67.7184 -3.5421 0.289 -0.603 -0.744 134 144 93
35.1743 67.9452 -3.5898 0.549 -0.527 -0.649 110 120 67
-31.2850 102.7231 7.9128 0.007 -0.246 0.969 92 101 46
-31.0162 102.5069 7.8698 -0.041 -0.256 0.966 91 100 46
-25.2704 99.4121 6.8714 0.021 -0.466 0.884 34 40 10
-25.1353 99.4601 6.8417 0.024 -0.534 0.845 9 12 4
-9.3155 85.2007 4.3893 0.178 -0.758 0.628 82 91 44
-9.1800 85.1830 4.3629 -0.619 -0.705 0.346 52 60 17
-11.8109 99.1348 4.1726 -0.187 -0.942 0.279 53 65 41
-11.6556 99.1313 4.1415 -0.184 -0.951 0.247 53 65 41
-11.5325 99.2399 4.1111 0.262 -0.854 0.449 49 61 36
-9.1881 95.1840 3.8480 -0.221 -0.927 0.304 38 48 21
-8.7465 95.1842 3.7590 0.553 -0.791 0.263 36 46 19
-9.8594 99.9136 3.7390 0.780 -0.625 0.004 36 46 21
-9.7713 100.1681 3.7081 -0.021 -0.952 0.305 37 45 21
-9.5809 100.0368 3.6765 -0.300 -0.865 0.403 37 45 19
-9.3885 99.8958 3.6450 -0.303 -0.862 0.407 38 47 20
-9.2157 99.8287 3.6137 -0.268 -0.873 0.408 40 48 24
-9.0590 99.8229 3.5824 -0.247 -0.878 0.411 45 53 29
-8.8661 99.6756 3.5511 -0.175 -0.930 0.324 45 53 29
-8.7465 99.8147 3.5198 0.732 -0.649 0.207 45 54 27
-8.6156 99.9107 3.4885 0.773 -0.450 0.446 45 54 27
-8.5015 100.0753 3.4570 0.773 -0.450 0.446 45 54 25
-8.3933 100.2653 3.4253 0.753 -0.452 0.478 47 53 27
-8.0801 100.2595 3.3625 0.802 -0.502 0.324 48 54 28
-7.9336 100.2980 3.3310 0.802 -0.499 0.328 52 58 32
-7.7971 100.3782 3.2993 -0.346 -0.860 0.375 52 58 32
-7.6112 100.2539 3.2683 -0.362 -0.854 0.374 52 58 32
-7.4289 100.1424 3.2373 -0.355 -0.861 0.365 52 58 32
-3.8966 98.8088 2.5941 -0.410 -0.327 0.851 45 50 27
-3.3206 97.4453 2.5485 -0.207 -0.636 0.744 45 50 27
-3.1534 97.3601 2.5192 -0.254 -0.700 0.668 45 50 27
-2.9260 96.9642 2.4938 0.479 -0.695 0.536 45 50 27
-2.7899 97.0341 2.4627 0.479 -0.695 0.536 44 49 26
-2.6725 97.2027 2.4303 0.495 -0.687 0.533 44 49 26
1.2677 96.8851 1.6525 0.213 -0.333 0.919 43 48 27
4.4051 96.7737 1.0258 0.906 -0.386 0.177 52 58 30
5.5182 104.3053 0.4124 0.996 -0.089 0.026 221 229 182
24.5642 92.2044 -2.8018 -0.700 -0.297 0.650 89 97 46
25.4591 83.2522 -2.5198 -0.585 -0.193 0.788 39 44 14
25.5545 83.0853 -2.5304 -0.628 -0.460 0.628 39 43 14
26.2888 82.3873 -2.6423 -0.227 -0.708 0.668 38 43 19
27.0147 81.7367 -2.7551 -0.701 -0.675 0.230 42 49 18
27.0940 81.5222 -2.7600 -0.705 -0.677 0.213 40 47 16
27.9015 81.3748 -2.9151 -0.167 -0.914 -0.369 43 46 16
28.0183 81.3628 -2.9381 -0.167 -0.914 -0.369 50 53 22
27.7480 78.9019 -2.7565 -0.263 -0.952 0.158 47 50 20
28.9250 80.0679 -3.0540 -0.517 -0.855 -0.034 75 79 46
29.7973 78.8188 -3.1653 -0.758 -0.635 -0.152 63 64 31
29.8773 78.6739 -3.1739 -0.810 -0.586 -0.019 51 53 18
29.9551 78.5216 -3.1817 -0.848 -0.502 0.172 47 48 13
30.5517 77.7214 -3.2607 -0.824 -0.538 -0.178 185 190 150
30.8745 77.2279 -3.3002 -0.642 -0.647 -0.411 180 184 145
30.9823 77.2127 -3.3212 -0.478 -0.676 -0.561 180 187 145
31.2281 76.8762 -3.3533 -0.751 -0.525 -0.401 124 132 81
32.0760 75.1819 -3.4368 -0.659 -0.656 -0.368 119 126 82
32.1615 75.1035 -3.4499 -0.659 -0.656 -0.368 100 108 64
32.2382 74.9953 -3.4598 -0.914 -0.397 -0.081 78 86 41
32.5046 74.0819 -3.4663 -0.641 -0.610 -0.466 75 85 26
32.5834 73.9902 -3.4775 -0.664 -0.608 -0.435 82 92 33
32.7923 73.6324 -3.5011 -0.823 -0.542 0.170 82 91 36
32.9248 73.3786 -3.5147 -0.614 -0.671 0.415 85 93 42
32.9892 73.2477 -3.5209 -0.640 -0.675 0.368 85 93 44
33.0791 73.2001 -3.5366 -0.645 -0.657 0.391 85 93 46
33.1658 73.1429 -3.5511 -0.784 -0.615 0.085 86 93 47
33.2525 73.0864 -3.5657 -0.794 -0.595 0.125 89 96 53
33.3234 72.9807 -3.5745 -0.593 -0.790 -0.153 92 99 56
33.3890 72.8594 -3.5815 -0.584 -0.796 -0.156 95 103 58
33.5489 72.3896 -3.5894 -0.902 -0.425 -0.073 103 112 59
33.6032 71.9245 -3.5764 -0.885 -0.459 -0.074 116 125 69
33.6925 71.2689 -3.5605 -0.601 -0.269 0.753 124 133 78
34.0243 70.7571 -3.6010 -0.496 -0.241 0.834 100 108 60
34.0509 70.5417 -3.5952 -0.659 -0.253 0.709 89 97 46
34.0519 70.2538 -3.5805 -0.921 -0.382 -0.072 84 92 41
34.4885 68.7089 -3.5887 -0.568 -0.469 -0.676 51 60 14
34.5584 67.8465 -3.5583 -0.911 -0.378 -0.165 50 59 16
34.6270 67.7741 -3.5684 -0.869 -0.402 -0.289 43 52 11
34.7442 67.5783 -3.5819 0.252 -0.629 -0.736 46 53 18
34.8746 67.6733 -3.6131 0.282 -0.623 -0.730 93 101 61
-32.6026 98.6554 8.2333 0.406 -0.257 0.877 62 70 29
-25.0766 99.2172 6.6866 0.024 -0.534 0.845 9 13 5
-9.4861 85.2159 4.2924 -0.470 -0.517 0.716 98 108 58
-9.0727 85.1415 4.2131 0.296 -0.528 0.796 184 193 152
-8.9516 85.1704 4.1872 0.296 -0.528 0.796 143 151 114
-8.8305 85.1993 4.1612 0.296 -0.528 0.796 171 178 144
-11.6233 98.8773 3.9937 0.628 -0.575 0.525 49 59 33
-11.1876 98.9687 3.9010 0.181 -0.598 0.781 42 53 23
-10.0246 95.9256 3.8291 -0.193 -0.777 0.599 43 54 26
-9.8365 95.7843 3.7987 -0.304 -0.728 0.615 43 53 26
-9.6122 95.5107 3.7681 -0.252 -0.650 0.717 43 53 26
-9.3696 95.1672 3.7376 -0.300 -0.880 0.368 43 53 26
-9.7343 99.8747 3.5597 0.265 -0.691 0.672 46 54 31
-9.5405 99.7292 3.5284 0.285 -0.682 0.673 46 54 30
-9.3933 99.7599 3.4971 0.285 -0.682 0.673 46 54 30
-9.2461 99.7905 3.4658 0.285 -0.682 0.673 48 56 33
-9.0988 99.8212 3.4345 0.285 -0.682 0.673 53 61 38
-8.9514 99.8519 3.4032 0.285 -0.682 0.673 53 61 38
-8.7894 99.8257 3.3719 0.230 -0.311 0.922 53 61 37
-8.5432 100.0819 3.3086 0.362 -0.213 0.907 53 62 35
-8.4103 100.1730 3.2770 0.362 -0.213 0.907 55 61 35
-3.0747 97.5408 2.3423 -0.738 -0.618 0.270 44 49 26
-2.8854 97.3413 2.3148 -0.439 -0.754 0.488 44 49 26
-2.7190 97.2574 2.2858 0.607 -0.758 0.237 44 49 27
-2.5767 97.2985 2.2549 0.621 -0.738 0.264 44 49 27
-2.0532 97.7205 2.1268 -0.324 -0.307 0.895 40 45 21
-0.5831 97.0460 1.8666 0.103 -0.175 0.979 37 42 19
2.8551 95.8661 1.2368 -0.231 -0.328 0.916 59 64 40
3.0268 95.6728 1.2125 -0.258 -0.333 0.907 58 64 40
4.3684 96.8149 0.8811 0.941 -0.315 0.127 64 71 41
5.8431 105.7993 0.1042 0.843 -0.316 0.435 59 67 28
25.4217 83.1273 -2.6307 -0.581 -0.196 0.790 68 75 33
25.5201 82.9791 -2.6426 -0.628 -0.460 0.628 69 76 35
25.6144 82.8096 -2.6525 -0.543 -0.372 0.753 70 77 38
26.2722 82.3864 -2.7625 -0.057 -0.702 0.710 48 56 21
29.1707 79.6639 -3.2012 -0.630 -0.699 0.337 38 40 10
29.1408 79.0202 -3.1608 -0.077 -0.978 0.193 45 47 16
29.2411 78.9551 -3.1776 -0.068 -0.981 0.182 51 53 22
29.7817 78.8097 -3.2787 -0.787 -0.605 0.122 82 85 54
29.8659 78.6821 -3.2889 -0.841 -0.521 0.146 84 88 55
29.9557 78.5792 -3.3015 -0.849 -0.500 0.171 90 94 61
30.0337 78.4295 -3.3092 -0.848 -0.503 0.166 99 103 70
30.7785 77.3378 -3.4010 -0.890 -0.370 0.267 60 66 29
30.9947 77.3075 -3.4430 -0.453 -0.677 -0.581 101 108 76
31.2369 76.9549 -3.4730 -0.751 -0.525 -0.401 169 176 130
31.3190 76.8457 -3.4837 -0.751 -0.525 -0.401 189 197 149
32.0355 75.4590 -3.5540 -0.910 -0.388 0.150 128 136 98
32.0853 75.2534 -3.5531 -0.699 -0.678 -0.230 147 155 116
32.1732 75.1824 -3.5670 -0.705 -0.673 -0.222 163 169 132
32.2486 75.0692 -3.5762 -0.883 -0.444 0.153 178 184 147
32.3250 74.9608 -3.5858 -0.885 -0.367 0.287 186 193 153
32.3821 74.7878 -3.5880 -0.888 -0.367 0.276 169 176 131
32.4541 74.6672 -3.5961 -0.889 -0.368 0.273 145 154 103
32.5049 74.4768 -3.5962 -0.911 -0.403 0.083 130 139 84
32.5255 74.1873 -3.5849 -0.650 -0.615 -0.445 104 113 57
32.6026 74.0892 -3.5951 -0.655 -0.614 -0.441 86 95 40
32.9949 73.2987 -3.6320 -0.633 -0.599 -0.491 80 88 37
33.0622 73.1779 -3.6391 -0.626 -0.597 -0.501 88 96 47
34.0334 70.8093 -3.7084 -0.844 -0.520 -0.134 120 128 77
34.0343 70.5184 -3.6930 -0.603 -0.240 0.761 122 131 78
34.0793 70.3584 -3.6935 -0.615 -0.248 0.748 131 140 87
34.7876 67.7146 -3.6951 0.247 -0.631 -0.736 67 76 46
-34.7985 100.8836 8.3974 -0.679 -0.522 0.516 86 97 41
-23.5603 91.1818 6.6683 0.667 -0.545 0.508 78 88 38
-25.3248 98.9645 6.5946 -0.073 -0.556 0.828 69 76 29
-25.0077 98.9516 6.5314 0.000 -0.542 0.840 10 11 5
-9.7045 85.3814 4.1967 -0.291 -0.503 0.814 101 111 61
-9.2235 85.0939 4.1156 -0.444 -0.748 0.494 74 83 37
-8.9637 85.0944 4.0633 0.309 -0.506 0.805 155 163 124
-10.7261 98.2780 3.6913 0.099 -0.222 0.970 47 58 26
-9.7624 95.3785 3.6571 -0.276 -0.643 0.714 49 60 29
-9.3771 95.0535 3.5974 -0.271 -0.883 0.383 48 59 29
-9.2592 95.1601 3.5677 -0.054 -0.954 -0.295 48 59 29
-9.1246 95.2069 3.5380 -0.119 -0.952 -0.282 47 58 28
-8.7678 94.9761 3.4789 0.048 -0.986 0.161 47 57 32
-8.5935 99.5075 3.1939 0.358 -0.202 0.911 52 60 37
-8.4835 99.6851 3.1619 0.347 -0.196 0.917 49 57 34
-8.3290 99.6876 3.1307 0.220 -0.200 0.955 50 59 32
-3.2336 97.3976 2.2304 -0.632 -0.639 0.437 43 51 27
-2.4757 97.3686 2.0793 0.265 -0.696 0.668 44 52 28
-2.0023 97.2471 1.9906 -0.331 -0.309 0.892 37 46 17
-0.6893 96.5828 1.7627 0.140 -0.037 0.989 43 52 23
1.0154 95.1539 1.4981 0.126 -0.046 0.991 70 78 39
1.4657 96.0799 1.3563 0.018 -0.384 0.923 60 68 29
1.6256 95.9949 1.3288 -0.051 -0.386 0.921 64 72 34
1.7854 95.9084 1.3014 -0.051 -0.386 0.921 69 77 39
1.9368 95.8797 1.2725 0.120 -0.518 0.847 71 79 43
2.0835 95.8842 1.2427 0.252 -0.526 0.812 74 81 49
4.2105 96.6086 0.7742 0.947 -0.288 0.144 70 80 46
4.3378 96.7997 0.7380 0.942 -0.314 0.114 74 81 47
25.5357 83.1777 -2.7814 0.163 -0.543 0.824 95 104 53
25.5981 82.8130 -2.7739 -0.567 -0.379 0.731 95 103 54
28.1749 78.3443 -3.0466 -0.364 -0.905 -0.219 51 58 24
28.4014 77.8174 -3.0632 -0.745 -0.667 0.019 45 52 19
28.5902 77.6487 -3.0919 -0.747 -0.665 0.012 37 43 12
29.2274 78.9554 -3.2923 -0.215 -0.935 0.282 39 44 12
29.2986 78.7645 -3.2961 0.049 -0.751 0.659 36 42 10
29.5870 78.5273 -3.3412 -0.063 -0.566 0.822 42 48 15
30.0216 78.4341 -3.4236 -0.829 -0.538 0.152 47 52 20
30.5206 77.6987 -3.4836 -0.812 -0.471 0.345 87 93 59
31.1892 74.4045 -3.4366 -0.273 -0.696 -0.665 105 111 72
32.0216 75.4497 -3.6619 -0.910 -0.388 0.150 180 187 152
32.0922 75.3166 -3.6688 -0.653 -0.656 -0.377 167 175 138
32.1729 75.2198 -3.6797 -0.705 -0.673 -0.222 153 161 122
32.4410 74.6595 -3.7029 -0.882 -0.367 0.295 120 130 81
32.5076 74.5218 -3.7087 -0.882 -0.369 0.293 125 135 82
32.5501 74.3051 -3.7053 -0.801 -0.577 -0.160 145 155 103
33.0150 73.3959 -3.7488 -0.643 -0.597 -0.480 106 114 63
33.0960 73.3184 -3.7608 -0.643 -0.597 -0.480 86 94 43
33.4209 73.0207 -3.8099 -0.642 -0.587 -0.493 81 89 38
33.4954 72.9272 -3.8197 -0.669 -0.581 -0.463 83 91 42
33.4814 72.5599 -3.7967 -0.896 -0.443 0.029 80 88 41
33.5084 72.3230 -3.7890 -0.840 -0.512 -0.180 78 86 39
34.3603 69.7650 -3.8196 -0.650 -0.595 -0.474 127 135 84
35.0023 68.0541 -3.8546 0.776 -0.628 0.063 115 126 96
35.8642 69.3130 -4.0977 0.798 -0.573 -0.187 134 145 89
-38.9629 105.0595 8.8389 -0.576 -0.513 0.636 13 14 19
-33.2271 98.4611 8.0591 -0.472 -0.535 0.701 76 87 33
-32.6981 97.7662 7.9921 -0.204 -0.449 0.870 72 82 31
-23.5150 90.3861 6.5624 -0.121 -0.991 0.052 81 90 41
-25.2680 98.7284 6.4409 -0.077 -0.561 0.824 70 75 30
-24.9625 98.7401 6.3787 0.016 -0.526 0.850 9 11 5
-24.5263 98.8082 6.2869 0.823 -0.179 0.539 97 100 77
-9.4186 85.1877 4.0191 -0.526 -0.808 0.265 67 77 28
-11.1620 98.5908 3.6076 0.166 -0.379 0.910 52 63 20
-10.7898 98.3598 3.5458 0.501 -0.525 0.688 53 61 27
-9.7593 95.2274 3.5165 0.150 -0.981 0.121 53 60 30
-9.4367 95.1283 3.4572 -0.028 -0.947 -0.321 51 61 32
-9.2948 95.1481 3.4275 0.062 -0.957 -0.284 53 63 34
-9.1748 95.2484 3.3976 -0.064 -0.956 -0.286 55 65 35
-7.8121 95.1110 3.1309 0.152 -0.888 0.434 41 48 32
-7.9496 99.2456 2.9234 0.178 -0.257 0.950 36 46 19
-7.8071 99.2937 2.8919 0.177 -0.260 0.949 39 49 22
-6.9764 99.0444 2.7388 0.046 -0.277 0.960 40 51 21
-3.3363 93.3745 2.3283 -0.530 -0.830 0.175 47 56 27
-3.1695 93.2621 2.3011 -0.530 -0.830 0.175 43 52 23
-3.2558 97.3257 2.0873 -0.623 -0.635 0.457 25 33 8
1.7958 95.5999 1.1680 0.025 -0.477 0.879 73 84 41
1.9456 95.5797 1.1390 0.055 -0.493 0.869 73 84 42
4.3226 96.6449 0.5997 0.946 -0.281 0.162 79 86 50
28.2114 81.3614 -3.3422 -0.169 -0.954 -0.247 62 72 36
28.6800 80.2161 -3.3714 -0.791 -0.521 0.320 35 45 10
28.7672 80.0778 -3.3811 -0.791 -0.521 0.320 39 49 15
28.8540 79.9398 -3.3907 -0.839 -0.532 0.113 45 57 21
29.1455 79.1628 -3.4052 0.024 -0.912 0.409 50 60 26
30.3152 77.8316 -3.5651 -0.550 -0.777 0.307 49 54 24
30.4840 77.6039 -3.5861 -0.557 -0.608 0.566 43 48 15
30.5695 77.4970 -3.5973 -0.819 -0.464 0.336 42 48 14
30.7358 77.2689 -3.6178 -0.822 -0.469 0.322 48 54 20
31.0308 77.5406 -3.6926 -0.451 -0.675 -0.584 66 71 41
32.3566 74.7746 -3.8023 -0.882 -0.368 0.293 130 139 96
32.4269 74.6482 -3.8093 -0.883 -0.366 0.294 137 146 99
32.5176 74.5919 -3.8243 -0.873 -0.480 0.084 143 152 104
32.5485 74.3356 -3.8160 -0.659 -0.625 -0.419 139 149 101
32.6242 74.2315 -3.8253 -0.662 -0.617 -0.427 133 142 98
33.0301 73.4770 -3.8641 -0.643 -0.597 -0.480 131 139 88
33.1859 73.3022 -3.8856 -0.809 -0.560 -0.178 138 147 95
33.2867 73.2892 -3.9051 -0.895 -0.445 0.012 123 132 81
33.3632 73.1993 -3.9154 -0.926 -0.319 0.201 113 121 71
33.4830 72.5946 -3.9051 -0.895 -0.445 0.031 76 84 37
33.5411 72.4534 -3.9088 -0.889 -0.456 0.043 70 78 31
33.8018 71.3740 -3.8999 -0.793 -0.515 -0.325 83 91 43
33.8584 71.2399 -3.9037 -0.791 -0.516 -0.329 83 91 41
34.2663 70.0855 -3.9201 -0.838 -0.422 -0.347 92 101 48
34.3159 69.9437 -3.9221 -0.608 -0.584 -0.538 101 110 57
-38.7468 104.5726 8.6567 -0.569 -0.521 0.637 14 15 19
-33.4554 98.7867 7.9306 -0.558 -0.605 0.568 79 89 35
-24.9020 98.4945 6.2255 0.016 -0.526 0.850 9 10 4
-24.4589 98.5443 6.1333 0.826 -0.177 0.535 94 99 70
-9.0732 84.7991 3.8415 0.079 -0.653 0.753 197 206 161
-8.9393 84.7851 3.8154 0.079 -0.653 0.753 185 192 150
-11.1562 97.8940 3.4929 0.618 -0.521 0.589 54 66 28
-10.7548 98.0914 3.4005 0.590 -0.546 0.595 56 60 29
-10.6303 98.1921 3.3696 0.590 -0.546 0.595 55 58 33
-8.0524 98.8797 2.8102 0.147 -0.406 0.902 39 48 21
-7.2335 98.6702 2.6576 0.071 -0.388 0.919 41 51 24
-6.7658 98.6370 2.5653 0.036 -0.306 0.951 45 58 28
-3.3700 93.3669 2.1907 -0.530 -0.830 0.175 32 41 10
-3.2030 93.2544 2.1636 -0.530 -0.830 0.175 39 48 19
-3.0008 92.9685 2.1397 -0.506 -0.829 0.239 44 53 28
-2.8310 92.8367 2.1133 -0.270 -0.875 0.403 53 62 33
-3.6399 97.5563 1.9993 -0.160 -0.168 0.973 60 69 38
-0.0143 91.3843 1.6313 -0.066 -0.287 0.956 96 108 60
2.5647 87.1706 1.3591 0.159 -0.008 0.987 80 92 46
1.6497 95.3628 1.0629 -0.066 -0.292 0.954 75 87 41
20.6451 70.9569 -1.3305 -0.275 -0.591 0.758 83 90 52
27.4092 82.2408 -3.3542 -0.606 -0.777 0.170 85 97 49
28.3103 81.3349 -3.4826 -0.683 -0.694 -0.229 93 104 63
28.4344 81.3572 -3.5088 -0.780 -0.594 -0.197 101 112 69
28.5580 81.3765 -3.5348 -0.782 -0.589 -0.206 127 138 97
28.6895 80.3274 -3.4998 -0.839 -0.535 0.097 95 106 67
28.7741 80.1757 -3.5080 -0.842 -0.528 0.107 94 105 64
28.8588 80.0269 -3.5163 -0.840 -0.531 0.114 92 102 64
28.6776 77.6569 -3.3408 -0.450 -0.892 -0.046 83 93 57
29.1516 79.2515 -3.5298 -0.734 -0.679 0.020 72 82 47
29.2724 78.7696 -3.5258 -0.788 -0.520 0.330 59 69 34
29.9747 78.3493 -3.6426 -0.589 -0.799 -0.121 59 66 33
30.3570 77.5978 -3.6755 -0.543 -0.639 0.546 56 62 29
30.4475 77.5096 -3.6885 -0.543 -0.639 0.546 54 60 24
30.8371 77.2750 -3.7532 -0.184 -0.779 0.600 44 49 16
30.9570 77.3048 -3.7791 0.415 -0.756 0.506 39 45 10
31.0490 77.2280 -3.7931 0.441 -0.786 0.434 34 40 7
31.2221 77.0361 -3.8167 -0.721 -0.632 0.284 55 60 29
31.3300 74.9974 -3.7189 -0.040 -0.677 -0.735 73 78 50
32.4088 74.6232 -3.9142 -0.864 -0.503 -0.009 51 59 19
32.5502 74.3770 -3.9282 -0.588 -0.662 -0.465 67 76 34
32.6328 74.2956 -3.9401 -0.659 -0.622 -0.423 77 86 43
33.0417 73.5472 -3.9785 -0.636 -0.606 -0.478 141 151 103
33.5311 72.4518 -4.0128 -0.890 -0.454 0.045 118 126 79
33.7435 72.1530 -4.0380 -0.729 -0.621 -0.289 98 106 58
33.8212 72.0766 -4.0492 -0.763 -0.568 -0.310 93 101 52
34.3811 67.1884 -3.8753 0.276 -0.346 0.897 210 219 190
-33.5965 98.9500 7.7929 -0.445 -0.818 0.365 79 90 35
-33.1749 98.4581 7.7378 -0.310 -0.697 0.647 76 86 35
-24.8389 98.2436 6.0728 0.016 -0.527 0.849 12 13 7
-8.9372 84.6634 3.6921 -0.379 -0.698 0.607 197 204 161
-8.3485 84.0035 3.6134 -0.212 -0.841 0.498 58 65 31
-11.4102 98.6340 3.3460 -0.221 -0.763 0.608 43 54 20
-10.8815 97.8569 3.2866 0.558 -0.553 0.619 46 55 21
-10.8125 98.1519 3.2549 0.137 -0.689 0.712 43 49 21
-10.6740 98.2032 3.2239 0.138 -0.689 0.711 41 45 23
-9.6432 95.0599 3.2062 0.213 -0.737 0.641 43 44 24
-7.5092 98.3829 2.5759 -0.172 -0.372 0.912 40 51 21
-7.3396 98.3143 2.5460 -0.119 -0.424 0.898 40 51 21
-7.1629 98.2148 2.5164 0.091 -0.375 0.922 38 51 21
-6.8631 98.2378 2.4547 0.157 -0.317 0.935 32 45 17
-6.0242 97.9046 2.3059 -0.097 -0.359 0.928 41 54 24
-5.7657 98.1064 2.2417 0.397 -0.172 0.902 52 62 27
-3.7355 93.5675 2.1072 -0.483 -0.871 -0.091 80 87 54
-3.5813 93.5199 2.0790 -0.423 -0.906 -0.011 96 103 69
-3.3957 93.3214 2.0537 -0.520 -0.832 0.192 99 109 74
-3.2291 93.2111 2.0268 -0.520 -0.832 0.192 103 113 78
-1.5568 95.8546 1.5305 -0.265 -0.463 0.846 100 112 64
-0.2410 91.6934 1.5170 0.093 -0.511 0.855 95 107 61
0.2526 93.8297 1.2886 -0.032 -0.134 0.991 87 98 55
1.1338 94.6736 1.0602 0.625 0.017 0.780 83 95 49
20.6170 70.8480 -1.4226 -0.273 -0.593 0.757 80 86 48
30.0922 77.9510 -3.7589 -0.637 -0.761 0.123 46 54 19
30.1745 77.8248 -3.7679 -0.736 -0.584 0.342 43 51 15
30.2450 77.6526 -3.7716 -0.666 -0.530 0.525 40 47 12
30.3137 77.4759 -3.7748 -0.581 -0.670 0.461 51 57 21
30.3849 77.3112 -3.7792 -0.589 -0.664 0.461 58 64 28
31.2564 76.7916 -3.9232 -0.797 -0.545 -0.260 50 54 29
31.3145 76.5934 -3.9229 -0.798 -0.551 -0.243 48 52 28
31.2620 75.1861 -3.8274 -0.350 -0.703 -0.619 43 47 25
31.3758 75.2054 -3.8515 -0.342 -0.701 -0.626 43 47 23
32.4351 74.7493 -4.0371 -0.888 -0.445 0.115 78 86 47
33.0482 73.6011 -4.0912 -0.635 -0.606 -0.479 60 67 25
33.6347 72.1641 -4.1225 -0.832 -0.554 0.027 109 117 70
33.7528 72.2100 -4.1490 -0.685 -0.692 -0.228 118 125 82
33.8353 72.1474 -4.1618 -0.682 -0.696 -0.224 119 126 81
-31.6186 99.2688 7.2185 -0.701 -0.710 -0.064 74 81 40
-31.4608 99.2677 7.1868 0.437 -0.878 0.193 72 79 35
-31.1675 99.6185 7.1060 0.680 -0.676 -0.283 88 97 44
-25.6845 93.7565 6.3670 -0.852 -0.509 0.125 83 92 37
-24.7464 92.0958 6.2814 -0.815 -0.555 -0.164 80 89 36
-24.3196 91.5001 6.2325 -0.825 -0.546 -0.144 73 83 31
-8.3635 83.9381 3.4916 -0.208 -0.924 0.320 58 65 30
-11.5337 98.9192 3.1984 -0.135 -0.734 0.666 39 47 21
-11.3476 98.8088 3.1678 -0.130 -0.742 0.658 38 47 20
-10.7066 98.1744 3.0782 -0.718 -0.496 0.488 38 44 25
-10.4450 97.7862 3.0497 -0.729 -0.485 0.483 41 40 25
-7.8167 94.1229 2.7485 0.206 -0.268 0.941 44 52 28
-7.6697 94.1175 2.7192 0.199 -0.272 0.942 44 52 28
-7.2990 97.9867 2.4041 -0.180 -0.341 0.923 42 55 25
-7.1204 97.8777 2.3750 0.091 -0.375 0.922 44 57 27
-6.9715 97.8911 2.3442 0.257 -0.329 0.909 48 61 31
-6.4835 97.7550 2.2544 0.091 -0.398 0.913 48 59 29
-6.3571 97.8647 2.2222 0.285 -0.253 0.925 61 74 44
-6.1619 97.6770 2.1946 -0.120 -0.370 0.921 63 76 46
-5.9803 97.5461 2.1662 -0.119 -0.396 0.911 62 75 45
-4.8640 97.2826 1.9579 -0.097 -0.215 0.972 95 103 66
-3.7777 93.5987 1.9683 -0.497 -0.865 -0.069 91 99 62
-3.6210 93.5402 1.9404 -0.423 -0.906 -0.011 102 110 73
-3.4287 93.3103 1.9160 -0.520 -0.832 0.192 101 112 73
-3.2620 93.2000 1.8893 -0.520 -0.832 0.192 95 105 67
-1.9494 95.3911 1.4889 -0.120 -0.301 0.946 99 112 59
-1.7025 95.6504 1.4231 -0.631 -0.568 0.528 102 115 63
-1.5201 95.4587 1.3983 -0.620 -0.571 0.538 103 115 66
2.7877 87.9676 0.9971 0.475 -0.858 -0.195 81 93 47
2.8031 88.8060 0.9419 0.161 -0.167 0.973 81 93 47
2.8898 89.1539 0.9028 0.167 -0.194 0.967 80 92 46
3.0334 89.0981 0.8774 0.164 -0.194 0.967 80 92 46
3.0842 89.7224 0.8283 0.086 -0.223 0.971 80 92 46
3.2179 89.7457 0.8000 0.075 -0.228 0.971 80 92 46
3.3445 89.8237 0.7697 0.119 -0.240 0.963 80 92 46
3.5030 89.6590 0.7480 -0.232 -0.358 0.904 80 92 46
3.6683 89.4376 0.7285 -0.180 -0.366 0.913 80 92 46
3.2452 93.8301 0.5406 -0.055 -0.312 0.949 80 91 48
5.8734 105.3424 -0.7039 0.819 -0.471 0.328 50 55 31
20.5893 70.7426 -1.5147 -0.282 -0.597 0.751 80 85 49
23.3119 78.4103 -2.5391 0.720 -0.581 0.380 106 117 61
30.1206 78.1203 -3.8913 -0.573 -0.450 0.685 139 147 108
30.1237 77.6710 -3.8640 -0.595 -0.514 0.618 120 128 88
30.1951 77.5032 -3.8679 -0.675 -0.507 0.536 93 101 61
30.2100 77.1119 -3.8466 -0.729 -0.571 0.379 92 98 61
30.2826 76.9551 -3.8515 -0.741 -0.582 0.334 87 93 59
31.3243 76.6746 -4.0437 -0.800 -0.546 -0.248 54 57 35
31.9986 75.5273 -4.1080 -0.864 -0.503 0.006 48 56 15
32.9659 74.0562 -4.2113 -0.773 -0.576 -0.264 79 87 49
33.0429 73.9602 -4.2208 -0.770 -0.578 -0.269 75 81 44
33.1181 73.8597 -4.2297 -0.679 -0.585 -0.444 72 78 40
33.1684 73.6804 -4.2287 -0.756 -0.589 -0.287 67 73 35
33.5706 72.3131 -4.2246 -0.768 -0.628 0.128 93 101 54
33.6186 72.1434 -4.2237 -0.799 -0.592 0.101 101 109 61
34.1765 66.6733 -3.9960 0.631 -0.520 0.576 233 242 212
-31.8051 99.5290 7.0822 -0.705 -0.686 -0.180 73 80 38
-25.8364 93.9750 6.2363 -0.848 -0.511 0.138 81 90 35
-25.3247 97.7348 5.8931 -0.029 -0.566 0.824 82 93 29
-24.7178 97.7547 5.7697 0.061 -0.600 0.798 12 12 7
-11.0999 98.3368 2.9929 -0.175 -0.670 0.722 51 58 42
-7.3896 97.5760 2.2950 -0.189 -0.515 0.836 62 72 45
-7.2216 97.5090 2.2655 -0.189 -0.510 0.839 66 76 49
-2.4348 94.6746 1.4837 0.124 -0.371 0.920 101 114 59
-2.1726 94.0711 1.4695 0.749 -0.542 -0.382 108 121 66
-2.0614 94.2485 1.4358 0.749 -0.542 -0.382 84 97 42
-1.8208 95.3017 1.3200 0.679 -0.629 0.378 105 118 63
-1.7077 95.4872 1.2855 0.718 -0.614 0.328 102 115 61
-1.5835 95.6147 1.2523 0.718 -0.614 0.328 97 109 60
2.9342 90.5961 0.6642 -0.288 -0.886 -0.363 86 98 52
4.8526 98.9373 -0.2549 0.764 -0.141 0.629 102 111 60
5.6729 103.5053 -0.7119 0.978 -0.122 0.169 91 96 66
20.5653 70.6690 -1.6093 -0.353 -0.738 0.576 81 84 49
30.0898 77.5859 -3.9675 -0.595 -0.514 0.618 136 145 101
30.2019 77.1304 -3.9610 -0.653 -0.589 0.476 100 107 68
30.5799 76.8556 -4.0194 0.622 -0.738 0.260 91 97 63
30.6815 76.8171 -4.0374 0.364 -0.820 0.441 55 61 27
31.1719 76.9847 -4.1468 -0.813 -0.526 -0.248 72 77 47
31.3165 76.6903 -4.1570 -0.600 -0.675 -0.430 64 68 41
31.4081 76.6177 -4.1708 -0.600 -0.675 -0.430 60 65 37
31.4869 76.4988 -4.1791 -0.558 -0.742 -0.372 55 60 32
31.9497 75.7811 -4.2263 -0.880 -0.468 0.082 46 54 15
32.1100 75.1943 -4.2211 -0.286 -0.759 -0.585 55 63 22
32.3180 75.1628 -4.2609 -0.290 -0.757 -0.586 50 58 21
32.4215 75.1457 -4.2806 -0.381 -0.687 -0.619 47 55 18
33.8431 72.2273 -4.3801 -0.716 -0.634 -0.292 63 71 23
33.8962 72.0760 -4.3811 -0.829 -0.551 -0.092 78 86 38
34.1113 66.5163 -4.0691 0.646 -0.506 0.571 234 241 215
-33.5144 98.5045 7.3354 0.189 -0.296 0.936 77 87 34
-32.4143 100.2984 6.9963 -0.734 -0.642 -0.221 79 88 45
-32.1262 100.0491 6.9548 0.243 -0.248 0.938 82 91 46
-24.7914 97.4674 5.6491 0.115 -0.676 0.728 26 31 3
-24.2791 97.6986 5.5309 0.870 -0.198 0.451 92 97 69
-10.3294 97.6281 2.7299 -0.102 -0.637 0.764 35 51 33
-8.5307 97.7298 2.3614 -0.782 -0.606 0.149 61 70 40
-8.1991 97.6222 2.3018 0.088 -0.216 0.973 66 75 47
-4.4278 93.6025 1.8073 0.276 -0.895 0.351 95 104 60
-2.2920 93.7598 1.3674 0.857 -0.446 -0.256 100 112 64
-2.1998 94.0309 1.3310 0.761 -0.534 -0.368 110 122 74
-2.1040 94.2889 1.2948 0.749 -0.542 -0.382 70 82 32
-1.8625 95.3371 1.1774 0.676 -0.640 0.366 82 95 43
-1.1878 94.8572 1.0732 -0.434 -0.674 -0.598 98 110 60
5.0055 98.6084 -0.4188 0.803 -0.250 0.541 102 111 56
5.6630 103.2334 -0.8547 0.977 -0.120 0.174 87 92 62
20.5450 70.6283 -1.7066 0.145 -0.813 0.564 78 82 47
31.2660 76.9637 -4.2789 -0.690 -0.591 0.418 95 101 64
31.3217 76.7546 -4.2764 -0.692 -0.595 0.409 102 109 70
31.4051 76.6507 -4.2864 -0.692 -0.595 0.409 106 112 73
31.4416 74.3990 -4.1458 -0.199 -0.815 0.543 69 77 37
31.5195 74.2948 -4.1547 0.079 -0.736 0.673 69 77 37
31.9642 75.4858 -4.3223 -0.860 -0.509 0.034 70 78 39
32.0215 75.3041 -4.3219 -0.296 -0.758 -0.581 64 72 32
32.1304 75.3042 -4.3438 -0.290 -0.760 -0.582 58 66 25
32.2322 75.2799 -4.3627 -0.290 -0.760 -0.582 53 61 22
33.8070 72.4609 -4.4943 -0.562 -0.620 -0.548 65 73 29
33.8591 72.3042 -4.4945 -0.716 -0.630 -0.299 67 75 29
33.8878 72.0786 -4.4854 -0.862 -0.478 0.171 65 73 27
34.0440 71.9293 -4.5070 -0.860 -0.401 -0.316 57 65 17
35.2245 68.2521 -4.5030 0.852 -0.509 0.121 215 223 184
-24.7611 97.2926 5.5008 0.120 -0.670 0.733 25 30 2
-10.8829 95.7327 2.8156 0.690 0.020 0.723 30 37 19
-11.3402 98.3534 2.7308 0.826 -0.118 0.551 32 42 33
-10.9007 97.8888 2.6737 0.829 -0.490 0.269 29 45 36
-10.2957 97.3632 2.5875 -0.540 -0.842 -0.001 57 83 65
-8.5770 97.7561 2.2155 -0.782 -0.612 0.123 66 76 42
-6.7020 95.6719 1.9790 0.183 -0.173 0.968 73 86 58
-6.2413 97.5252 1.7614 -0.543 -0.520 0.659 73 88 57
-2.1467 94.3294 1.1536 0.749 -0.542 -0.382 65 76 34
-1.8710 95.1939 1.0399 0.680 -0.642 0.354 62 74 28
-1.7485 95.3272 1.0062 0.702 -0.632 0.329 76 88 42
-1.2235 94.8634 0.9320 -0.444 -0.656 -0.611 97 109 62
5.4614 101.5727 -0.8646 0.992 -0.084 0.092 184 190 152
20.5206 70.5510 -1.8006 0.222 -0.758 0.613 74 80 43
31.2422 76.9199 -4.3859 -0.700 -0.506 0.504 97 104 59
31.3089 76.7517 -4.3880 -0.733 -0.503 0.457 94 101 54
31.4029 76.6870 -4.4025 -0.492 -0.633 0.598 92 100 52
31.4214 74.3670 -4.2498 -0.207 -0.808 0.552 95 104 60
31.5126 74.3098 -4.2642 -0.214 -0.808 0.549 95 104 60
31.9538 75.4890 -4.4325 -0.858 -0.512 0.043 95 104 61
32.0192 75.3354 -4.4353 -0.392 -0.667 -0.634 91 100 56
31.6667 73.7255 -4.2558 -0.618 -0.728 -0.296 86 95 51
31.7291 73.5739 -4.2582 -0.644 -0.702 -0.306 79 87 44
32.3034 75.1885 -4.4825 -0.117 -0.855 -0.505 73 82 40
32.5939 75.0687 -4.5328 -0.351 -0.775 -0.525 61 67 30
32.8397 74.4472 -4.5404 -0.623 -0.698 -0.352 55 63 24
32.9135 74.3368 -4.5478 -0.740 -0.650 -0.174 53 61 22
32.9613 74.1427 -4.5443 -0.845 -0.472 0.252 54 62 23
34.0333 71.9247 -4.6103 -0.880 -0.462 0.109 60 68 29
34.0893 71.7855 -4.6121 -0.891 -0.399 0.218 59 68 28
34.3770 70.5492 -4.5866 -0.919 -0.394 0.022 64 72 33
34.4118 70.3614 -4.5809 -0.923 -0.380 0.062 71 79 39
34.5941 67.3527 -4.4147 0.844 -0.536 -0.022 162 168 141
-32.0715 99.4352 6.6683 0.282 -0.189 0.941 82 91 44
-11.1477 98.0746 2.5565 0.840 -0.483 -0.245 65 88 79
-10.9389 97.8796 2.5280 0.744 -0.604 -0.285 67 98 89
-10.3461 97.3996 2.4420 -0.536 -0.844 -0.010 66 100 86
-8.3808 92.9503 2.3549 -0.201 -0.298 0.933 77 99 73
-1.8975 95.1479 0.8996 0.680 -0.638 0.363 66 76 39
-1.7688 95.2472 0.8668 0.683 -0.646 0.340 66 77 38
0.2694 84.9223 1.1716 -0.078 -0.970 -0.230 71 82 38
-1.2859 95.0173 0.7857 -0.449 -0.654 -0.609 87 98 54
-0.9658 94.8667 0.7317 -0.305 -0.897 -0.319 96 107 64
5.4416 101.4265 -1.0101 0.992 -0.081 0.100 177 183 145
5.6417 102.7112 -1.1393 0.975 -0.106 0.194 87 92 62
28.0131 76.0407 -3.7907 0.917 -0.312 -0.248 155 168 112
31.4844 74.2492 -4.3645 -0.214 -0.808 0.549 92 102 52
32.0588 75.5139 -4.5675 -0.380 -0.665 -0.643 90 100 49
31.7608 74.0922 -4.4092 0.647 -0.725 0.236 88 98 47
32.5184 74.4853 -4.5887 -0.557 -0.731 -0.394 83 90 48
34.3601 71.1084 -4.7252 -0.912 -0.366 -0.184 59 69 34
34.7405 67.5108 -4.5528 0.835 -0.550 0.038 192 199 158
-29.8862 97.2054 6.2292 0.679 -0.114 0.725 79 89 37
-24.9937 96.9163 5.2665 0.867 -0.411 0.282 81 90 45
-24.7402 97.0324 5.2073 0.054 -0.750 0.659 25 31 3
-11.1892 98.0766 2.4101 0.840 -0.483 -0.245 55 87 76
-10.9836 97.8934 2.3818 0.744 -0.604 -0.285 58 99 90
-10.2184 97.3417 2.2671 -0.088 -0.951 -0.295 67 102 86
-5.8807 96.9427 1.4238 -0.025 -0.412 0.911 83 98 59
5.4405 101.0780 -1.1447 0.990 -0.131 0.050 174 180 141
5.6526 102.2117 -1.2678 0.979 -0.125 0.160 82 87 57
32.5477 75.3555 -4.7668 -0.194 -0.883 -0.428 82 90 42
32.6092 75.1946 -4.7677 -0.664 -0.663 -0.346 82 90 42
-30.4408 98.1965 6.1143 0.929 -0.164 0.331 78 88 36
-24.7306 96.9045 5.0610 0.054 -0.750 0.659 25 31 5
-7.6501 82.9971 2.6410 -0.406 -0.654 0.638 155 162 121
-11.1479 97.2626 2.3063 0.787 -0.038 0.616 50 80 56
-11.0348 97.3976 2.2737 0.720 -0.619 -0.313 58 97 83
-10.9242 97.5429 2.2409 0.720 -0.619 -0.313 54 98 90
-10.3296 97.5960 2.1176 -0.594 -0.791 0.147 65 100 87
-9.6283 99.5495 1.8347 0.111 -0.976 0.185 72 88 49
5.4232 100.9067 -1.2879 0.990 -0.107 0.092 172 179 139
5.6588 101.7686 -1.3979 0.913 -0.255 0.317 79 84 52
5.7911 102.0598 -1.4456 0.918 -0.257 0.302 49 54 24
27.4837 79.0323 -4.1290 0.530 -0.074 0.845 79 89 39
32.7112 75.5776 -4.9279 -0.212 -0.877 -0.431 82 90 43
32.8852 74.7030 -4.8993 -0.843 -0.502 0.192 85 92 48
34.9524 67.8618 -4.8170 0.667 -0.722 -0.184 199 209 157
35.0936 67.9824 -4.8542 0.642 -0.735 -0.219 226 235 190
-31.2904 102.9930 5.7714 0.723 -0.661 0.198 78 87 40
-7.1582 82.9325 2.4190 0.402 -0.776 -0.486 187 205 170
-10.3769 97.6207 1.9713 -0.269 -0.906 -0.326 69 104 92
-10.2085 97.5634 1.9417 0.047 -0.952 -0.301 76 109 93
-9.3824 99.0533 1.6648 -0.618 -0.726 0.302 64 80 41
-5.8224 96.3602 1.1505 0.025 -0.391 0.920 83 99 59
-2.6572 95.4799 0.5803 0.411 -0.690 -0.596 98 110 64
-2.5305 95.5897 0.5467 0.408 -0.692 -0.595 92 103 61
-2.2378 95.6082 0.4865 0.169 -0.748 -0.642 81 91 56
5.6454 101.5456 -1.5390 0.913 -0.255 0.317 76 83 50
5.7782 101.8265 -1.5866 0.916 -0.258 0.306 50 57 24
21.5191 86.8620 -3.6333 0.987 -0.117 -0.108 164 173 121
34.9564 67.8920 -4.9189 0.379 -0.919 0.104 192 202 148
-25.9677 95.7502 5.0902 -0.212 -0.450 0.867 86 93 48
-25.5844 95.9010 5.0017 0.326 -0.246 0.913 82 92 43
-9.1537 83.5169 2.6471 0.100 -0.620 0.778 230 238 194
-10.6552 97.9229 1.8499 -0.318 -0.948 0.032 77 115 107
-10.4917 97.8860 1.8199 -0.306 -0.952 -0.016 78 113 101
-10.3423 98.4533 1.7467 -0.013 -0.953 -0.304 79 112 95
-10.2405 98.6433 1.7117 0.683 -0.485 -0.546 81 108 92
-9.7407 99.6663 1.5334 -0.687 -0.722 0.086 71 87 48
-2.6605 95.3136 0.4437 0.840 -0.541 0.050 98 110 64
-2.5944 95.7355 0.3983 0.842 -0.536 0.061 96 107 65
-2.4740 95.8819 0.3629 0.829 -0.551 -0.102 92 102 65
-1.5408 95.6544 0.1929 -0.439 -0.709 -0.552 73 83 48
5.4347 100.0741 -1.5447 0.722 -0.229 0.653 158 166 125
5.6412 101.2235 -1.6738 0.981 -0.136 0.140 74 81 47
5.7474 101.7982 -1.7390 0.940 -0.088 0.330 50 57 24
5.8235 102.7429 -1.8263 0.929 -0.062 0.365 59 66 35
33.5236 65.5582 -4.5523 0.894 -0.446 0.034 170 181 122
34.9553 67.9090 -5.0190 0.400 -0.894 0.202 194 203 146
-31.0932 98.2552 5.7716 0.808 -0.589 -0.001 73 82 35
-25.7078 95.4157 4.9122 -0.206 -0.478 0.854 82 90 41
-24.6930 96.5028 4.6237 0.005 -0.127 0.992 18 20 14
-23.6582 96.2282 4.4374 0.214 -0.586 0.782 91 100 53
-9.1407 83.3648 2.5271 0.132 -0.587 0.799 231 238 194
-7.7754 82.6497 2.3088 -0.079 -0.784 0.615 229 235 200
-6.9224 82.3237 2.1630 0.140 -0.526 0.839 83 113 88
-10.6450 97.7423 1.7071 -0.232 -0.953 -0.194 83 122 113
-10.4391 98.6555 1.5945 -0.035 -0.953 -0.301 82 115 98
-9.4989 99.1883 1.3642 -0.547 -0.801 0.243 66 82 43
-2.9092 94.8986 0.3762 0.795 -0.396 -0.459 100 113 60
-2.8432 95.3094 0.3309 0.841 -0.538 0.055 101 113 63
-2.7363 95.5185 0.2931 0.842 -0.537 0.058 95 107 61
-2.6276 95.7221 0.2554 0.842 -0.537 0.055 88 99 57
-2.5057 95.8606 0.2202 0.829 -0.551 -0.102 87 97 60
-2.4035 96.1047 0.1806 0.783 -0.600 -0.162 85 95 60
5.6331 100.9454 -1.8103 0.981 -0.136 0.140 77 84 50
34.0726 66.5717 -4.8366 0.876 -0.471 0.099 222 227 191
34.9403 67.8885 -5.1135 0.380 -0.908 0.178 196 206 146
-31.2100 98.0792 5.6523 0.827 -0.562 -0.025 68 80 34
-31.1618 98.2878 5.6260 0.813 -0.582 0.014 68 80 34
-27.3321 95.5566 5.0754 -0.549 -0.691 0.471 70 79 33
-27.0318 95.2494 5.0397 -0.257 -0.961 0.102 71 80 34
-26.0597 95.4211 4.8309 -0.264 -0.495 0.828 84 90 50
-25.8337 95.2613 4.7983 -0.196 -0.478 0.856 80 87 48
-23.9644 94.7838 4.4613 -0.423 -0.461 0.780 22 24 21
-23.9238 96.0364 4.3532 0.233 -0.675 0.700 92 99 67
-23.6459 96.0935 4.2929 0.243 -0.682 0.690 91 100 53
-1.7836 95.7848 -0.0696 -0.658 -0.749 -0.074 83 91 52
-0.1073 94.6363 -0.3143 -0.215 -0.497 0.840 58 69 27
1.0156 93.9983 -0.4888 -0.094 -0.992 0.087 88 100 52
5.4470 99.2457 -1.7968 0.425 -0.215 0.879 155 163 122
5.6287 100.6299 -1.9437 0.980 -0.128 0.150 80 87 53
33.7493 65.9641 -4.8201 0.886 -0.458 0.078 133 141 89
34.9204 67.8551 -5.2061 0.386 -0.904 0.184 197 207 145
-36.5684 98.8831 6.5050 -0.679 -0.510 0.528 8 12 12
-31.2881 97.8299 5.5317 0.862 -0.482 -0.159 60 71 29
-31.3043 98.1613 5.5079 0.836 -0.547 -0.027 63 74 31
-27.1542 95.4010 4.9005 -0.087 -0.978 0.190 72 80 42
-27.0248 95.4454 4.8709 -0.040 -0.976 0.212 72 79 47
-26.6479 95.2893 4.8080 0.510 -0.542 0.668 79 83 60
-26.1535 95.1998 4.7161 -0.349 -0.622 0.701 64 68 45
-25.0826 95.1602 4.5045 0.239 -0.413 0.879 9 12 7
-24.0706 94.5854 4.3484 -0.300 -0.457 0.838 10 13 7
-23.8814 95.8349 4.2085 0.448 -0.610 0.654 89 95 65
-23.6309 95.9528 4.1487 0.243 -0.682 0.690 92 101 55
-9.4302 83.2499 2.3361 -0.290 -0.695 0.658 76 85 40
-9.2743 83.1619 2.3120 -0.290 -0.695 0.658 81 90 45
-8.4921 87.0088 1.8413 -0.171 -0.577 0.798 149 169 130
-6.5313 97.4545 0.5957 -0.719 -0.375 0.585 77 94 58
-2.9122 95.2959 0.0458 0.801 -0.406 -0.440 96 108 58
-2.8212 95.5860 0.0039 0.800 -0.408 -0.440 82 94 48
-2.7095 95.7742 -0.0339 0.803 -0.406 -0.437 74 85 43
-2.6078 96.0183 -0.0742 0.803 -0.406 -0.437 76 86 49
-2.4594 96.0221 -0.1043 0.094 -0.700 -0.708 81 91 56
-2.3361 96.1584 -0.1402 -0.125 -0.788 -0.603 86 96 62
-2.1711 96.0753 -0.1665 -0.194 -0.796 -0.573 84 94 59
-1.8482 95.9428 -0.2204 -0.460 -0.791 -0.403 83 91 54
-1.2565 95.9659 -0.3410 -0.209 -0.751 -0.627 77 86 47
5.4556 98.8095 -1.9196 0.435 -0.193 0.880 154 162 121
5.6342 100.2070 -2.0694 0.933 -0.095 0.347 79 86 52
34.8760 67.7561 -5.2883 0.446 -0.766 0.462 196 204 143
-36.4119 98.7900 6.3229 -0.571 -0.532 0.625 16 18 17
-28.0174 96.1353 4.8606 -0.155 -0.242 0.958 72 79 44
-27.6588 95.7147 4.8237 -0.212 -0.270 0.939 69 75 45
-26.9370 95.1638 4.7249 0.463 -0.534 0.707 59 63 43
-26.6819 95.2592 4.6658 0.498 -0.546 0.674 48 52 39
-26.3303 95.1541 4.6040 -0.321 -0.589 0.741 24 27 17
-26.1137 95.0150 4.5722 -0.352 -0.624 0.697 10 14 3
-23.7478 95.7686 4.0349 0.669 -0.689 0.279 98 106 67
-23.6762 95.9486 4.0055 0.611 -0.717 0.335 94 103 54
-9.2736 83.0495 2.1922 -0.291 -0.694 0.659 88 97 54
-8.4184 86.6353 1.7218 -0.196 -0.493 0.848 154 175 132
-2.6402 95.9997 -0.2177 0.815 -0.400 -0.419 60 70 33
-2.5133 96.1161 -0.2528 0.103 -0.700 -0.707 68 78 43
-2.3923 96.2659 -0.2896 -0.322 -0.939 -0.117 75 85 51
-2.2310 96.2038 -0.3168 -0.325 -0.910 -0.259 80 90 56
-2.0570 96.0729 -0.3407 -0.610 -0.783 -0.119 80 92 56
-1.8840 95.9445 -0.3647 -0.637 -0.766 -0.081 80 92 56
-0.1217 94.3134 -0.5822 -0.318 -0.948 -0.033 63 75 35
0.0322 94.2657 -0.6091 -0.334 -0.940 -0.072 65 77 37
0.1765 94.2756 -0.6389 0.327 -0.940 -0.099 65 78 35
0.3058 94.3783 -0.6733 0.326 -0.942 -0.085 64 77 34
0.5915 94.4187 -0.7340 0.303 -0.600 0.740 73 85 40
5.6327 99.8633 -2.1989 0.978 -0.107 0.178 77 84 51
20.3583 70.3586 -2.6928 -0.527 -0.661 0.534 71 82 45
34.8417 67.6841 -5.3746 0.446 -0.766 0.462 192 200 141
-29.4136 95.7861 5.0169 0.070 -0.274 0.959 64 76 39
-29.0068 96.4891 4.8755 0.024 -0.207 0.978 66 77 39
-28.8144 96.4106 4.8436 -0.030 -0.205 0.978 66 74 39
-28.8013 96.6915 4.8171 -0.127 -0.198 0.972 74 81 47
-28.3899 96.1718 4.7788 -0.142 -0.202 0.969 77 84 52
-26.7091 94.9037 4.5498 0.394 -0.598 0.698 13 16 4
-26.6599 95.1129 4.5221 0.489 -0.551 0.676 5 8 1
-26.1161 94.9190 4.4296 -0.210 -0.819 0.534 15 17 11
-25.9312 94.8458 4.3988 -0.084 -0.936 0.342 13 15 10
-25.6114 94.8033 4.3383 -0.315 -0.888 0.335 12 13 7
-24.6368 96.2926 4.0161 0.718 -0.138 0.682 45 50 32
-24.6014 96.5523 3.9868 0.719 -0.139 0.681 52 56 36
-23.8126 95.4691 3.9209 0.604 -0.725 0.331 91 98 65
-23.6253 95.7272 3.8614 0.608 -0.736 0.299 93 103 54
-9.2722 82.9355 2.0726 -0.291 -0.694 0.659 99 108 64
-6.9065 81.8077 1.6943 0.445 -0.669 0.596 86 120 82
-3.1202 95.2367 -0.2081 0.803 -0.392 -0.448 100 110 58
-2.5768 96.2596 -0.4041 0.103 -0.700 -0.707 65 72 39
-2.4345 96.2986 -0.4360 -0.322 -0.939 -0.117 66 73 40
-2.2779 96.2626 -0.4643 -0.325 -0.910 -0.259 65 75 41
-2.1239 96.2399 -0.4933 -0.403 -0.914 -0.053 67 80 46
-1.9543 96.1323 -0.5181 -0.587 -0.802 -0.106 71 85 51
-0.5546 94.9362 -0.6969 -0.841 -0.538 0.049 72 84 44
-0.3608 94.6614 -0.7124 -0.764 -0.640 -0.077 72 84 44
-0.1848 94.4866 -0.7328 -0.535 -0.756 -0.376 70 82 42
-0.0041 94.2797 -0.7514 -0.641 -0.742 -0.197 68 80 40
0.1530 94.2121 -0.7771 0.113 -0.903 -0.415 68 80 40
0.2884 94.2766 -0.8098 0.339 -0.846 -0.412 68 81 38
0.4228 94.3482 -0.8428 0.299 -0.866 -0.400 67 80 37
4.3636 90.6369 -1.3170 0.651 -0.248 0.717 88 99 58
5.6277 99.5615 -2.3302 0.988 -0.101 0.112 76 81 51
5.7521 101.6458 -2.5326 0.919 -0.353 0.175 55 61 32
20.3550 70.4703 -2.8064 -0.355 -0.923 0.147 74 83 47
-28.2463 95.4782 4.6568 -0.032 -0.205 0.978 44 52 27
-24.6820 94.3110 4.0438 -0.104 -0.439 0.893 27 31 17
-24.4826 94.2016 4.0133 -0.104 -0.439 0.893 32 36 20
-24.2096 94.2549 3.9540 -0.083 -0.407 0.910 50 54 30
-24.1213 94.3876 3.9248 0.105 -0.933 0.344 61 65 38
-9.3054 82.9290 1.9510 -0.365 -0.645 0.671 108 117 70
-3.0271 95.3320 -0.3855 0.824 -0.395 -0.407 96 106 59
-2.6357 96.3780 -0.5549 0.091 -0.703 -0.706 75 85 52
-2.4844 96.3718 -0.5846 -0.300 -0.944 -0.141 70 81 49
-2.3257 96.3256 -0.6124 -0.300 -0.944 -0.141 61 74 43
-2.1589 96.2353 -0.6380 -0.481 -0.843 0.241 57 71 40
-1.8155 95.9965 -0.6861 -0.642 -0.765 -0.048 69 84 54
-1.3514 95.9047 -0.7712 -0.444 -0.808 0.386 72 87 56
-1.1475 95.5944 -0.7851 -0.377 -0.909 -0.176 70 85 54
-0.9495 95.3118 -0.8002 -0.327 -0.749 -0.576 69 83 51
-0.8000 95.3033 -0.8294 -0.313 -0.748 -0.585 71 87 49
-0.6446 95.2597 -0.8568 -0.313 -0.748 -0.585 71 87 48
-0.3107 95.0322 -0.9039 -0.340 -0.749 -0.568 70 85 44
-0.1521 94.9649 -0.9299 -0.315 -0.755 -0.576 68 83 42
0.0051 94.9045 -0.9561 -0.330 -0.770 -0.545 70 82 42
0.1946 94.6445 -0.9715 -0.286 -0.803 -0.524 70 82 42
5.4700 97.6390 -2.2892 0.833 -0.473 0.289 135 142 103
20.3324 70.4085 -2.9015 -0.617 -0.769 -0.169 75 82 48
20.4465 70.5134 -2.9335 0.844 -0.533 0.064 74 82 52
-30.2812 94.9305 4.9607 -0.041 -0.435 0.899 63 72 42
-26.4258 94.7381 4.2052 -0.015 -0.608 0.794 8 12 1
-25.8543 94.7976 4.0854 -0.033 -0.814 0.579 22 24 13
-24.1433 94.3331 3.7837 0.105 -0.933 0.344 83 90 57
-2.5293 96.4177 -0.7323 -0.420 -0.907 -0.045 79 93 58
-2.3719 96.3795 -0.7605 -0.302 -0.945 -0.127 77 91 59
-2.1938 96.2306 -0.7829 -0.480 -0.840 0.253 71 87 57
-2.0296 96.1530 -0.8090 -0.573 -0.792 0.213 62 78 49
-1.8657 96.0758 -0.8350 -0.534 -0.807 0.250 54 70 41
-1.7113 96.0490 -0.8635 0.148 -0.759 0.635 52 68 39
-1.5449 95.9550 -0.8885 -0.444 -0.808 0.386 56 72 43
-1.3808 95.8717 -0.9140 -0.455 -0.806 0.379 64 80 51
-1.1928 95.6521 -0.9322 -0.422 -0.906 0.045 70 85 56
-1.0143 95.4822 -0.9529 -0.198 -0.884 -0.424 74 89 57
-0.8624 95.4619 -0.9816 -0.198 -0.884 -0.424 72 86 49
4.1146 91.0379 -1.5865 0.408 -0.200 0.891 89 99 62
5.4495 97.5174 -2.4287 0.833 -0.480 0.275 126 132 94
5.6591 100.1950 -2.7082 0.992 -0.104 0.075 43 46 25
5.7055 101.4189 -2.8260 0.919 -0.353 0.174 57 60 41
20.4355 70.5547 -3.0401 0.864 -0.502 -0.050 76 82 54
-31.1846 95.3976 4.9476 0.007 -0.322 0.947 70 82 36
-30.9784 95.2954 4.9156 -0.110 -0.338 0.935 68 79 35
-27.4452 94.5773 4.2727 -0.112 -0.987 -0.111 19 21 19
-27.3172 94.6217 4.2431 -0.077 -0.995 -0.064 19 21 16
-27.1559 94.5984 4.2129 0.092 -0.670 0.737 8 11 4
-26.9683 94.5213 4.1823 0.078 -0.676 0.732 10 13 4
-26.7815 94.4452 4.1517 0.080 -0.681 0.728 10 14 2
-24.4769 93.9856 3.7316 -0.175 -0.855 0.488 81 88 56
-23.7665 93.7294 3.6125 0.096 -0.468 0.878 88 97 53
-23.4688 93.7254 3.5532 -0.030 -0.458 0.888 94 103 58
-23.8205 95.5086 3.4623 0.516 -0.819 0.251 94 104 53
-3.0636 96.6584 -0.7999 0.407 -0.913 -0.028 86 102 61
-2.9040 96.6127 -0.8277 -0.061 -0.977 -0.206 86 102 64
-2.7193 96.4366 -0.8488 -0.051 -0.939 -0.340 81 96 62
-2.5659 96.4203 -0.8780 -0.473 -0.880 -0.039 77 92 62
-2.4078 96.3793 -0.9060 -0.436 -0.900 -0.026 78 93 65
-2.2067 96.1086 -0.9218 -0.438 -0.814 0.380 77 93 64
-2.0418 96.0269 -0.9474 -0.446 -0.814 0.373 71 87 58
-1.8777 95.9479 -0.9731 -0.486 -0.790 0.373 65 84 54
-1.7215 95.9103 -1.0010 0.156 -0.754 0.638 58 77 49
-1.5747 95.9236 -1.0317 0.128 -0.783 0.608 54 73 43
-1.4124 95.8508 -1.0576 0.101 -0.793 0.600 58 74 45
-1.2594 95.8295 -1.0863 -0.029 -0.878 0.478 59 75 46
-1.1021 95.7823 -1.1136 0.196 -0.965 0.175 63 79 47
-0.9506 95.7680 -1.1426 0.036 -0.992 0.119 73 87 50
5.4262 97.4240 -2.5699 0.928 -0.368 0.059 113 120 81
5.5769 99.0497 -2.7472 0.990 -0.100 0.098 78 82 56
5.6462 99.9742 -2.8447 0.992 -0.104 0.075 40 43 22
5.7495 100.5564 -2.9181 0.980 -0.138 0.141 64 67 49
-31.7517 94.3984 5.0006 0.299 -0.313 0.901 71 80 32
-27.8156 94.6207 4.1918 -0.263 -0.955 0.139 5 7 2
-27.6106 94.5101 4.1609 -0.280 -0.941 0.190 8 11 5
-27.4312 94.4505 4.1305 -0.280 -0.941 0.190 11 13 6
-26.9769 94.4397 4.0405 0.209 -0.425 0.881 21 25 7
-24.5485 94.0386 3.5912 -0.256 -0.863 0.436 83 91 51
-24.3289 94.5335 3.5015 -0.319 -0.876 0.362 90 99 50
-24.5820 95.4171 3.4707 -0.472 -0.696 0.542 92 102 50
-24.1148 95.0519 3.4108 0.036 -0.364 0.931 94 105 50
-2.6076 96.4493 -1.0253 -0.473 -0.880 -0.039 81 96 72
-2.4490 96.4063 -1.0531 -0.478 -0.877 0.041 78 93 70
-2.2456 96.1243 -1.0679 -0.421 -0.808 0.412 75 91 63
-2.0681 95.9760 -1.0897 -0.446 -0.814 0.373 78 94 65
-1.9039 95.8969 -1.1153 -0.486 -0.790 0.373 80 96 67
-1.7351 95.7906 -1.1393 0.156 -0.754 0.638 79 95 66
-1.5901 95.8133 -1.1704 0.128 -0.783 0.608 73 89 60
-1.4285 95.7438 -1.1964 0.101 -0.793 0.600 66 82 53
-1.2812 95.7536 -1.2268 -0.029 -0.878 0.478 60 75 44
-1.1342 95.7650 -1.2573 0.184 -0.961 0.205 55 70 38
-0.9889 95.7862 -1.2883 0.184 -0.961 0.205 54 69 29
3.9530 90.7105 -1.8097 -0.561 -0.807 0.182 88 100 60
4.9132 96.2317 -2.5115 0.302 -0.456 0.837 103 114 49
5.5586 98.8955 -2.8865 0.990 -0.101 0.097 81 85 59
5.6282 99.8116 -2.9850 0.992 -0.105 0.076 37 40 19
22.9368 74.5885 -4.1241 0.819 -0.251 -0.516 102 110 63
24.0236 79.6438 -4.8082 0.887 -0.245 -0.392 101 110 54
28.7288 86.0716 -6.3436 0.196 0.042 0.980 99 107 56
36.3872 78.0286 -7.1352 -0.170 -0.853 0.494 112 127 70
36.0964 69.8120 -6.3189 0.856 -0.509 -0.085 133 143 90
-34.4158 95.8190 5.2491 0.615 -0.109 0.781 81 92 53
-31.8423 93.3873 4.9626 0.847 -0.364 0.389 77 90 39
-30.5736 94.3458 4.6185 0.006 -0.311 0.950 58 67 40
-30.4537 94.4022 4.5891 -0.126 -0.326 0.937 38 46 26
-28.9062 94.0187 4.3154 0.714 -0.699 -0.024 9 15 3
-28.7220 94.2416 4.2575 0.660 -0.706 0.258 7 12 6
-28.0053 94.0069 4.1361 -0.080 -0.439 0.895 9 14 7
-27.3698 93.9279 4.0163 -0.510 -0.755 0.413 21 25 12
-27.2869 94.0610 3.9872 -0.347 -0.890 0.296 25 29 14
-26.0898 96.6014 3.5086 -0.644 -0.764 0.037 86 94 53
-25.8312 96.7053 3.4470 -0.697 -0.711 0.094 86 95 48
-8.4000 81.6307 1.3749 0.029 -0.733 0.680 62 67 45
-11.4316 101.4415 0.1186 0.520 -0.561 0.644 79 111 79
-2.7695 94.8027 -0.9913 0.666 -0.717 0.204 87 107 74
-2.5676 95.2829 -1.0768 0.751 -0.484 0.448 84 103 76
-2.3647 95.7750 -1.1638 0.337 -0.865 0.371 82 100 77
-1.8713 95.5290 -1.2394 -0.611 -0.773 0.169 80 97 65
-1.7297 95.5676 -1.2714 -0.406 -0.818 0.407 79 96 64
-1.6153 95.7572 -1.3121 -0.149 -0.974 -0.170 76 93 61
-1.4307 95.5599 -1.3305 0.236 -0.961 0.144 75 90 59
-1.2970 95.6446 -1.3652 0.206 -0.966 0.153 71 86 55
-1.1559 95.6887 -1.3976 0.259 -0.959 0.111 63 79 44
-1.0184 95.7544 -1.4313 0.208 -0.965 0.161 57 72 32
4.9114 95.9417 -2.6362 0.301 -0.460 0.836 99 109 45
5.3768 97.2692 -2.8542 0.961 -0.275 0.019 101 108 68
5.5443 98.7003 -3.0224 0.990 -0.103 0.093 79 83 57
5.6154 99.5927 -3.1205 0.992 -0.105 0.076 39 42 20
27.7466 84.3911 -6.1217 0.267 -0.009 0.964 71 79 28
33.8484 66.1421 -5.6270 0.806 -0.591 -0.009 185 194 136
36.0942 69.8256 -6.4231 0.856 -0.509 -0.085 133 143 90
-30.8569 94.2205 4.5360 -0.000 -0.307 0.952 41 49 28
-29.7421 93.8107 4.3521 -0.062 -0.496 0.866 13 15 9
-29.5411 93.7117 4.3214 0.163 -0.773 0.612 13 15 11
-29.4073 93.7404 4.2918 0.177 -0.758 0.628 11 13 9
-29.3079 93.8351 4.2629 0.201 -0.769 0.607 11 13 9
