ply
format ascii 1.0
element vertex 899
property float x
property float y
property float z
property float nx
property float ny
property float nz
property uchar diffuse_red
property uchar diffuse_green
property uchar diffuse_blue
end_header
29.8843 79.1193 -3.0863 -0.528 -0.724 -0.444 193 198 157
30.2536 78.2626 -3.1188 -0.413 -0.891 -0.190 213 216 173
30.4315 78.5685 -3.1725 -0.085 -0.694 0.714 199 202 158
30.5488 78.5989 -3.1988 -0.030 -0.673 0.739 183 186 142
30.6918 77.7724 -3.1852 -0.900 -0.433 0.053 131 135 87
31.9860 75.1888 -3.3212 0.102 -0.736 -0.669 79 88 33
32.5040 74.0203 -3.3686 -0.650 -0.632 -0.421 97 106 53
32.6124 74.0421 -3.3926 -0.664 -0.621 -0.416 95 103 52
32.6935 73.9642 -3.4055 -0.739 -0.591 -0.322 88 96 45
32.7480 73.7919 -3.4079 -0.748 -0.661 0.050 85 93 42
33.4342 72.3187 -3.4746 -0.269 -0.289 0.919 128 137 81
33.5001 72.2058 -3.4825 -0.238 -0.274 0.932 128 137 82
33.5399 72.0070 -3.4804 -0.127 -0.108 0.986 129 138 85
33.6005 71.8800 -3.4864 -0.127 -0.108 0.986 132 140 89
33.6329 71.6607 -3.4816 -0.931 -0.359 0.062 124 132 83
33.6671 71.4500 -3.4777 -0.920 -0.379 0.100 114 122 74
33.7157 71.2888 -3.4794 -0.920 -0.378 0.099 107 114 69
33.7545 71.0974 -3.4775 -0.921 -0.367 0.131 106 114 66
33.7935 70.9088 -3.4757 -0.918 -0.350 0.187 102 110 62
33.8845 70.5797 -3.4775 -0.919 -0.349 0.182 82 90 41
34.2688 68.8211 -3.4655 -0.575 -0.514 -0.636 69 77 28
34.3225 68.7013 -3.4705 -0.587 -0.511 -0.628 70 78 30
-36.2182 99.5581 9.6018 0.331 -0.935 0.127 78 95 44
-36.4718 100.4998 9.6038 0.438 -0.836 0.330 62 76 35
-36.3469 100.5537 9.5745 0.438 -0.836 0.330 34 49 16
-36.2261 100.6147 9.5458 0.471 -0.818 0.331 4 16 1
-33.9523 98.3408 9.1911 -0.633 -0.610 0.477 82 92 53
-27.5793 94.9719 8.0332 -0.189 -0.838 0.511 87 97 44
-27.7979 95.9408 8.0263 0.480 -0.774 -0.412 81 91 39
-27.7181 96.0708 8.0024 0.549 -0.742 -0.385 72 82 30
-27.5144 96.2486 7.9498 0.549 -0.742 -0.385 74 82 35
-27.2832 96.0900 7.9098 0.908 -0.415 0.060 81 89 42
-9.7884 88.4284 4.6445 0.008 -0.617 0.787 76 85 56
-9.6273 88.3451 4.6151 0.004 -0.624 0.782 34 43 15
-9.4182 88.1188 4.5834 -0.501 -0.612 0.612 41 50 22
-7.6921 84.1205 4.4383 0.755 -0.655 0.031 52 63 31
-7.6365 84.3308 4.4151 0.758 -0.652 0.020 56 69 39
-7.4033 84.3851 4.3631 0.510 -0.841 -0.178 61 76 47
-11.0955 96.5672 4.4753 0.782 -0.422 -0.459 61 75 49
-10.0410 96.0150 4.2834 -0.008 -0.619 0.785 58 68 41
-9.3661 96.1937 4.1316 0.235 -0.403 0.884 49 59 34
-9.2377 96.2520 4.1013 0.382 -0.768 0.514 49 59 34
-6.4422 97.2702 3.4571 -0.659 -0.631 0.410 44 49 26
-1.7112 97.1828 2.4658 0.813 -0.562 -0.153 40 45 22
-0.4001 95.0212 2.3077 -0.555 -0.824 -0.114 41 48 30
2.1334 95.2360 1.7625 -0.054 -0.926 -0.374 38 44 20
2.2757 95.2400 1.7324 -0.054 -0.926 -0.374 37 43 19
4.0919 94.5362 1.3884 -0.239 -0.257 0.936 42 47 24
6.1186 83.0961 1.5863 0.841 -0.507 0.189 55 60 39
6.4042 83.6820 1.4942 -0.743 -0.518 0.425 138 145 113
6.5543 83.4751 1.4739 -0.710 -0.569 0.416 196 202 166
6.7697 83.6980 1.4163 0.271 -0.751 0.602 123 132 80
7.3981 83.5655 1.2912 -0.582 -0.598 0.551 245 251 215
7.5364 83.4308 1.2695 -0.458 -0.680 0.572 119 124 93
7.7811 83.4242 1.2183 0.119 -0.837 0.534 79 86 64
7.9076 83.3836 1.1939 -0.291 -0.718 0.633 44 52 28
8.0228 83.4427 1.1664 -0.504 -0.537 0.676 48 57 30
8.4150 83.1949 1.0974 -0.280 -0.765 0.580 195 205 170
21.1317 83.9104 -1.6193 -0.154 -0.905 0.397 81 88 46
22.5563 83.6293 -1.9039 -0.061 -0.798 0.600 81 89 46
22.6683 83.5427 -1.9228 0.451 -0.726 0.519 120 130 76
22.7990 83.6504 -1.9562 0.120 -0.841 0.527 177 188 129
23.1616 83.6660 -2.0334 0.208 -0.786 0.582 127 136 92
23.5343 83.7758 -2.1178 0.402 -0.791 0.462 81 88 46
23.6528 83.7580 -2.1418 -0.126 -0.884 0.450 110 117 75
23.7700 83.7295 -2.1649 -0.126 -0.884 0.450 120 126 86
25.6146 83.1575 -2.5221 0.199 -0.980 -0.025 46 49 28
25.7240 83.0882 -2.5413 0.306 -0.931 -0.198 41 44 22
26.5712 83.1841 -2.7250 -0.307 -0.838 -0.451 41 45 21
27.0427 81.6886 -2.7426 -0.761 -0.631 -0.151 35 41 16
27.1458 81.6074 -2.7599 -0.377 -0.926 0.012 39 44 22
27.2607 81.5992 -2.7836 -0.232 -0.971 0.049 36 41 19
27.3886 81.6688 -2.8143 -0.153 -0.986 0.071 30 35 13
27.5124 81.7127 -2.8428 0.339 -0.911 0.233 36 41 19
27.7465 81.7207 -2.8925 -0.197 -0.970 0.141 37 42 20
27.8269 81.5139 -2.8982 -0.319 -0.904 -0.286 42 47 25
27.9190 81.3778 -2.9101 -0.478 -0.836 -0.268 41 46 24
28.0341 81.3741 -2.9342 -0.468 -0.844 -0.262 41 46 24
28.3712 81.3185 -3.0021 0.113 -0.852 -0.512 55 60 38
28.8636 80.8712 -3.0814 -0.798 -0.574 -0.184 77 84 44
29.3492 79.3054 -3.0981 0.267 -0.897 -0.354 72 78 40
29.8818 79.1762 -3.2032 -0.558 -0.724 -0.405 64 71 30
30.1261 78.2473 -3.2039 -0.398 -0.912 0.102 107 109 69
30.2433 78.2796 -3.2304 -0.417 -0.890 -0.184 128 130 91
30.3955 78.4697 -3.2728 -0.085 -0.694 0.714 142 144 105
30.5103 78.4890 -3.2980 -0.059 -0.682 0.729 160 164 125
30.5360 78.1118 -3.2828 -0.914 -0.382 0.132 170 175 135
30.6057 77.9349 -3.2878 -0.915 -0.383 0.128 191 196 154
30.9280 77.4391 -3.3286 0.224 -0.883 0.413 203 210 166
31.0422 77.4629 -3.3540 0.246 -0.881 0.404 182 189 145
31.1561 77.4853 -3.3792 0.268 -0.944 0.194 152 159 115
31.1950 77.1927 -3.3714 -0.888 -0.460 -0.003 133 138 95
32.4811 74.3576 -3.4874 -0.922 -0.384 -0.043 72 81 28
32.4949 74.0291 -3.4724 -0.659 -0.629 -0.412 80 89 36
32.5839 73.9797 -3.4884 -0.663 -0.628 -0.407 82 90 39
32.7259 73.7528 -3.5059 -0.784 -0.543 -0.300 89 97 46
32.7998 73.6517 -3.5159 -0.784 -0.543 -0.300 92 100 49
33.0783 73.2003 -3.5499 -0.224 -0.761 -0.608 87 95 43
34.6580 67.8036 -3.5879 0.289 -0.451 -0.844 51 59 19
-36.5019 100.4546 9.4565 0.470 -0.806 0.358 61 74 35
-36.3880 100.5268 9.4285 0.487 -0.751 0.445 26 40 11
-36.2514 100.5614 9.3978 0.491 -0.790 0.366 3 15 0
-27.5851 94.8878 7.8933 -0.189 -0.838 0.511 87 98 42
-27.7508 96.0361 7.8634 0.478 -0.769 -0.425 78 88 35
-27.6606 96.1468 7.8382 0.518 -0.758 -0.396 74 82 32
-27.5516 96.2224 7.8110 0.510 -0.761 -0.401 78 86 37
-27.3020 96.0287 7.7694 0.908 -0.415 0.060 84 92 42
-27.5964 97.1704 7.7670 -0.618 -0.764 0.183 87 95 45
-10.4106 88.1968 4.6552 -0.449 -0.878 0.169 98 107 60
-9.9525 88.4067 4.5470 -0.045 -0.553 0.832 143 153 120
-9.7685 88.2569 4.5167 -0.210 -0.649 0.732 151 160 131
-9.6193 88.2082 4.4880 -0.027 -0.598 0.801 44 53 31
-11.4570 96.1975 4.4246 -0.083 -0.828 -0.555 56 69 41
-11.1078 96.4754 4.3355 0.782 -0.416 -0.464 57 71 45
-6.0586 82.4076 4.0654 -0.887 -0.443 0.126 51 65 39
-5.7002 81.6581 4.0322 -0.900 -0.389 0.195 47 60 34
-9.5572 95.7319 4.0510 0.596 -0.675 0.435 40 50 23
-9.4326 95.7998 4.0209 0.587 -0.636 0.501 41 51 24
-9.2671 96.2138 3.9628 0.385 -0.634 0.671 40 50 25
0.0156 94.9051 2.0826 -0.504 -0.805 0.312 41 45 31
3.9544 94.2833 1.2885 -0.111 -0.364 0.925 37 45 21
6.3877 83.5945 1.3787 -0.680 -0.561 0.473 145 152 119
6.7528 83.6112 1.3009 0.256 -0.757 0.601 118 126 75
7.3821 83.4683 1.1765 -0.578 -0.598 0.555 249 253 219
7.5188 83.3459 1.1546 -0.458 -0.680 0.572 123 128 97
7.6447 83.3123 1.1300 -0.227 -0.769 0.598 73 78 51
7.7629 83.3428 1.1034 0.105 -0.840 0.532 71 80 58
7.8941 83.2607 1.0804 -0.232 -0.657 0.717 44 52 28
8.0100 83.3122 1.0531 -0.488 -0.531 0.693 40 49 23
8.3922 83.1540 0.9815 0.113 -0.789 0.604 194 204 168
8.6859 83.8436 0.8809 -0.927 -0.287 0.242 64 73 18
21.1081 83.8707 -1.7354 -0.132 -0.863 0.488 82 89 48
22.5256 83.5145 -2.0137 -0.054 -0.782 0.621 73 82 37
22.6392 83.4454 -2.0338 0.451 -0.726 0.519 125 135 81
22.7669 83.5237 -2.0651 0.335 -0.831 0.445 167 178 119
22.8838 83.4905 -2.0878 0.085 -0.801 0.592 140 151 94
23.1344 83.5917 -2.1462 0.094 -0.793 0.602 143 149 109
23.2573 83.6175 -2.1736 0.141 -0.789 0.598 208 214 175
23.4994 83.6313 -2.2253 0.289 -0.758 0.584 85 92 50
23.6256 83.6864 -2.2550 -0.302 -0.898 0.319 108 115 71
23.7493 83.7159 -2.2827 -0.108 -0.915 0.388 121 128 84
25.4931 87.9431 -2.8879 0.969 -0.175 0.176 69 77 32
25.6087 83.2461 -2.6476 0.400 -0.806 0.436 54 59 32
26.7177 83.4774 -2.8940 -0.153 -0.841 -0.519 48 53 22
26.8002 82.4782 -2.8551 0.263 -0.896 -0.359 48 52 23
27.4031 81.8555 -2.9469 -0.649 -0.281 0.707 45 50 30
27.4777 81.6060 -2.9486 0.330 -0.891 0.312 46 51 30
27.5459 81.3234 -2.9470 -0.296 -0.866 0.403 46 51 30
28.4893 81.4189 -3.1510 0.357 -0.694 -0.625 38 43 19
28.6063 81.4255 -3.1760 0.151 -0.855 -0.495 33 39 16
29.3247 79.2581 -3.2050 0.422 -0.833 -0.358 58 64 27
29.4387 79.2681 -3.2296 0.419 -0.831 -0.365 64 70 32
29.5612 79.3187 -3.2582 0.425 -0.826 -0.371 68 75 34
29.6899 79.3992 -3.2899 0.425 -0.826 -0.371 73 80 39
29.8857 79.2636 -3.3234 -0.659 -0.735 -0.163 75 81 43
30.1134 78.2539 -3.3145 -0.410 -0.892 -0.190 73 75 39
30.8938 77.3500 -3.4278 -0.331 -0.902 -0.278 96 102 65
31.0160 77.4084 -3.4568 0.246 -0.881 0.404 118 125 89
31.1258 77.4135 -3.4802 0.229 -0.892 0.389 135 139 105
31.2721 77.1180 -3.4944 -0.929 -0.351 0.120 173 179 135
31.3379 76.9428 -3.4983 -0.929 -0.351 0.120 201 206 163
32.5119 74.1341 -3.5872 -0.759 -0.586 -0.285 116 125 72
32.6105 74.1189 -3.6071 -0.683 -0.627 -0.375 103 112 59
32.6890 74.0307 -3.6186 -0.753 -0.589 -0.292 89 97 46
32.7330 73.8194 -3.6160 -0.781 -0.543 -0.309 73 81 30
32.8044 73.7087 -3.6248 -0.780 -0.545 -0.308 62 70 19
32.8911 73.6539 -3.6399 -0.786 -0.542 -0.296 62 71 18
32.9698 73.5717 -3.6519 -0.750 -0.576 -0.324 68 77 26
33.0282 73.4188 -3.6556 -0.623 -0.658 -0.423 76 84 37
33.0970 73.3043 -3.6636 -0.205 -0.734 -0.648 89 96 53
33.1812 73.2447 -3.6779 -0.737 -0.577 -0.351 98 105 62
34.1731 69.4459 -3.6727 -0.773 -0.472 -0.425 115 123 76
34.2885 69.5099 -3.7006 -0.867 -0.265 0.421 112 119 75
34.3339 69.3597 -3.7017 -0.867 -0.265 0.421 106 113 71
45.0785 94.2937 -7.3683 -0.629 -0.691 -0.356 121 130 78
45.2829 94.4838 -7.4221 -0.729 -0.682 -0.067 100 110 58
-36.4819 100.3260 9.3035 0.383 -0.669 0.637 63 74 38
-36.3533 100.3734 9.2737 0.379 -0.670 0.639 27 39 14
-36.2067 100.3908 9.2419 0.417 -0.678 0.605 8 17 0
-33.7938 97.8823 8.8799 -0.604 -0.582 0.544 84 93 45
-30.1071 96.9886 8.1560 -0.731 -0.682 0.032 86 98 48
-29.6741 96.4718 8.0949 -0.732 -0.681 0.017 87 99 51
-27.5913 95.9180 7.6888 0.008 -0.992 -0.125 88 98 45
-27.4493 95.9298 7.6583 0.208 -0.964 -0.166 88 98 45
-27.1351 95.6117 7.6106 0.123 -0.965 0.234 88 98 45
-27.0869 95.8029 7.5894 0.092 -0.981 0.172 88 98 45
-23.2124 95.1124 6.8142 -0.275 -0.769 0.577 12 17 1
-10.4478 88.1918 4.5303 -0.449 -0.878 0.169 97 106 59
-9.5971 88.0300 4.3607 -0.037 -0.523 0.851 109 118 90
-6.1783 82.6751 3.9524 -0.873 -0.460 0.160 43 56 30
-10.1011 95.9433 4.0070 -0.560 -0.580 0.592 39 49 24
-9.7593 95.7821 3.9444 0.035 -0.722 0.691 41 51 26
-9.6422 95.8746 3.9144 0.368 -0.854 0.368 38 48 23
-2.9926 96.6675 2.4691 -0.560 -0.328 0.761 43 49 21
-2.8635 96.7440 2.4375 -0.238 -0.249 0.939 43 49 20
-1.3751 95.9206 2.1721 0.077 -0.342 0.937 41 47 22
6.2368 83.5943 1.2865 -0.492 -0.560 0.667 34 41 11
6.7347 83.5334 1.1853 0.380 -0.714 0.588 115 124 73
7.3652 83.3782 1.0616 -0.578 -0.598 0.555 243 249 213
7.5011 83.2629 1.0397 -0.242 -0.767 0.595 124 129 97
7.6270 83.2283 1.0153 -0.227 -0.769 0.598 72 77 48
7.7493 83.2229 0.9898 -0.036 -0.740 0.671 70 77 55
7.8803 83.1419 0.9670 -0.232 -0.657 0.717 46 54 30
7.9878 83.2661 0.9371 -0.519 -0.514 0.683 43 52 25
8.2529 83.0680 0.8929 0.192 -0.757 0.625 145 154 122
8.3705 83.1029 0.8661 0.351 -0.768 0.536 199 209 173
8.4895 83.1256 0.8397 0.355 -0.760 0.544 145 156 116
8.6713 83.7202 0.7669 -0.924 -0.296 0.243 64 73 18
21.0803 83.7727 -1.8473 0.253 -0.828 0.500 83 90 49
22.4969 83.4195 -2.1249 -0.025 -0.765 0.644 72 82 34
22.7403 83.4526 -2.1780 0.335 -0.831 0.445 167 178 120
22.8581 83.4288 -2.2014 0.128 -0.806 0.577 140 150 96
23.1055 83.5000 -2.2576 -0.349 -0.718 0.602 143 149 112
23.2285 83.5278 -2.2851 0.141 -0.789 0.598 207 213 177
23.4705 83.5427 -2.3369 0.245 -0.762 0.600 87 94 52
23.6008 83.6352 -2.3697 -0.333 -0.898 0.289 111 119 74
23.7249 83.6699 -2.3978 -0.108 -0.915 0.388 124 132 83
24.6480 85.3339 -2.6887 -0.416 -0.828 -0.376 106 114 61
27.0769 82.1086 -3.0124 -0.686 -0.310 0.658 58 64 40
27.4475 81.5252 -3.0565 -0.320 -0.882 0.347 57 62 38
28.3705 81.4916 -3.2488 0.334 -0.701 -0.630 56 64 27
28.5060 81.5975 -3.2835 -0.165 -0.900 -0.403 57 65 29
28.6148 81.5574 -3.3040 -0.174 -0.902 -0.395 60 66 34
29.2839 79.1300 -3.3038 -0.273 -0.401 0.875 46 50 15
29.3929 79.1164 -3.3260 -0.273 -0.398 0.876 42 48 10
29.5003 79.0949 -3.3473 -0.290 -0.392 0.873 39 45 7
29.5853 78.9657 -3.3577 -0.262 -0.412 0.873 38 44 6
30.3935 78.5879 -3.5058 -0.813 -0.509 0.284 73 72 41
30.8673 77.2939 -3.5303 0.158 -0.863 0.479 78 83 43
30.9888 77.3497 -3.5591 0.148 -0.878 0.455 77 82 41
32.1450 75.5383 -3.6972 0.011 -0.781 -0.624 175 183 131
32.5351 74.2621 -3.7051 -0.779 -0.604 -0.168 145 154 101
32.9874 73.6736 -3.7661 -0.830 -0.552 0.081 123 131 81
33.0144 73.4093 -3.7564 -0.205 -0.734 -0.648 106 113 68
33.1132 73.3995 -3.7767 -0.205 -0.734 -0.648 80 87 49
34.2476 69.4122 -3.7837 -0.903 -0.336 0.266 119 126 84
-36.5611 99.8431 9.1929 0.163 -0.681 0.714 75 91 34
-36.5124 100.0213 9.1720 0.268 -0.740 0.617 78 90 39
-36.4136 100.1173 9.1455 0.433 -0.658 0.616 63 75 39
-36.2895 100.1716 9.1161 0.433 -0.658 0.616 25 38 15
-34.1561 98.4060 8.7730 -0.293 -0.606 0.739 86 96 45
-32.4402 96.7644 8.5103 0.165 -0.919 0.358 85 94 47
-31.0206 97.1825 8.1867 0.547 -0.823 -0.156 81 93 47
-30.1521 96.9746 8.0164 0.217 -0.969 -0.117 79 91 43
-30.0128 96.9951 7.9859 0.299 -0.930 -0.215 83 95 47
-29.6441 96.5950 7.9323 -0.540 -0.842 0.005 89 98 51
-27.8455 96.0221 7.5882 0.280 -0.942 -0.186 90 99 46
-27.6510 95.9348 7.5525 0.008 -0.992 -0.125 88 99 43
-23.2121 95.0108 6.6741 -0.308 -0.731 0.608 11 15 1
-22.0963 94.1889 6.4885 -0.562 -0.638 0.527 93 102 59
-10.4602 88.1161 4.4042 -0.386 -0.880 0.278 94 106 58
-10.3241 88.1061 4.3762 0.098 -0.863 0.496 87 99 53
-10.2196 88.1866 4.3494 0.086 -0.880 0.467 57 68 25
-9.5546 87.7925 4.2331 -0.030 -0.524 0.851 124 134 101
-6.2608 82.8246 3.8375 -0.872 -0.463 0.158 40 50 23
-10.2040 96.1387 3.8702 -0.437 -0.807 0.398 43 51 29
-10.0168 96.0081 3.8386 -0.427 -0.811 0.400 46 55 33
-9.8597 95.9726 3.8077 -0.318 -0.861 0.397 50 58 37
-3.3864 80.9214 3.3468 0.306 -0.927 0.215 53 58 35
0.8409 94.6921 1.6334 -0.219 -0.910 -0.352 60 66 37
5.8501 82.6799 1.2986 0.840 -0.535 -0.087 74 79 60
6.2256 83.4681 1.1724 -0.492 -0.560 0.667 33 39 11
6.7226 83.4101 1.0713 0.395 -0.681 0.617 112 121 69
7.3487 83.2853 0.9471 -0.548 -0.653 0.523 234 240 202
7.4808 83.2008 0.9243 -0.227 -0.769 0.598 119 125 91
7.6093 83.1444 0.9007 -0.227 -0.769 0.598 67 73 41
7.7337 83.1204 0.8760 -0.036 -0.740 0.671 68 76 52
7.8638 83.0469 0.8530 -0.237 -0.637 0.734 48 56 32
7.9774 83.1160 0.8250 -0.512 -0.521 0.683 50 59 31
8.1173 82.9514 0.8054 0.207 -0.734 0.647 164 173 143
8.2353 82.9802 0.7788 0.351 -0.768 0.536 150 160 127
8.3503 83.0386 0.7512 0.610 -0.646 0.459 209 216 181
8.4625 83.1242 0.7224 0.610 -0.646 0.459 146 154 114
21.0541 83.6970 -1.9606 0.230 -0.791 0.567 82 89 48
22.4697 83.3406 -2.2371 0.102 -0.720 0.687 72 81 36
22.7150 83.3942 -2.2919 0.324 -0.827 0.459 167 178 121
22.8301 83.3444 -2.3131 0.128 -0.806 0.577 138 148 94
23.0790 83.4316 -2.3707 -0.344 -0.710 0.614 145 151 113
23.1917 83.3602 -2.3901 -0.344 -0.710 0.614 205 211 174
23.3191 83.4305 -2.4211 0.153 -0.776 0.611 87 93 55
23.4426 83.4631 -2.4491 0.251 -0.768 0.590 88 95 53
23.5764 83.5888 -2.4847 -0.347 -0.878 0.330 116 124 77
23.6965 83.5875 -2.5099 -0.269 -0.872 0.409 127 135 82
28.2569 81.5948 -3.3500 0.662 -0.725 -0.188 55 64 20
28.4910 81.6035 -3.3997 -0.169 -0.944 -0.284 39 50 6
28.6178 81.6600 -3.4298 -0.863 -0.434 0.259 37 43 6
29.8140 78.5358 -3.4944 -0.108 -0.308 0.945 54 61 21
30.4592 77.9551 -3.5954 -0.830 -0.442 0.341 50 51 19
30.5212 77.7437 -3.5958 -0.826 -0.433 0.361 43 44 12
30.6047 77.6303 -3.6066 -0.833 -0.436 0.340 45 47 14
30.9716 77.3332 -3.6660 0.238 -0.865 0.442 60 65 28
32.0482 75.6186 -3.7898 0.086 -0.769 -0.634 71 79 33
32.1578 75.6345 -3.8138 0.014 -0.782 -0.623 88 96 49
32.6143 74.2169 -3.8250 -0.775 -0.611 -0.162 132 140 91
32.7530 73.9736 -3.8396 -0.854 -0.494 0.165 127 135 85
32.9784 73.6813 -3.8696 -0.828 -0.555 0.083 125 134 82
33.0422 73.5464 -3.8749 -0.239 -0.740 -0.628 144 152 104
33.1375 73.5235 -3.8936 -0.207 -0.732 -0.649 150 157 113
33.2007 73.3888 -3.8988 -0.782 -0.586 -0.215 145 152 109
33.6168 71.7419 -3.8878 -0.914 -0.391 0.112 75 83 33
33.7126 71.4095 -3.8880 -0.915 -0.404 -0.002 74 82 32
34.3210 69.3756 -3.8943 -0.897 -0.395 -0.196 98 105 63
41.5599 85.9128 -6.4068 -0.569 -0.215 0.794 102 111 83
-36.4747 99.8643 9.0180 0.231 -0.763 0.603 78 91 40
-36.3931 99.9884 8.9932 0.426 -0.658 0.621 61 72 36
-36.2689 100.0423 8.9638 0.433 -0.658 0.616 23 36 13
-32.8742 97.4212 8.4113 0.473 -0.879 -0.060 85 94 47
-30.9742 97.0043 8.0375 0.673 -0.735 -0.078 69 81 35
-30.3220 96.9143 7.9059 0.053 -0.886 0.461 69 81 31
-30.1437 96.8636 7.8715 0.022 -0.948 0.318 72 84 36
-29.9706 96.8220 7.8376 0.093 -0.987 0.133 78 90 44
-29.6788 96.5629 7.7922 -0.503 -0.864 0.005 88 97 50
-10.4803 88.0624 4.2786 -0.380 -0.886 0.266 93 105 59
-10.3305 88.0131 4.2501 -0.371 -0.888 0.272 90 102 54
-10.2180 88.0704 4.2229 0.098 -0.874 0.475 50 62 17
-9.2806 95.8541 3.5463 0.051 -0.782 -0.621 53 61 40
-0.6260 79.7504 2.7183 -0.627 -0.721 -0.295 48 57 29
-4.6609 99.0368 2.3788 0.115 -0.031 0.993 46 55 26
-4.4301 98.6999 2.3510 0.143 -0.024 0.989 42 51 22
0.2636 94.5471 1.6198 -0.199 -0.811 0.550 89 100 59
5.8619 82.4027 1.1906 0.859 -0.503 -0.095 72 78 54
6.5897 83.2781 0.9836 0.390 -0.684 0.617 119 128 85
7.3278 83.2288 0.8314 -0.559 -0.654 0.510 225 232 192
7.4616 83.1308 0.8093 -0.235 -0.787 0.571 114 122 84
7.5889 83.0837 0.7855 -0.231 -0.782 0.579 62 69 36
7.7151 83.0443 0.7613 -0.051 -0.779 0.625 68 76 52
7.8497 82.9307 0.7400 -0.329 -0.705 0.628 51 59 34
7.9653 82.9806 0.7126 -0.512 -0.521 0.683 54 63 35
8.1035 82.8310 0.6928 0.205 -0.749 0.631 171 177 147
8.2217 82.8569 0.6663 0.610 -0.646 0.459 156 163 130
8.3336 82.9421 0.6376 0.610 -0.646 0.459 212 219 184
8.4457 83.0275 0.6087 0.610 -0.646 0.459 146 155 114
21.0281 83.6236 -2.0740 0.253 -0.693 0.675 81 89 48
22.4398 83.2317 -2.3467 0.102 -0.720 0.687 72 81 38
22.6847 83.2846 -2.4015 0.419 -0.843 0.338 167 178 119
22.8042 83.2802 -2.4263 0.126 -0.806 0.579 139 150 92
23.0500 83.3392 -2.4817 -0.349 -0.718 0.602 145 152 109
23.1637 83.2771 -2.5017 -0.344 -0.710 0.614 204 210 168
23.2913 83.3510 -2.5331 0.141 -0.789 0.598 91 99 54
23.4151 83.3863 -2.5613 0.274 -0.783 0.559 90 97 51
23.5450 83.4778 -2.5943 -0.390 -0.853 0.348 120 128 77
23.8704 83.1685 -2.6437 -0.417 -0.312 0.854 122 132 73
25.0192 88.7428 -3.2286 -0.326 -0.826 -0.459 103 112 55
28.3637 81.6318 -3.4939 0.210 -0.944 -0.256 101 113 67
28.4600 81.5220 -3.5074 -0.269 -0.469 0.841 109 121 75
28.5728 81.5039 -3.5300 -0.515 -0.487 0.705 120 130 87
29.3108 78.8587 -3.5222 -0.862 -0.502 0.072 49 57 16
29.4622 78.5128 -3.5328 -0.855 -0.517 0.048 54 62 21
29.8583 78.2917 -3.6024 0.106 -0.986 0.129 49 57 16
29.9743 78.3177 -3.6284 0.114 -0.985 0.132 57 63 25
30.5075 77.7442 -3.7052 -0.861 -0.467 0.203 59 64 31
31.1183 77.5514 -3.8218 0.244 -0.904 -0.352 33 38 9
31.1638 77.2843 -3.8149 -0.747 -0.660 -0.087 33 38 9
32.1717 75.7351 -3.9314 0.006 -0.782 -0.623 69 76 34
32.9669 73.6800 -3.9721 -0.826 -0.557 0.085 139 146 100
33.0479 73.6056 -3.9845 -0.239 -0.717 -0.655 134 141 95
41.4110 85.8668 -6.4985 -0.454 -0.191 0.870 233 244 214
-31.0458 97.0372 7.9001 0.657 -0.753 -0.048 61 73 26
-30.3626 96.8923 7.7657 0.084 -0.876 0.476 65 77 27
-29.8409 96.4900 7.6815 -0.639 -0.769 -0.001 76 88 42
-29.5667 96.2623 7.6383 -0.639 -0.769 -0.001 83 95 47
-10.4469 87.8571 4.1513 0.058 -0.881 0.469 91 103 57
-10.3436 87.9396 4.1244 -0.332 -0.891 0.308 93 105 57
-10.1981 87.9021 4.0962 0.219 -0.948 0.232 50 62 14
-10.0684 87.9097 4.0684 -0.363 -0.597 0.715 164 176 130
-10.5287 95.9776 3.6541 0.638 -0.758 0.137 53 62 34
-6.2590 95.8429 2.7650 0.618 -0.410 0.670 43 45 30
-6.1660 96.0400 2.7329 0.693 -0.418 0.587 44 46 32
-6.0370 96.1034 2.7018 0.568 -0.591 0.573 44 47 31
-1.6048 80.6972 2.7461 -0.844 -0.435 0.314 45 54 28
-0.7084 79.9573 2.6045 -0.314 -0.666 0.677 44 53 23
0.0780 94.5871 1.5123 -0.477 -0.766 0.430 90 103 56
0.2449 94.4605 1.4853 -0.199 -0.811 0.550 90 103 57
6.5164 82.7075 0.9115 -0.722 -0.380 0.578 163 171 132
7.3090 83.1553 0.7165 -0.559 -0.654 0.510 220 229 185
7.4442 83.0455 0.6950 -0.333 -0.781 0.528 100 108 68
7.5667 83.0381 0.6697 -0.067 -0.830 0.554 73 81 45
7.6982 82.9539 0.6474 -0.051 -0.779 0.625 67 73 49
7.8331 82.8372 0.6264 -0.329 -0.705 0.628 48 54 29
7.9543 82.8369 0.6010 -0.555 -0.620 0.554 58 64 35
8.0833 82.7679 0.5782 0.097 -0.792 0.602 187 194 162
8.2032 82.7780 0.5524 0.575 -0.700 0.423 159 166 132
8.3169 82.8458 0.5242 0.610 -0.646 0.459 217 224 187
8.4289 82.9310 0.4952 0.610 -0.646 0.459 154 162 121
8.8613 83.4553 0.3711 -0.536 -0.586 0.608 97 106 53
22.4111 83.1362 -2.4572 0.094 -0.724 0.684 84 92 53
22.7826 83.2603 -2.5431 -0.113 -0.838 0.533 134 145 84
23.0237 83.2719 -2.5946 -0.449 -0.704 0.550 146 154 106
23.1385 83.2218 -2.6155 -0.354 -0.719 0.599 199 207 159
23.3900 83.3332 -2.6755 0.276 -0.783 0.557 92 100 49
23.6402 83.4254 -2.7339 -0.235 -0.871 0.432 139 148 93
28.9019 80.2840 -3.6410 -0.740 -0.174 0.650 106 118 64
29.8124 78.1437 -3.6968 0.556 -0.766 0.324 66 78 33
29.9224 78.1430 -3.7199 0.103 -0.858 0.503 55 65 23
30.0649 78.2916 -3.7593 0.109 -0.919 0.380 56 64 25
30.1713 78.2730 -3.7805 -0.408 -0.900 0.152 54 62 25
32.6900 74.2011 -4.0520 -0.739 -0.508 -0.442 68 74 34
33.0491 73.6492 -4.0925 -0.447 -0.689 -0.571 68 75 34
33.7808 71.3773 -4.1024 -0.469 -0.624 -0.625 116 125 69
34.0147 71.1839 -4.1393 -0.701 -0.496 -0.512 106 115 62
-29.1825 95.7365 7.4427 -0.702 -0.706 -0.093 84 94 43
-10.8106 95.8152 3.5766 0.062 -0.536 0.842 51 62 32
-4.1973 95.5756 2.2024 0.081 -0.036 0.996 59 69 34
-4.0108 95.4035 2.1744 0.101 -0.039 0.994 74 84 49
0.0048 94.7807 1.3710 -0.559 -0.768 0.312 90 104 53
2.4012 89.3211 1.2229 0.571 -0.793 -0.212 81 92 51
2.5125 89.4454 1.1914 0.590 -0.776 -0.221 77 88 47
3.3429 92.6212 0.8101 -0.565 -0.795 0.221 76 87 46
6.5075 82.5657 0.7997 -0.755 -0.379 0.535 155 163 124
6.6068 82.7279 0.7683 -0.353 -0.610 0.709 112 121 77
6.9150 83.1591 0.6755 0.507 -0.748 0.429 94 104 54
7.2918 83.0693 0.6021 -0.559 -0.649 0.516 221 231 180
7.4288 82.9438 0.5815 -0.267 -0.801 0.535 97 104 59
7.5480 82.9630 0.5552 -0.067 -0.830 0.554 79 86 45
7.6818 82.8593 0.5338 -0.154 -0.836 0.526 67 73 45
7.8166 82.7432 0.5131 -0.343 -0.752 0.563 46 52 26
7.9317 82.7958 0.4854 -0.551 -0.624 0.554 57 64 34
8.0576 82.7536 0.4617 -0.379 -0.678 0.630 192 199 166
8.1853 82.6947 0.4387 0.575 -0.700 0.423 160 168 132
8.2980 82.7700 0.4101 0.575 -0.700 0.423 216 224 184
8.4121 82.8346 0.3820 0.610 -0.646 0.459 153 160 118
8.6195 83.1703 0.3165 0.874 -0.422 0.242 65 72 29
8.8446 83.3524 0.2574 -0.536 -0.586 0.608 99 107 59
22.3847 83.0650 -2.5695 0.309 -0.718 0.623 86 92 54
22.6349 83.1770 -2.6294 0.447 -0.838 0.312 151 161 102
22.7566 83.1957 -2.6562 -0.117 -0.839 0.531 135 145 84
22.8781 83.2112 -2.6827 -0.052 -0.844 0.534 82 91 36
22.9970 83.2011 -2.7071 -0.449 -0.704 0.550 146 154 104
23.1089 83.1236 -2.7255 -0.460 -0.702 0.544 198 206 155
23.3560 83.1950 -2.7821 0.169 -0.801 0.574 91 100 44
23.6161 83.3819 -2.8490 -0.065 -0.805 0.590 138 147 90
23.9927 83.5232 -2.9373 0.782 -0.581 -0.223 112 121 64
24.1449 83.7973 -2.9871 0.815 -0.549 -0.187 109 118 61
27.4343 85.5251 -3.7909 0.195 -0.945 -0.261 95 105 55
28.2398 81.7714 -3.7158 -0.184 -0.166 0.969 91 102 59
29.3681 77.1467 -3.6518 0.415 -0.087 0.906 116 128 77
29.9512 77.8326 -3.8190 0.434 -0.438 0.787 100 108 66
30.2250 78.0794 -3.8926 -0.848 -0.514 -0.126 77 85 46
30.2555 77.7204 -3.8757 -0.910 -0.413 0.031 76 84 43
32.8425 74.0489 -4.1803 -0.854 -0.506 -0.123 70 75 44
32.8979 73.8792 -4.1809 -0.880 -0.460 0.122 73 78 47
32.9644 73.7506 -4.1865 -0.880 -0.460 0.122 77 82 50
33.0622 73.7348 -4.2060 -0.447 -0.689 -0.571 72 78 42
33.1430 73.6592 -4.2181 -0.456 -0.685 -0.568 65 71 33
34.1722 70.7860 -4.2473 -0.942 -0.334 0.012 114 123 69
-36.2927 98.7703 8.5854 0.134 -0.624 0.770 77 98 42
-29.2348 95.7374 7.3054 -0.698 -0.713 -0.069 80 90 39
-8.8947 87.3346 3.5940 0.494 -0.536 0.685 60 69 44
-8.7911 87.4179 3.5667 0.454 -0.541 0.708 52 62 40
-8.6693 87.4469 3.5392 0.457 -0.537 0.709 54 63 43
-9.1986 96.1422 3.0689 0.255 -0.964 -0.078 39 49 22
-5.5642 95.6679 2.3371 -0.480 -0.539 0.692 50 59 28
-1.4980 80.4979 2.4972 -0.639 -0.718 0.276 60 72 36
-3.7552 93.6109 2.0946 0.081 -0.036 0.996 90 101 62
-2.3147 95.4005 1.6723 0.288 -0.739 -0.610 103 115 67
4.2754 86.5328 0.8807 -0.155 -0.462 0.873 79 90 48
5.6900 82.1729 0.8750 0.778 -0.618 -0.118 77 88 45
5.7910 82.3058 0.8449 0.778 -0.618 -0.118 75 86 43
6.4889 82.4960 0.6856 -0.781 -0.403 0.477 139 150 110
6.5956 82.6019 0.6561 -0.320 -0.794 0.517 100 111 67
6.8999 83.0586 0.5616 0.484 -0.750 0.451 101 111 61
7.1292 83.1725 0.5058 -0.616 -0.620 0.486 186 196 144
7.2743 82.9857 0.4878 -0.556 -0.643 0.527 223 232 181
7.4115 82.8590 0.4675 -0.559 -0.649 0.516 96 105 58
7.5331 82.8572 0.4421 -0.103 -0.820 0.563 78 86 43
7.6640 82.7767 0.4199 -0.177 -0.831 0.527 67 73 45
7.7979 82.6685 0.3990 -0.357 -0.811 0.463 46 52 25
7.9148 82.7045 0.3721 -0.546 -0.635 0.547 58 65 35
8.1680 82.6056 0.3255 0.401 -0.746 0.532 160 167 131
8.2799 82.6866 0.2966 0.575 -0.700 0.423 218 226 186
8.3962 82.7301 0.2692 0.561 -0.677 0.477 142 149 107
8.6027 83.0706 0.2031 0.874 -0.422 0.242 65 72 30
8.7364 82.9538 0.1828 -0.926 -0.293 0.240 93 100 56
22.3569 82.9781 -2.6804 0.316 -0.721 0.616 86 92 54
22.6083 83.1049 -2.7417 0.443 -0.840 0.313 151 160 102
22.7304 83.1280 -2.7689 -0.117 -0.839 0.531 135 145 84
22.8499 83.1249 -2.7938 -0.091 -0.849 0.520 82 91 36
23.0824 83.0540 -2.8379 -0.460 -0.702 0.544 197 205 154
23.3282 83.1153 -2.8936 0.169 -0.807 0.566 92 101 45
23.4515 83.1477 -2.9217 0.148 -0.829 0.539 128 138 78
23.5861 83.2834 -2.9591 -0.050 -0.781 0.622 137 146 89
23.8385 83.3934 -3.0194 0.826 -0.552 -0.118 115 124 67
23.9764 83.5479 -3.0587 0.782 -0.581 -0.223 112 121 64
30.1286 78.2070 -3.9941 -0.343 -0.877 0.336 101 110 68
30.1935 78.0002 -3.9940 -0.564 -0.408 0.718 103 111 69
30.5330 78.0417 -4.0680 -0.527 -0.747 -0.406 100 109 63
30.6746 77.6977 -4.0748 0.726 -0.609 -0.318 86 94 57
30.6182 76.9768 -4.0147 0.722 -0.662 -0.201 74 81 48
30.6941 76.8375 -4.0214 0.664 -0.676 -0.320 67 74 41
31.2046 77.1670 -4.1506 -0.732 -0.552 -0.400 61 68 35
32.2939 75.1344 -4.2436 -0.727 -0.591 -0.348 54 58 32
32.3978 75.1305 -4.2651 -0.714 -0.590 -0.376 52 56 30
33.9720 71.4255 -4.3481 -0.458 -0.681 -0.571 99 108 52
34.0483 71.3549 -4.3594 -0.782 -0.583 -0.220 111 120 64
34.1032 71.2168 -4.3617 -0.797 -0.566 -0.211 117 126 71
34.1486 71.0501 -4.3601 -0.944 -0.287 0.165 116 125 70
34.1837 70.8526 -4.3543 -0.944 -0.291 0.159 111 120 66
-35.9025 99.0555 8.3297 -0.597 -0.614 0.516 14 25 3
-32.9104 98.1638 7.7625 -0.094 -0.800 -0.593 72 83 41
-32.9553 98.5100 7.7482 -0.144 -0.778 -0.611 68 79 36
-25.7368 95.1738 6.4611 0.105 -0.241 0.965 74 82 31
-9.7063 87.2917 3.6352 -0.538 -0.722 0.435 241 249 203
-9.0365 87.2529 3.4972 0.036 -0.508 0.861 79 85 57
-8.8875 87.1997 3.4695 0.032 -0.514 0.857 55 64 37
-8.6864 87.7829 3.3873 0.063 -0.287 0.956 41 51 27
-9.2401 96.1436 2.9298 0.825 -0.490 -0.282 42 53 29
-3.6639 80.8990 2.8048 0.302 -0.677 0.671 37 51 23
-2.2655 90.7165 1.8374 0.118 -0.035 0.992 97 109 65
-2.4903 95.3744 1.5649 0.400 -0.662 -0.634 100 112 64
-2.2291 95.4993 1.5015 0.276 -0.736 -0.618 109 121 73
-2.1167 95.6464 1.4678 0.288 -0.739 -0.610 103 115 67
-1.9887 95.7240 1.4356 0.257 -0.767 -0.587 101 112 66
3.6062 92.2875 0.4964 0.277 -0.318 0.907 83 94 52
5.6659 82.1435 0.7599 0.659 -0.750 -0.064 79 90 47
5.7711 82.2479 0.7307 0.716 -0.635 -0.289 75 86 43
6.4774 82.3748 0.5736 -0.817 -0.400 0.415 129 140 100
6.5867 82.4598 0.5448 -0.341 -0.795 0.501 90 102 58
7.1105 83.0990 0.3909 -0.608 -0.615 0.503 186 196 144
7.2548 82.9193 0.3730 -0.600 -0.601 0.528 223 233 183
7.3929 82.7841 0.3532 -0.559 -0.649 0.516 96 105 58
7.5146 82.7810 0.3279 -0.103 -0.820 0.563 78 86 43
7.6446 82.7085 0.3056 -0.177 -0.831 0.527 67 73 45
7.7770 82.6123 0.2844 -0.357 -0.811 0.463 46 52 25
7.8929 82.6568 0.2570 -0.538 -0.636 0.553 58 64 35
8.1487 82.5348 0.2116 0.274 -0.776 0.569 162 169 133
8.2590 82.6300 0.1819 0.548 -0.740 0.390 219 227 187
8.3759 82.6677 0.1548 0.555 -0.681 0.478 131 138 96
8.5861 82.9711 0.0898 0.874 -0.422 0.242 65 72 30
8.7110 82.9382 0.0659 -0.926 -0.293 0.240 92 99 55
20.9179 83.2414 -2.5187 0.227 -0.723 0.653 68 76 36
22.3309 82.9111 -2.7928 0.382 -0.781 0.494 86 93 55
22.5811 83.0270 -2.8533 0.448 -0.842 0.301 151 160 102
22.7046 83.0651 -2.8819 -0.121 -0.853 0.508 135 145 84
22.8218 83.0381 -2.9046 -0.129 -0.855 0.502 81 90 35
23.5574 83.1969 -3.0700 -0.050 -0.781 0.622 138 147 90
33.4699 71.7522 -4.3665 -0.911 -0.412 0.006 71 78 34
34.1758 70.8582 -4.4534 -0.944 -0.290 0.159 88 97 46
41.4706 85.4663 -6.9880 0.675 -0.726 0.135 128 139 103
-34.4081 97.7520 7.9529 -0.701 -0.595 0.393 76 82 47
-29.2767 95.8963 7.0061 -0.343 -0.882 0.322 87 97 45
-23.3886 93.5774 5.9331 0.136 -0.698 0.703 81 88 46
-22.6004 94.0401 5.7350 0.273 -0.862 0.426 67 71 53
-10.3788 87.5978 3.6225 0.185 -0.849 0.495 85 97 51
-9.8901 87.3317 3.5386 -0.528 -0.725 0.442 182 190 143
-9.0056 87.0483 3.3728 -0.069 -0.519 0.852 141 147 118
-8.8527 86.9828 3.3453 -0.069 -0.519 0.852 97 106 78
-8.5937 87.3871 3.2625 0.063 -0.287 0.956 41 54 27
-4.1231 94.8064 1.8016 -0.567 -0.378 0.732 90 102 55
-3.8760 94.3819 1.7796 -0.566 -0.379 0.732 94 106 59
5.6540 82.0326 0.6480 0.684 -0.723 -0.101 82 93 50
6.4602 82.2949 0.4602 -0.815 -0.404 0.415 126 136 97
6.5699 82.3762 0.4315 -0.372 -0.775 0.510 85 96 52
7.0885 83.0521 0.2750 -0.622 -0.598 0.506 198 208 156
7.2319 82.8796 0.2571 -0.618 -0.595 0.514 218 228 178
7.3715 82.7326 0.2381 -0.611 -0.599 0.517 88 97 50
7.4942 82.7216 0.2131 -0.103 -0.822 0.560 80 88 47
7.6214 82.6723 0.1899 -0.060 -0.854 0.517 64 71 42
7.7589 82.5330 0.1708 -0.363 -0.797 0.482 46 52 25
7.8752 82.5731 0.1436 -0.538 -0.636 0.553 63 70 40
8.2411 82.5456 0.0687 0.518 -0.713 0.473 222 230 190
8.3583 82.5797 0.0417 0.546 -0.690 0.475 123 130 88
8.5750 82.8181 -0.0206 0.877 -0.422 0.232 66 73 31
20.8944 83.2021 -2.6342 0.095 -0.802 0.589 77 85 44
22.5588 82.9995 -2.9694 0.346 -0.825 0.447 146 155 97
22.7956 82.9716 -3.0172 -0.121 -0.853 0.508 80 89 34
23.3983 83.0115 -3.1465 0.085 -0.907 0.412 127 137 77
23.9437 83.5975 -3.3023 0.782 -0.581 -0.223 109 118 61
31.2765 77.5803 -4.4183 -0.830 -0.554 -0.065 90 99 56
32.0919 75.2570 -4.4260 -0.288 -0.796 -0.532 70 74 45
32.1861 75.2152 -4.4428 -0.393 -0.763 -0.514 68 72 44
32.2689 75.1305 -4.4542 -0.439 -0.784 -0.439 69 73 45
32.3609 75.0818 -4.4701 -0.435 -0.787 -0.438 67 71 41
32.4393 74.9828 -4.4796 -0.679 -0.714 0.171 63 68 37
32.5090 74.8526 -4.4851 -0.701 -0.694 0.166 61 67 35
33.6775 71.8182 -4.5168 -0.768 -0.517 -0.379 64 71 32
33.9327 71.6819 -4.5608 -0.440 -0.669 -0.599 64 70 31
34.0292 71.6746 -4.5806 -0.438 -0.665 -0.604 66 73 33
-35.8446 98.7719 8.0282 -0.549 -0.610 0.572 12 21 7
-33.5052 98.4720 7.5588 -0.288 -0.831 -0.475 78 90 42
-29.0520 95.1200 6.8660 0.715 -0.638 0.287 69 79 30
-29.4239 96.0706 6.8755 0.057 -0.994 -0.093 89 99 47
-29.3283 96.1691 6.8483 -0.366 -0.911 -0.189 90 100 47
-26.0271 94.6852 6.2625 -0.103 -0.494 0.864 73 83 31
-23.1946 93.9713 5.7195 -0.157 -0.920 0.360 43 50 19
-22.8951 93.9509 5.6581 0.224 -0.854 0.469 13 15 14
-22.7647 93.9809 5.6285 0.223 -0.860 0.459 7 9 6
-22.6138 93.9681 5.5978 0.273 -0.862 0.426 66 71 52
-10.3910 87.5222 3.4974 0.185 -0.849 0.495 80 92 46
-8.9735 86.8409 3.2491 -0.069 -0.519 0.852 170 177 146
-8.8210 86.7757 3.2217 -0.069 -0.519 0.852 168 177 146
-8.4456 86.8243 3.1394 0.699 -0.361 0.617 44 56 26
-4.8475 94.6784 1.8175 -0.877 -0.429 0.217 90 103 58
-3.0764 96.9955 1.2786 -0.239 -0.426 0.873 100 112 64
5.6305 82.0004 0.5330 0.688 -0.718 -0.106 84 95 52
6.7797 82.4060 0.2625 0.552 -0.635 0.540 100 110 60
7.0696 82.9802 0.1603 -0.621 -0.601 0.503 202 212 162
7.2141 82.7995 0.1430 -0.618 -0.595 0.514 216 226 176
7.3537 82.6528 0.1243 -0.611 -0.599 0.517 84 93 46
7.4739 82.6613 0.0984 -0.090 -0.811 0.579 81 89 48
7.6019 82.6045 0.0757 -0.060 -0.854 0.517 61 68 39
7.7356 82.4983 0.0553 -0.275 -0.779 0.563 47 53 26
7.8504 82.5506 0.0274 -0.547 -0.643 0.535 67 74 44
8.2270 82.4283 -0.0428 0.348 -0.768 0.537 224 232 192
8.3414 82.4864 -0.0710 0.543 -0.689 0.480 119 126 84
20.8674 83.1128 -2.7453 -0.006 -0.854 0.521 80 88 48
22.2761 82.7452 -3.0145 0.404 -0.774 0.487 83 89 51
22.7691 82.9012 -3.1292 -0.183 -0.801 0.569 77 86 31
23.3744 82.9680 -3.2611 0.166 -0.936 0.310 125 134 77
23.9287 83.6343 -3.4255 0.829 -0.553 -0.080 108 117 60
28.2609 87.2116 -4.5929 0.791 -0.578 0.201 95 104 59
31.3617 77.5355 -4.5456 -0.835 -0.548 -0.055 93 102 56
31.4657 77.0639 -4.5334 -0.788 -0.595 -0.158 94 102 55
32.4467 75.0551 -4.5944 -0.366 -0.750 -0.550 83 90 50
32.4675 74.7419 -4.5761 -0.812 -0.564 -0.148 81 88 48
32.5491 74.2749 -4.5596 -0.535 -0.727 -0.430 80 87 45
32.6386 74.2238 -4.5747 -0.591 -0.711 -0.381 74 81 39
-33.8090 96.8143 7.5912 -0.684 -0.598 0.418 85 94 43
-33.4614 98.3013 7.4083 -0.549 -0.584 0.598 78 90 42
-29.4989 96.1123 6.7387 0.097 -0.991 -0.090 86 96 44
-29.4147 96.2321 6.7122 -0.366 -0.911 -0.189 87 97 44
-23.3900 93.9763 5.6148 -0.017 -0.922 0.388 66 73 32
-23.0663 93.9063 5.5520 0.003 -0.832 0.554 10 14 2
-22.6343 93.9110 5.4610 0.224 -0.854 0.469 73 78 56
-9.0539 86.5812 3.1533 0.252 -0.812 0.527 65 72 39
-8.9453 86.6453 3.1258 -0.522 -0.652 0.550 192 199 166
-8.4261 86.6518 3.0164 0.699 -0.361 0.617 57 68 34
-8.3369 86.7767 2.9884 0.699 -0.361 0.617 25 35 9
-8.2534 86.9202 2.9603 0.606 -0.404 0.685 33 43 21
-8.7196 96.4485 2.3538 0.152 -0.892 0.425 69 80 48
-6.2219 94.3046 1.9882 -0.410 -0.613 0.675 59 84 42
6.7660 82.2987 0.1505 0.552 -0.635 0.540 99 108 61
6.8302 82.7319 0.1050 0.613 -0.634 0.471 110 119 72
7.0507 82.9092 0.0456 -0.653 -0.593 0.470 202 212 162
7.1963 82.7191 0.0291 -0.627 -0.598 0.500 218 225 177
7.3360 82.5712 0.0107 -0.622 -0.598 0.506 86 94 47
7.4578 82.5659 -0.0145 -0.103 -0.823 0.559 81 87 47
7.5825 82.5367 -0.0385 -0.060 -0.854 0.517 58 65 36
7.7171 82.4227 -0.0583 -0.275 -0.779 0.563 46 52 25
8.3243 82.3946 -0.1836 0.543 -0.689 0.480 115 122 80
8.7321 83.1262 -0.3232 -0.579 -0.728 0.367 100 108 60
9.0228 82.6541 -0.3493 0.169 -0.984 0.059 103 112 58
22.2487 82.6613 -3.1250 0.404 -0.774 0.487 83 90 51
22.7409 82.8133 -3.2395 -0.189 -0.798 0.572 72 81 27
23.3452 82.8756 -3.3709 0.126 -0.961 0.246 123 132 75
32.3781 75.2374 -4.7017 -0.415 -0.753 -0.510 80 87 42
32.4668 75.1752 -4.7157 -0.374 -0.770 -0.517 77 84 39
32.7542 74.3099 -4.7120 -0.701 -0.588 -0.405 82 90 42
-33.8102 96.7241 7.4471 -0.685 -0.606 0.405 86 94 45
-29.5174 94.4450 6.7191 -0.118 -0.993 0.015 73 85 39
-23.5659 93.9409 5.5089 0.233 -0.882 0.410 78 86 38
-23.4104 93.9191 5.4779 -0.017 -0.922 0.388 68 75 32
-23.2420 93.8708 5.4462 -0.019 -0.924 0.381 41 47 17
-9.0743 86.5298 3.0300 0.174 -0.913 0.370 77 83 48
-8.4277 86.5432 2.8934 0.648 -0.401 0.648 120 128 88
-8.3568 86.7231 2.8649 0.634 -0.384 0.672 83 92 58
-8.2372 86.7562 2.8373 0.609 -0.398 0.686 52 65 38
-8.5985 96.3985 2.1833 -0.172 -0.962 0.213 65 80 43
-8.4644 96.4432 2.1518 -0.239 -0.937 0.254 63 81 43
-3.1191 96.2049 1.0486 0.097 -0.957 0.273 97 109 59
-2.8895 95.8384 1.0282 0.095 -0.915 0.392 101 113 65
6.7493 82.2143 0.0375 0.516 -0.776 0.363 100 109 62
6.8151 82.6333 -0.0080 0.613 -0.634 0.471 108 117 70
6.9032 82.8908 -0.0460 -0.542 -0.671 0.506 129 137 88
7.0320 82.8368 -0.0689 -0.651 -0.600 0.464 202 210 161
7.1761 82.6586 -0.0856 -0.655 -0.601 0.458 219 227 178
7.3183 82.4907 -0.1028 -0.655 -0.601 0.458 87 94 48
7.4392 82.4924 -0.1282 -0.060 -0.854 0.517 81 87 47
7.5639 82.4624 -0.1521 -0.032 -0.869 0.493 54 61 32
7.7011 82.3259 -0.1706 -0.283 -0.783 0.554 44 50 23
8.7344 82.8402 -0.4262 -0.506 -0.526 0.683 101 109 60
8.8722 82.6792 -0.4430 -0.135 -0.418 0.898 99 107 55
8.9884 82.7300 -0.4712 0.361 -0.868 0.342 103 112 58
22.2212 82.5775 -3.2353 0.382 -0.781 0.494 83 90 51
22.7113 82.7103 -3.3482 -0.188 -0.858 0.478 71 79 27
28.2277 87.2309 -4.8474 0.187 -0.934 -0.305 95 105 56
32.5363 75.0867 -4.8321 -0.605 -0.623 -0.496 83 93 43
32.7219 74.6134 -4.8352 -0.763 -0.568 -0.308 81 91 41
-33.7377 96.5102 7.2972 -0.682 -0.587 0.436 86 93 46
-29.9015 94.7757 6.6271 -0.170 -0.984 0.055 69 80 37
-29.7229 94.7199 6.5940 0.765 -0.640 0.065 73 85 39
-29.4607 96.3996 6.4089 0.045 -0.983 0.178 80 90 37
-29.0457 95.9118 6.3597 0.165 -0.986 -0.035 80 90 37
-26.5610 93.7431 6.0067 -0.011 -0.856 -0.517 90 98 49
-26.4398 93.7886 5.9777 -0.009 -0.861 -0.509 85 93 44
-26.3903 94.2505 5.9316 0.296 -0.834 -0.465 79 87 38
-26.3323 94.4199 5.9063 0.631 -0.713 -0.306 75 83 34
-26.2762 94.5941 5.8810 0.676 -0.676 -0.293 72 82 32
-23.4819 93.6704 5.3666 0.028 -0.818 0.574 79 87 35
-23.3898 93.7780 5.3390 0.002 -0.843 0.538 67 75 30
-23.2119 93.7099 5.3070 0.391 -0.689 0.610 41 48 17
-8.4300 86.4372 2.7706 0.634 -0.384 0.672 146 150 109
-8.3353 86.5443 2.7424 0.634 -0.384 0.672 158 165 126
-8.3146 87.2781 2.6813 0.470 -0.367 0.803 134 157 129
-8.1742 87.6573 2.6225 0.463 -0.336 0.820 60 97 85
-5.4381 94.2983 1.5344 -0.154 -0.903 -0.400 81 96 53
6.7271 82.1714 -0.0773 0.497 -0.796 0.346 102 110 63
6.7927 82.5904 -0.1235 0.606 -0.637 0.477 116 124 77
6.8839 82.8237 -0.1607 -0.542 -0.669 0.509 126 134 87
7.0172 82.7335 -0.1817 -0.607 -0.620 0.497 208 216 167
7.1598 82.5671 -0.1987 -0.627 -0.598 0.500 219 225 178
7.3013 82.4045 -0.2158 -0.627 -0.598 0.500 80 88 43
7.4211 82.4146 -0.2417 -0.057 -0.849 0.525 76 82 42
7.5443 82.3964 -0.2661 -0.045 -0.874 0.483 51 58 29
7.6824 82.2524 -0.2839 -0.283 -0.783 0.554 45 51 24
8.0750 81.9849 -0.3455 -0.873 -0.344 0.346 152 160 123
21.4877 82.6114 -3.2066 0.507 -0.765 0.396 140 151 92
22.1939 82.4943 -3.3456 0.382 -0.781 0.494 80 88 46
22.6861 82.6529 -3.4611 -0.188 -0.858 0.478 73 83 31
23.4254 82.8667 -3.6326 -0.103 -0.877 0.470 123 132 75
27.4459 79.2192 -4.1932 0.793 -0.175 0.584 92 102 49
31.5721 69.0545 -4.2712 0.938 -0.346 -0.017 82 91 44
37.3955 74.0522 -5.8794 0.066 -0.950 0.306 223 228 197
-35.5098 98.1005 7.3918 -0.150 -0.647 0.747 7 12 6
-26.6243 93.7685 5.8723 -0.040 -0.876 -0.480 87 95 46
-26.5943 93.9878 5.8487 -0.188 -0.805 -0.562 80 88 39
-26.5274 94.1380 5.8227 0.137 -0.841 -0.524 77 85 36
-26.4431 94.2561 5.7957 0.290 -0.830 -0.477 76 84 35
-23.6238 93.5666 5.2593 0.151 -0.666 0.731 85 95 34
-23.5139 93.6373 5.2307 -0.315 -0.632 0.708 79 89 29
-23.1585 93.5010 5.1670 0.127 -0.661 0.740 42 50 14
-8.2429 87.3460 2.5279 0.477 -0.342 0.810 80 114 94
-8.1371 87.4259 2.4994 0.477 -0.342 0.810 60 103 91
-9.4847 99.1217 1.8554 0.482 -0.800 -0.357 67 81 39
-2.9303 96.9810 0.6510 -0.628 -0.741 0.237 87 98 58
-2.5473 96.5845 0.6021 -0.621 -0.727 0.294 75 85 48
5.3853 82.8701 0.0257 -0.597 -0.447 0.667 84 95 52
6.4718 82.0676 -0.1384 -0.432 -0.789 0.436 87 96 54
6.7074 82.1097 -0.1912 0.497 -0.796 0.346 103 111 64
6.7682 82.5636 -0.2399 0.306 -0.690 0.656 117 125 78
7.2838 82.3226 -0.3289 -0.569 -0.572 0.591 74 81 38
7.4020 82.3456 -0.3555 -0.057 -0.849 0.525 76 82 43
7.5243 82.3344 -0.3802 -0.045 -0.874 0.483 53 59 30
7.6659 82.1610 -0.3962 -0.279 -0.790 0.546 46 53 24
8.0582 81.8938 -0.4572 -0.876 -0.341 0.340 155 161 124
8.5700 82.7318 -0.6309 -0.833 -0.256 0.490 95 101 51
8.8423 82.4448 -0.6652 -0.120 -0.451 0.884 98 105 54
8.9499 82.5768 -0.6983 0.296 -0.891 0.345 102 109 58
20.9754 82.4237 -3.2070 -0.605 -0.647 0.464 68 78 43
22.1666 82.4113 -3.4557 0.382 -0.781 0.494 80 89 43
22.6563 82.5484 -3.5692 -0.243 -0.837 0.491 74 84 32
23.2833 82.8385 -3.7236 -0.072 -0.889 0.451 120 129 74
23.4209 83.0050 -3.7656 0.305 -0.825 0.476 124 133 78
27.3394 80.0119 -4.3499 0.866 -0.419 -0.271 102 110 59
27.2998 78.4713 -4.2196 0.793 -0.175 0.584 101 110 57
27.4476 78.6770 -4.2669 0.778 -0.153 0.609 99 108 55
29.5337 81.2803 -4.9104 0.858 -0.361 0.365 120 131 75
40.3298 84.8119 -7.4533 -0.595 -0.756 0.274 111 119 79
-30.0258 95.6065 6.2905 0.239 -0.280 0.930 84 96 50
-27.9863 94.8579 5.9237 -0.638 -0.602 0.481 83 93 40
-26.5431 93.5201 5.7296 -0.046 -0.831 -0.554 84 92 43
-26.5490 93.8066 5.7077 -0.277 -0.789 -0.548 77 85 36
-26.4172 93.8326 5.6780 -0.275 -0.790 -0.548 73 81 32
-23.5937 93.1152 5.1444 0.172 -0.734 0.657 77 87 26
-23.2775 93.3509 5.0590 -0.312 -0.625 0.716 65 74 24
-23.1373 93.3591 5.0290 0.120 -0.666 0.736 31 38 6
-9.6646 86.7745 2.7390 -0.353 -0.792 0.499 63 72 25
-8.2558 86.8681 2.4362 0.469 -0.372 0.801 154 178 147
-8.2146 87.1433 2.4053 0.464 -0.342 0.817 76 111 90
-10.9780 97.4568 2.1490 -0.613 -0.513 -0.601 67 110 103
-2.5702 96.5176 0.4632 -0.658 -0.734 0.168 82 92 55
-2.2146 96.2340 0.4117 -0.650 -0.742 0.166 75 87 49
5.3803 82.7119 -0.0847 -0.597 -0.447 0.667 87 98 55
6.4505 82.0185 -0.2528 -0.397 -0.814 0.424 86 94 52
6.5303 82.3190 -0.2939 -0.068 -0.932 0.355 101 108 62
6.6877 82.0479 -0.3049 0.497 -0.796 0.346 103 111 64
7.3828 82.2767 -0.4691 -0.057 -0.849 0.525 76 83 43
7.5073 82.2474 -0.4928 -0.035 -0.876 0.482 53 59 29
8.0381 81.8324 -0.5705 -0.876 -0.341 0.340 149 157 119
8.5580 82.5892 -0.7407 -0.838 -0.259 0.480 94 101 50
20.0324 82.9839 -3.1772 0.892 -0.451 0.021 124 136 71
20.1976 83.7222 -3.2716 0.337 -0.884 0.324 115 130 66
20.9502 82.3582 -3.3188 -0.574 -0.670 0.470 65 75 40
21.0610 82.2448 -3.3329 -0.569 -0.670 0.476 193 203 164
22.1387 82.3205 -3.5648 0.419 -0.790 0.447 80 90 42
22.6311 82.4897 -3.6817 -0.243 -0.837 0.491 75 85 36
23.2706 82.9013 -3.8491 0.305 -0.825 0.476 120 129 72
23.3981 82.9722 -3.8815 0.359 -0.852 0.382 123 132 77
23.8418 83.7189 -4.0350 0.910 -0.411 -0.051 111 120 64
29.9350 81.0471 -5.0955 -0.787 -0.617 -0.001 100 111 55
40.2150 84.8631 -7.5588 -0.493 -0.749 0.443 233 245 208
40.9015 85.0973 -7.7216 0.564 -0.768 0.304 167 173 136
41.0441 85.1579 -7.7564 0.032 -0.899 0.436 242 246 221
41.1491 85.1110 -7.7746 0.083 -0.918 0.388 216 219 189
41.2706 85.1112 -7.8001 0.083 -0.918 0.388 225 229 192
41.4594 85.3019 -7.8551 0.221 -0.864 0.453 209 216 175
41.7390 85.0638 -7.8944 -0.253 -0.851 0.461 108 116 70
41.7880 84.8635 -7.8884 -0.762 -0.496 0.416 136 144 94
-35.1766 97.6179 7.0536 -0.093 -0.698 0.710 13 16 9
-33.9615 96.6095 6.8825 -0.540 -0.603 0.587 86 95 46
-29.9390 95.0910 6.1656 0.263 -0.298 0.918 80 92 46
-29.8383 95.1761 6.1374 0.279 -0.283 0.918 84 96 50
-29.6688 95.1378 6.1051 0.276 -0.287 0.917 81 93 47
-29.5408 95.1743 6.0752 0.093 -0.606 -0.790 77 89 43
-29.0085 95.8312 5.9094 -0.033 -0.551 0.834 77 87 34
-28.0699 94.9184 5.7883 -0.407 -0.490 0.771 80 90 37
-27.1027 94.2078 5.6445 -0.594 -0.477 0.648 84 92 43
-26.5716 93.4797 5.5935 0.157 -0.729 0.666 84 92 43
-26.5894 93.7884 5.5717 -0.058 -0.935 -0.351 77 85 36
-26.6508 94.1824 5.5519 0.032 -0.855 -0.518 73 81 32
-26.5088 94.1902 5.5215 0.024 -0.857 -0.515 73 81 32
-23.4626 93.3364 4.9540 -0.276 -0.616 0.737 86 95 39
-23.2269 93.1494 4.9202 -0.267 -0.615 0.742 64 71 25
-23.1329 93.2517 4.8920 0.079 -0.587 0.806 28 34 6
-22.9849 93.2435 4.8617 0.110 -0.590 0.800 16 19 10
-9.6770 86.7000 2.6154 -0.317 -0.794 0.519 59 69 21
-10.7718 98.5771 1.8617 0.297 -0.086 0.951 71 114 105
-9.4852 96.3483 1.7767 -0.377 -0.642 0.667 74 103 71
-9.4103 96.5877 1.7411 -0.599 -0.445 0.665 75 102 68
-9.1143 96.0971 1.7197 0.435 -0.856 0.281 73 96 59
-8.9840 96.1530 1.6878 -0.068 -0.900 0.430 71 91 50
-8.8321 96.1373 1.6573 -0.067 -0.894 0.442 70 86 43
-3.3069 97.0018 0.4283 0.342 -0.910 0.232 94 108 61
-2.6672 96.7843 0.3123 -0.592 -0.731 0.339 87 97 60
5.3797 82.5258 -0.1934 -0.593 -0.448 0.668 89 100 57
6.5080 82.2768 -0.4091 -0.068 -0.932 0.355 101 108 63
6.7445 82.3191 -0.4622 0.296 -0.695 0.655 117 124 80
7.2443 82.1962 -0.5567 -0.024 -0.708 0.706 62 69 25
7.4895 82.1671 -0.6057 0.340 -0.722 0.602 54 61 30
8.0196 81.7580 -0.6828 -0.875 -0.343 0.341 146 154 116
8.5375 82.5270 -0.8550 -0.884 -0.298 0.362 95 102 51
20.1732 83.6716 -3.3873 0.333 -0.898 0.287 115 130 65
20.9256 82.3003 -3.4314 -0.574 -0.670 0.470 64 74 39
21.0363 82.1860 -3.4451 -0.569 -0.670 0.476 190 200 161
22.1217 82.3521 -3.6862 0.644 -0.676 0.357 79 89 41
22.2581 82.5409 -3.7304 0.692 -0.712 0.123 113 124 69
22.6015 82.3862 -3.7896 -0.141 -0.844 0.517 73 83 36
23.0668 82.2781 -3.8781 0.047 -0.811 0.583 106 115 61
23.2418 82.8116 -3.9589 0.322 -0.812 0.487 120 129 72
23.3709 82.8986 -3.9932 0.344 -0.854 0.390 123 132 75
23.4988 82.9719 -4.0260 -0.278 -0.859 0.430 111 120 65
23.7533 83.1016 -4.0901 0.546 -0.815 -0.195 111 120 63
40.0840 84.8671 -7.6573 -0.458 -0.745 0.485 130 146 110
40.8661 85.0266 -7.8343 0.564 -0.768 0.304 163 170 129
41.0134 85.1010 -7.8714 0.032 -0.899 0.436 247 251 222
41.2449 85.0688 -7.9172 0.124 -0.904 0.408 221 225 186
41.4245 85.2335 -7.9685 0.221 -0.864 0.453 207 214 172
-30.3662 97.1162 5.9352 0.150 -0.568 -0.810 76 85 39
-30.2521 97.1849 5.9055 0.127 -0.583 -0.802 77 87 34
-27.5594 94.1467 5.5984 -0.392 -0.501 0.771 77 87 35
-26.4331 93.3974 5.4259 0.465 -0.630 0.622 78 86 37
-26.6337 94.0544 5.4123 0.714 -0.688 -0.130 73 81 32
-24.2624 93.3960 4.9714 -0.620 -0.725 0.301 83 91 46
-23.6420 93.0185 4.8734 0.318 -0.629 0.709 79 87 41
-23.5724 93.1689 4.8461 -0.121 -0.602 0.789 77 84 36
-23.1842 92.9642 4.7821 -0.267 -0.615 0.742 53 60 18
-23.0997 93.0854 4.7542 0.107 -0.598 0.794 24 30 3
-22.9499 93.0732 4.7238 0.112 -0.595 0.796 14 17 6
-9.8000 96.2770 1.6991 -0.343 -0.456 0.821 80 116 93
-9.1334 96.0239 1.5809 0.409 -0.869 0.279 73 97 60
-9.0056 96.0882 1.5487 -0.068 -0.900 0.430 72 92 51
-8.8729 96.1364 1.5168 -0.097 -0.893 0.439 71 87 44
-2.8011 97.2154 0.1540 -0.135 -0.591 0.795 89 100 60
0.8185 94.4673 -0.3716 -0.226 -0.801 0.555 88 100 60
5.3560 82.4922 -0.3095 -0.596 -0.469 0.652 88 99 56
5.5076 82.2938 -0.3245 0.097 -0.896 0.434 90 98 56
6.4856 82.2346 -0.5243 -0.068 -0.932 0.355 97 105 59
6.7361 82.1719 -0.5714 0.304 -0.655 0.692 113 120 76
7.2305 82.0860 -0.6677 -0.024 -0.708 0.706 60 67 23
7.4716 82.0888 -0.7184 0.348 -0.715 0.606 60 66 36
8.5192 82.4440 -0.9679 -0.884 -0.298 0.362 92 99 48
20.1493 83.6271 -3.5035 0.324 -0.896 0.303 115 130 65
23.0403 82.2074 -3.9889 0.035 -0.806 0.590 105 114 60
23.3397 82.7874 -4.1006 0.292 -0.833 0.469 126 135 80
23.4728 82.9107 -4.1389 -0.183 -0.798 0.575 112 121 66
23.5842 82.8322 -4.1556 0.411 -0.825 -0.388 110 119 64
23.7321 83.0835 -4.2078 0.541 -0.818 -0.194 107 116 59
40.2481 84.6697 -7.8008 -0.489 -0.750 0.447 108 118 69
40.8761 85.0869 -7.9675 0.189 -0.778 0.600 158 166 121
40.9902 85.0654 -7.9896 0.196 -0.799 0.569 247 253 217
41.2162 85.0176 -8.0329 0.130 -0.877 0.462 216 222 179
-33.8071 96.1678 6.5850 -0.640 -0.627 0.444 84 94 44
-30.1966 96.1678 5.8291 0.087 -0.611 -0.787 73 84 41
-30.4399 97.1533 5.7950 0.230 -0.576 -0.785 74 83 38
-27.9269 94.4631 5.5011 -0.717 -0.618 -0.322 71 81 31
-27.5259 93.9899 5.4580 -0.617 -0.673 -0.408 72 82 32
-29.1725 98.7831 5.3890 0.169 -0.668 0.725 72 82 30
-25.1022 93.8144 4.9657 -0.518 -0.855 0.016 83 92 48
-24.9632 93.8271 4.9355 -0.514 -0.853 0.093 87 95 53
-24.2822 93.3385 4.8351 -0.619 -0.728 0.294 82 88 54
-23.9748 93.0123 4.7989 -0.597 -0.755 0.271 83 89 56
-23.7892 92.9283 4.7673 0.272 -0.664 0.696 81 86 55
-23.5647 93.0556 4.7093 -0.288 -0.619 0.731 64 69 39
-23.3537 92.9193 4.6769 -0.288 -0.619 0.731 60 65 33
-23.2050 92.9089 4.6467 0.301 -0.560 0.772 37 42 14
-23.0920 92.9717 4.6176 0.002 -0.736 0.677 22 27 8
-10.7281 98.6484 1.5392 0.341 -0.815 -0.469 80 122 103
-9.7838 96.0902 1.5623 -0.377 -0.380 0.845 80 116 92
-8.8583 95.9504 1.3806 0.159 -0.550 0.820 71 87 44
-7.3805 99.7337 0.7446 -0.767 -0.470 -0.437 70 90 55
-3.0241 97.3781 0.0360 -0.775 -0.614 -0.148 85 93 54
-1.3620 96.5264 -0.2385 0.732 -0.676 0.088 66 80 44
-0.5055 100.5666 -0.7666 0.155 -0.481 0.863 83 95 55
0.6596 95.1318 -0.5413 -0.329 -0.386 0.862 84 96 56
5.4873 82.2378 -0.4391 0.112 -0.908 0.404 88 97 55
6.1185 82.0618 -0.5560 -0.376 -0.629 0.680 179 185 155
6.2582 81.9277 -0.5737 -0.378 -0.637 0.671 94 102 63
6.4632 82.1925 -0.6395 -0.068 -0.932 0.355 95 103 57
6.7190 82.0902 -0.6842 0.192 -0.599 0.777 112 119 75
7.2167 81.9759 -0.7785 -0.024 -0.708 0.706 59 66 22
