ply
format ascii 1.0
element vertex 885
property float x
property float y
property float z
property float nx
property float ny
property float nz
property uchar diffuse_red
property uchar diffuse_green
property uchar diffuse_blue
end_header
32.5977 72.3886 -22.1175 -0.278 -0.836 -0.473 27 30 13
32.6804 72.2867 -22.0877 -0.244 -0.833 -0.497 36 39 20
37.0071 70.8773 -22.6077 -0.142 -0.589 0.796 68 93 63
-13.8830 82.3426 -13.9129 0.355 -0.925 0.135 52 63 28
-13.7928 82.3727 -13.9554 0.367 -0.920 0.134 39 50 22
-10.9786 80.2216 -13.6332 -0.162 -0.724 0.670 31 40 22
-10.8722 80.2270 -13.6672 0.140 -0.570 0.810 31 40 21
-10.8671 80.3558 -13.7373 0.125 -0.544 0.830 37 47 21
-10.8206 80.4346 -13.7930 -0.108 -0.633 0.767 48 59 25
-11.0968 80.9092 -13.9650 -0.041 -0.738 0.674 59 72 31
-11.1298 81.0876 -14.0504 -0.094 -0.724 0.683 63 79 35
9.4267 70.8267 -14.6024 0.218 -0.965 -0.144 49 54 23
9.5332 70.7904 -14.6142 0.072 -0.968 -0.241 42 46 22
9.6507 70.7327 -14.6179 0.042 -0.925 -0.377 41 44 23
9.7275 70.7524 -14.6509 0.449 -0.827 -0.339 45 48 27
9.7031 70.9662 -14.7577 0.674 -0.728 -0.125 45 49 25
9.7969 70.9542 -14.7788 0.430 -0.885 -0.179 56 62 29
9.8623 70.9969 -14.8207 0.924 -0.353 0.145 78 84 43
9.8756 71.1408 -14.9013 0.937 -0.317 0.149 95 103 55
9.8499 71.3619 -15.0115 0.905 -0.354 0.236 101 109 58
9.9382 71.3618 -15.0374 -0.269 -0.939 -0.216 100 109 56
8.2561 75.2133 -16.5973 0.353 -0.653 0.671 95 104 51
11.9749 69.6979 -14.7471 -0.068 -0.873 -0.483 78 88 38
13.5673 72.3251 -16.6135 0.035 -0.933 -0.358 108 116 65
13.6114 72.4329 -16.6839 0.753 -0.532 -0.386 105 113 63
13.4639 73.2227 -17.0616 0.708 -0.260 -0.657 63 68 34
13.4338 73.5167 -17.2095 0.709 -0.260 -0.656 63 68 38
13.4527 73.6940 -17.3095 0.791 -0.218 -0.572 77 83 46
13.3178 74.2510 -17.5668 0.496 -0.456 -0.739 104 113 62
17.1063 70.1091 -16.4690 0.240 -0.733 -0.637 84 92 43
16.9658 70.9825 -16.8933 0.433 -0.604 -0.670 66 73 30
17.8093 74.6203 -19.0790 -0.846 -0.339 0.411 45 48 27
17.9765 74.3747 -18.9971 -0.832 -0.332 0.444 49 52 30
18.7715 72.3450 -18.1483 0.287 -0.950 0.125 60 64 31
18.9859 72.5090 -18.2984 0.617 -0.506 0.603 58 62 29
22.8227 76.1242 -21.3486 -0.224 -0.689 0.690 25 29 15
23.7628 76.0962 -21.6090 -0.211 -0.486 0.848 43 47 33
25.1175 71.7317 -19.6799 0.278 -0.857 0.433 26 33 18
25.7134 75.4423 -21.8318 0.574 -0.504 0.646 11 13 12
29.7552 68.6947 -19.4197 0.516 -0.852 0.086 20 25 19
32.5773 72.7593 -22.4122 0.975 -0.103 0.195 20 24 3
32.6655 73.0768 -22.6072 0.976 -0.097 0.195 26 30 8
36.6823 71.7973 -23.1017 -0.286 -0.958 -0.014 89 106 59
-13.9761 82.3750 -14.0370 -0.724 -0.669 0.165 53 65 28
-13.8472 82.6348 -14.2138 0.132 -0.911 -0.391 35 44 28
-11.0273 80.2053 -13.7388 -0.430 -0.900 0.075 31 40 23
-10.8244 80.0936 -13.7384 -0.182 -0.712 0.679 32 41 23
-10.7785 80.1724 -13.7940 0.100 -0.556 0.825 36 46 24
-10.6608 80.1638 -13.8239 -0.465 -0.612 0.639 46 57 26
6.1673 71.9670 -14.3621 -0.372 -0.349 0.860 42 46 29
4.6015 77.9187 -17.0894 -0.228 -0.911 -0.343 74 81 37
3.8602 79.4548 -17.6946 -0.447 -0.698 -0.559 76 84 36
9.5828 70.7848 -14.7291 0.048 -0.930 -0.365 42 46 23
9.8576 70.9279 -14.8861 0.925 -0.350 0.150 71 77 40
9.9001 71.0149 -14.9451 0.925 -0.350 0.150 89 96 52
9.8696 71.2446 -15.0591 0.910 -0.374 0.180 100 108 58
9.8889 71.3787 -15.1366 0.480 -0.827 -0.291 101 109 57
9.9252 71.4806 -15.2017 -0.172 -0.922 -0.346 100 109 56
8.3858 75.0593 -16.6666 0.365 -0.643 0.674 99 108 55
8.4208 75.1802 -16.7415 -0.429 -0.556 0.712 96 105 52
8.5595 75.0946 -16.7363 -0.535 -0.571 0.622 93 101 50
11.9168 69.7391 -14.8526 -0.067 -0.875 -0.480 76 85 38
13.5119 72.3660 -16.7254 0.035 -0.933 -0.358 108 116 65
13.5623 72.4588 -16.7898 0.699 -0.570 -0.431 106 114 64
13.3829 73.3247 -17.2008 0.709 -0.259 -0.656 63 68 34
13.3441 73.6400 -17.3582 0.708 -0.260 -0.656 62 67 37
13.3606 73.8234 -17.4612 0.663 -0.284 -0.692 77 83 46
13.2160 74.4039 -17.7296 0.496 -0.456 -0.739 104 113 61
17.0357 70.2104 -16.6031 0.393 -0.719 -0.574 86 94 45
16.8731 70.9041 -16.9268 0.447 -0.740 -0.502 77 85 38
16.6711 71.9646 -17.4353 0.309 -0.609 -0.731 59 65 32
18.3430 72.4848 -18.2030 0.198 -0.937 0.288 40 43 24
17.8016 74.5278 -19.1381 -0.846 -0.340 0.411 45 48 27
17.9889 74.2169 -19.0265 -0.878 -0.368 0.306 49 52 30
18.7349 72.3532 -18.2473 0.281 -0.937 0.206 60 64 31
18.4299 73.6611 -18.8581 -0.743 -0.536 0.401 62 66 33
18.9785 72.4186 -18.3536 0.617 -0.514 0.596 58 62 29
22.4973 76.1787 -21.3961 -0.049 -0.748 0.662 26 27 21
22.8213 75.9608 -21.3743 -0.263 -0.643 0.719 21 25 11
22.9186 75.9403 -21.3918 -0.233 -0.666 0.708 24 28 13
23.2004 75.9305 -21.4690 0.600 -0.484 0.637 32 36 21
29.7583 68.2431 -19.2739 0.609 -0.716 0.341 18 23 19
29.8153 68.5879 -19.4752 0.291 -0.710 0.641 20 25 22
29.9915 69.6726 -20.1073 -0.137 -0.863 0.487 29 32 22
30.0479 70.1333 -20.3704 -0.495 -0.666 0.558 31 34 23
30.1234 70.2360 -20.4475 -0.451 -0.552 0.701 29 33 19
30.2915 70.0802 -20.4133 -0.211 -0.562 0.799 22 27 7
32.8944 72.9046 -22.6868 -0.468 -0.724 -0.506 45 50 20
36.0697 71.5833 -22.9090 -0.727 -0.402 0.556 114 127 73
36.1309 71.3604 -22.8076 -0.767 -0.394 0.506 114 124 71
36.1828 71.0474 -22.6553 -0.711 -0.416 0.567 114 124 71
36.5486 69.1914 -21.7690 -0.752 -0.480 0.451 84 105 65
38.2470 74.5649 -25.1422 0.065 -0.644 0.762 119 127 66
-14.0917 82.1614 -14.0227 -0.232 -0.968 -0.098 70 88 40
-14.0583 82.2579 -14.0843 0.052 -0.872 -0.487 66 82 37
-14.0193 82.3484 -14.1443 0.050 -0.852 -0.521 56 68 27
-13.8701 82.3090 -14.1668 0.171 -0.810 -0.561 43 54 21
-13.8502 82.4225 -14.2337 0.135 -0.827 -0.547 38 47 24
-14.0045 82.7435 -14.3611 0.111 -0.907 -0.406 36 45 28
-10.2236 79.6896 -13.8254 -0.622 -0.463 0.631 57 68 33
-9.7244 79.2125 -13.7150 -0.616 -0.451 0.646 59 74 31
6.2694 71.5680 -14.2843 -0.679 -0.440 0.588 36 40 26
6.4190 71.4667 -14.2736 -0.477 -0.435 0.764 42 46 30
6.9857 70.6566 -14.0039 -0.707 -0.415 0.572 43 48 29
4.9554 75.9439 -16.2522 -0.838 -0.464 0.289 48 53 25
9.4096 70.7056 -14.7392 0.063 -0.991 -0.122 61 67 30
9.9275 70.8837 -14.9865 0.914 -0.405 0.015 80 86 45
9.9159 71.0760 -15.0865 0.910 -0.401 0.110 98 106 57
9.9278 71.2238 -15.1694 0.518 -0.816 -0.257 99 108 56
9.9313 71.3891 -15.2593 0.480 -0.720 -0.501 96 105 52
9.8373 71.7473 -15.4244 0.856 -0.505 -0.108 101 110 57
8.4076 74.9295 -16.7167 0.229 -0.731 0.642 102 111 58
8.5644 74.9977 -16.7993 -0.404 -0.493 0.771 100 108 57
11.6874 70.1335 -15.0980 -0.344 -0.697 0.629 79 88 41
13.0308 69.2602 -15.0216 -0.242 -0.632 -0.736 68 77 34
12.8977 69.7304 -15.2354 -0.335 -0.594 -0.732 78 87 41
12.1933 71.6426 -16.0573 0.244 -0.829 -0.503 99 109 57
13.1897 72.8266 -16.9852 0.352 -0.838 -0.418 109 118 65
13.4803 72.3499 -16.8140 0.000 -0.930 -0.369 108 116 65
13.4994 72.5175 -16.9097 0.736 -0.553 -0.391 103 111 61
13.2837 73.4701 -17.3586 0.708 -0.260 -0.656 65 70 36
13.2509 73.7712 -17.5109 0.708 -0.260 -0.656 64 69 39
13.2753 73.9358 -17.6065 0.660 -0.284 -0.696 76 82 45
13.0996 74.5918 -17.9078 0.469 -0.457 -0.755 105 113 61
17.0202 69.9242 -16.5456 -0.109 -0.994 0.030 94 102 53
16.6090 72.2900 -17.6970 -0.640 -0.636 0.431 57 62 32
18.3298 72.4159 -18.2681 0.253 -0.917 0.308 41 44 25
18.3870 72.5156 -18.3384 -0.408 -0.770 0.490 45 48 27
17.9429 74.2499 -19.1408 -0.874 -0.376 0.307 48 51 29
18.6032 72.3848 -18.3313 0.373 -0.876 0.305 59 62 32
18.7053 72.3375 -18.3358 0.342 -0.908 0.244 61 65 32
18.4500 73.4776 -18.8739 -0.718 -0.553 0.422 64 68 35
18.9684 72.3377 -18.4129 0.617 -0.514 0.596 62 66 33
18.7542 73.3609 -18.9002 0.372 -0.806 -0.460 62 66 33
18.7994 73.5126 -18.9950 0.413 -0.795 -0.445 54 57 26
18.8571 73.6233 -19.0714 0.444 -0.781 -0.440 42 45 19
30.7232 76.3257 -23.9952 -0.031 -0.952 -0.305 35 39 25
30.8133 76.3927 -24.0576 -0.747 -0.654 0.118 35 38 25
30.9054 76.3917 -24.0840 -0.763 -0.642 0.076 29 32 24
30.9969 76.4184 -24.1251 -0.733 -0.679 0.039 25 28 20
31.0913 76.3118 -24.0955 -0.699 -0.711 -0.077 24 27 20
31.5735 74.4944 -23.2595 0.137 -0.500 -0.855 29 32 24
31.6458 75.9793 -24.0789 0.843 -0.531 -0.085 32 37 19
31.7357 76.1076 -24.1742 0.841 -0.536 -0.069 39 42 20
33.2153 77.1167 -25.1495 0.877 0.084 0.473 67 73 36
33.3046 73.2859 -23.1163 0.515 -0.154 0.843 73 80 39
36.0797 71.0241 -22.7122 -0.640 -0.302 0.707 117 127 76
36.4333 70.5372 -22.5539 0.791 -0.468 0.394 106 119 65
38.0832 74.8048 -25.3307 -0.015 -0.530 0.848 110 121 71
38.2175 74.4976 -25.2048 0.022 -0.657 0.753 119 128 66
-14.7079 82.8060 -14.3245 -0.679 -0.726 0.109 70 88 40
-14.1455 82.4195 -14.2802 -0.058 -0.803 -0.593 57 70 27
-14.0050 82.3907 -14.3058 -0.055 -0.805 -0.590 45 56 20
-13.9638 82.4791 -14.3656 0.099 -0.840 -0.534 40 50 23
-14.1493 82.8369 -14.5045 0.114 -0.916 -0.385 37 46 26
-9.6593 78.9264 -13.7060 -0.385 -0.275 0.881 55 66 36
3.3869 73.3479 -14.5084 -0.387 -0.760 0.522 53 63 28
3.5000 73.3176 -14.5251 -0.375 -0.758 0.534 51 61 26
5.3630 75.3139 -16.1476 -0.835 -0.483 0.265 50 55 24
5.6740 75.4528 -16.3135 0.076 -0.927 0.368 62 68 30
5.7729 75.4501 -16.3409 0.076 -0.927 0.368 64 71 30
9.7994 70.7166 -14.9626 0.830 -0.542 -0.129 44 47 25
9.8434 70.7996 -15.0203 0.581 -0.761 -0.287 53 58 29
9.9622 70.9077 -15.1134 0.793 -0.596 -0.124 94 102 53
9.9735 71.0560 -15.1967 0.765 -0.623 -0.166 99 108 56
9.9584 71.2569 -15.3008 0.824 -0.529 -0.205 94 103 50
9.8552 71.6320 -15.4731 0.860 -0.491 -0.139 103 112 59
8.3982 74.8616 -16.7907 0.229 -0.731 0.642 104 113 60
8.7338 74.7629 -16.8356 -0.384 -0.498 0.778 97 107 55
11.9212 69.9231 -15.1546 -0.776 -0.426 0.465 78 91 46
12.4203 70.6835 -15.7110 0.315 -0.831 -0.458 79 88 43
12.1592 71.4397 -16.0429 0.356 -0.764 -0.538 90 100 51
12.1460 71.6606 -16.1583 0.388 -0.776 -0.497 101 111 59
13.1856 72.7445 -17.0474 0.514 -0.814 -0.271 110 119 66
13.4552 72.3184 -16.8962 0.141 -0.935 -0.326 109 117 66
13.4567 72.5276 -17.0096 0.753 -0.546 -0.367 101 109 59
13.2837 73.3758 -17.4169 0.792 -0.204 -0.576 66 72 38
13.2357 73.7128 -17.5848 0.793 -0.204 -0.575 64 69 39
13.2224 73.9687 -17.7191 0.738 -0.238 -0.631 76 83 45
13.0084 74.7173 -18.0607 0.479 -0.457 -0.749 105 113 63
16.7155 71.1497 -17.2184 0.172 -0.889 0.423 79 87 40
16.6235 72.1466 -17.7297 -0.654 -0.544 0.525 57 62 32
18.3101 72.3678 -18.3423 0.251 -0.918 0.308 42 45 26
18.4090 72.3327 -18.3522 0.269 -0.929 0.255 45 48 27
17.9109 74.2371 -19.2347 -0.872 -0.375 0.315 47 50 28
18.5801 72.3475 -18.4103 0.373 -0.876 0.305 59 62 32
18.6756 72.3226 -18.4247 0.317 -0.913 0.256 61 65 32
18.9583 72.2571 -18.4720 0.617 -0.514 0.596 65 69 36
18.8497 73.5291 -19.1270 0.256 -0.676 -0.691 44 47 21
18.7473 74.8315 -19.8002 -0.294 -0.753 -0.588 14 21 14
22.4563 76.5198 -21.7961 -0.617 -0.444 0.649 16 17 11
26.7471 75.2167 -22.3469 0.103 -0.883 -0.458 8 10 9
26.8371 75.2257 -22.3781 -0.056 -0.923 -0.380 8 10 9
26.9499 75.0292 -22.3050 -0.709 -0.703 0.059 12 14 13
27.0414 75.0204 -22.3270 -0.686 -0.727 0.006 12 14 13
27.0983 75.3361 -22.5141 0.780 -0.565 -0.267 12 14 13
27.5684 75.1874 -22.5713 0.692 -0.553 -0.464 8 10 5
27.6592 75.1863 -22.5972 0.636 -0.585 -0.503 16 18 13
27.7458 75.2313 -22.6468 0.692 -0.567 -0.448 20 22 17
28.2359 74.7969 -22.5556 -0.498 -0.836 0.231 29 33 21
28.5248 74.5474 -22.5054 -0.676 -0.736 0.034 29 33 19
28.6140 74.5484 -22.5320 -0.548 -0.824 0.141 25 29 15
28.9603 74.7036 -22.7170 0.052 -0.791 -0.609 18 24 13
29.5527 75.3096 -23.2174 0.703 -0.646 -0.296 22 25 19
31.1536 76.4369 -24.2941 -0.448 -0.892 -0.069 27 31 12
31.7865 77.9838 -25.3142 0.131 -0.504 -0.853 53 58 24
32.6835 73.5100 -23.1612 -0.825 -0.380 0.418 57 63 30
32.9359 73.1533 -23.0424 0.962 -0.170 0.212 53 58 28
36.5425 70.2476 -22.5280 -0.520 -0.429 0.738 104 118 68
36.5786 69.1105 -21.9247 -0.592 -0.587 0.552 82 97 58
-13.9561 82.1192 -14.3076 -0.561 -0.825 -0.069 63 76 30
-12.7527 81.1045 -14.1090 -0.692 -0.697 0.188 40 50 28
-11.2795 79.4900 -13.6641 -0.747 -0.649 0.147 38 47 28
-9.7029 78.6433 -13.6656 -0.335 -0.155 0.929 27 35 24
3.4826 73.1230 -14.5252 -0.457 -0.645 0.612 54 64 29
5.8885 74.4727 -15.9600 -0.770 -0.592 0.237 53 58 28
6.0113 74.4241 -15.9695 -0.697 -0.575 0.427 55 60 27
9.9449 70.6945 -15.0966 0.627 -0.725 -0.285 62 68 30
9.9840 70.7875 -15.1585 0.619 -0.727 -0.299 83 91 42
10.0203 70.8866 -15.2228 0.792 -0.599 -0.117 96 105 53
10.0103 71.0766 -15.3229 0.860 -0.484 -0.165 97 106 53
9.9077 71.4492 -15.4950 0.857 -0.515 0.023 103 112 59
8.5945 74.7641 -16.9087 -0.378 -0.498 0.781 104 112 61
8.7405 74.6627 -16.8963 -0.384 -0.498 0.778 101 111 59
8.8652 74.6033 -16.9006 -0.632 -0.631 0.449 97 107 55
9.6350 73.8080 -16.6943 -0.709 -0.571 0.414 84 94 42
12.9043 68.6626 -14.8596 -0.749 -0.650 -0.130 57 69 30
11.9773 71.5585 -16.1590 0.652 -0.735 0.185 78 87 42
12.0068 71.6860 -16.2367 0.714 -0.650 0.260 90 99 52
11.9249 72.0577 -16.4143 0.775 -0.144 0.616 100 110 59
13.1738 72.6807 -17.1170 0.080 -0.996 -0.047 108 117 64
13.4406 72.2620 -16.9680 0.246 -0.936 -0.253 109 117 66
13.5395 72.4520 -17.0999 -0.573 -0.633 0.522 81 88 46
13.6708 72.3516 -17.0838 -0.568 -0.632 0.527 66 72 38
13.1789 73.7549 -17.7010 0.735 -0.235 -0.637 64 69 39
12.9287 74.8139 -18.2021 0.555 -0.437 -0.707 105 113 63
15.8362 73.0046 -18.0706 -0.263 -0.838 0.478 93 101 52
16.1956 72.7526 -18.0390 -0.253 -0.888 0.383 66 73 30
16.5592 72.4795 -17.9971 -0.234 -0.902 0.364 54 59 29
18.2915 72.3165 -18.4149 0.239 -0.922 0.305 42 45 26
18.3885 72.2873 -18.4275 0.264 -0.928 0.262 45 48 27
18.4822 72.2683 -18.4445 0.401 -0.874 0.275 47 50 28
18.5543 72.3195 -18.4933 0.328 -0.911 0.249 59 62 32
18.0981 74.1063 -19.3289 -0.875 -0.481 -0.046 61 65 32
18.7063 73.5917 -19.2276 0.026 -0.678 -0.735 58 61 30
26.0569 73.3418 -21.2399 0.298 -0.003 0.955 19 21 16
26.1325 73.4331 -21.3115 0.245 0.022 0.969 24 26 21
26.2207 73.4309 -21.3361 0.247 0.024 0.969 25 27 22
26.3094 73.4244 -21.3585 0.247 0.024 0.969 20 22 17
26.5600 75.0068 -22.2897 0.152 -0.882 -0.446 10 12 9
26.9450 74.0107 -21.8621 -0.393 -0.841 -0.371 10 12 9
27.0229 74.1079 -21.9376 -0.422 -0.825 -0.375 11 13 10
27.3616 74.2703 -22.1246 0.082 -0.861 -0.502 15 18 12
27.6927 74.5344 -22.3645 0.419 -0.677 -0.605 17 20 13
27.7684 74.6818 -22.4666 0.463 -0.668 -0.583 19 22 15
27.8446 74.8298 -22.5691 0.535 -0.636 -0.557 21 24 17
29.2596 75.2066 -23.1868 -0.111 -0.826 -0.553 12 19 2
29.3499 75.2086 -23.2143 -0.112 -0.823 -0.557 11 18 1
29.6503 74.6632 -23.0064 0.000 -0.491 -0.871 21 25 7
32.6585 73.4529 -23.2291 -0.823 -0.390 0.412 65 71 35
32.7424 73.2732 -23.1561 -0.803 -0.386 0.454 46 51 18
32.8263 73.1489 -23.1133 -0.803 -0.386 0.454 46 51 21
33.0989 73.9359 -23.6197 0.879 0.046 0.475 67 73 37
33.5280 73.7547 -23.6468 -0.474 -0.587 0.656 68 75 34
36.1265 85.1184 -30.5676 -0.185 -0.697 0.693 60 66 22
35.8872 71.1382 -22.9174 -0.820 -0.356 0.449 71 80 37
36.0248 70.8692 -22.8118 -0.520 -0.783 0.341 104 113 66
36.2315 70.5102 -22.6775 -0.487 -0.856 -0.170 119 128 74
-10.0082 78.8085 -13.7918 -0.640 -0.608 0.470 33 40 31
-8.3689 77.3374 -13.4695 -0.184 -0.296 0.937 54 66 41
3.6946 72.8623 -14.5554 0.721 -0.212 0.660 51 61 26
3.7251 72.9614 -14.6183 0.790 -0.175 0.587 49 59 25
6.0017 75.0469 -16.4188 -0.757 -0.367 0.541 67 74 30
5.0134 77.0086 -17.1985 -0.551 -0.125 0.825 72 80 31
9.9002 70.7029 -15.1917 0.313 -0.868 0.387 53 59 22
9.9625 70.7510 -15.2361 0.351 -0.851 0.392 73 80 33
10.0104 70.8274 -15.2917 0.799 -0.598 -0.066 96 104 52
10.0436 70.9330 -15.3589 0.859 -0.453 0.240 101 110 57
9.9590 71.2694 -15.5174 0.873 -0.476 -0.105 103 112 59
9.7727 71.8079 -15.7562 0.965 -0.241 0.106 104 113 60
8.6871 74.6827 -17.0047 -0.632 -0.655 0.415 106 116 64
8.8533 74.5405 -16.9758 -0.632 -0.655 0.415 102 112 61
9.7659 73.6447 -16.7545 -0.769 -0.577 0.274 87 97 45
12.4007 70.0084 -15.5437 -0.130 -0.624 -0.771 74 85 43
11.9652 71.5000 -16.2288 0.647 -0.742 0.177 78 87 43
12.0013 71.6129 -16.3008 0.536 -0.746 0.396 89 98 52
13.4242 72.2100 -17.0415 0.214 -0.933 -0.289 109 117 66
13.5202 72.4063 -17.1765 -0.573 -0.633 0.522 81 88 46
13.6518 72.3052 -17.1599 -0.568 -0.632 0.527 66 71 37
12.8333 74.9483 -18.3601 0.555 -0.437 -0.707 105 113 63
15.6537 72.9106 -18.0741 -0.324 -0.873 0.365 100 108 61
15.7799 72.8111 -18.0568 -0.332 -0.877 0.347 97 105 56
15.8247 72.9344 -18.1370 -0.264 -0.845 0.466 93 101 52
16.1693 72.7239 -18.1230 -0.253 -0.888 0.383 66 73 30
16.2806 72.6620 -18.1218 -0.257 -0.877 0.405 59 65 31
16.5228 72.4802 -18.0936 -0.252 -0.851 0.461 54 59 30
18.2568 72.3168 -18.5109 0.018 -0.873 0.488 42 45 26
18.3588 72.2718 -18.5162 0.052 -0.855 0.517 45 48 27
18.9326 72.1152 -18.5985 0.669 -0.446 0.594 70 74 40
19.6476 72.3672 -18.9445 -0.177 -0.824 -0.538 18 24 17
19.7000 72.8104 -19.2012 -0.268 -0.746 -0.609 18 24 17
19.7327 73.0128 -19.3210 -0.154 -0.753 -0.640 19 25 21
19.9615 76.3324 -21.1954 0.099 -0.512 0.853 20 24 19
20.0594 76.3212 -21.2180 0.106 -0.513 0.852 20 24 19
20.3484 76.3057 -21.2939 0.102 -0.491 0.865 20 25 21
21.6176 72.5417 -19.6149 -0.134 -0.991 -0.031 20 25 21
23.0765 74.4547 -21.0826 -0.747 -0.657 -0.099 22 26 11
23.4396 73.5052 -20.6716 -0.518 -0.833 -0.197 24 28 13
23.5187 73.5563 -20.7225 -0.474 -0.835 -0.279 26 30 15
23.6466 73.3485 -20.6467 -0.147 -0.754 -0.640 28 32 17
23.7336 73.3566 -20.6765 -0.081 -0.661 -0.746 25 29 14
24.4415 73.8764 -21.1663 -0.733 -0.553 0.397 19 23 9
24.6927 72.9014 -20.7088 -0.309 -0.657 0.688 22 28 12
24.8025 73.8505 -21.2576 0.559 -0.589 0.584 32 38 22
24.8798 73.9249 -21.3207 0.552 -0.569 0.610 38 44 27
24.9605 73.9792 -21.3739 0.520 -0.582 0.625 34 41 24
25.0410 74.0369 -21.4288 0.323 -0.474 0.819 33 39 22
25.7167 73.0578 -21.0930 0.256 0.007 0.967 40 43 35
25.8049 73.0520 -21.1156 0.253 0.009 0.967 37 40 33
25.8905 73.0645 -21.1474 0.227 -0.014 0.974 32 34 29
25.9782 73.0618 -21.1715 0.199 0.004 0.980 28 30 25
26.0632 73.0785 -21.2054 0.290 -0.008 0.957 23 26 19
26.1503 73.0803 -21.2318 0.290 -0.008 0.957 28 31 24
27.0380 74.5169 -22.2734 -0.239 -0.838 -0.491 9 12 6
27.1366 74.4350 -22.2576 -0.238 -0.838 -0.491 9 12 6
27.2230 74.4651 -22.2992 -0.237 -0.863 -0.447 9 12 5
27.3955 74.5303 -22.3851 0.190 -0.842 -0.505 15 19 8
27.4824 74.5583 -22.4257 0.396 -0.728 -0.560 16 19 8
28.6224 74.8805 -22.9341 0.102 -0.994 0.026 26 30 10
28.7089 74.9286 -22.9855 0.099 -0.995 0.028 18 25 4
29.1309 73.9900 -22.5976 0.401 0.116 0.909 37 44 21
29.2213 73.9542 -22.6046 0.381 0.058 0.923 39 47 22
29.4213 76.6601 -24.1365 -0.042 -0.491 -0.870 56 64 26
33.0478 72.5833 -22.9754 -0.108 -0.845 0.524 67 73 36
33.5017 73.6733 -23.7016 -0.558 -0.565 0.608 68 75 33
33.5862 73.6110 -23.6923 -0.547 -0.558 0.625 63 70 27
35.7006 71.0910 -22.9376 -0.832 -0.360 0.422 33 40 6
36.0042 70.8678 -22.9046 -0.523 -0.785 0.332 82 91 45
36.0716 70.7252 -22.8467 0.236 -0.938 -0.253 95 105 56
-14.1557 82.1989 -14.5615 -0.658 -0.734 0.169 64 78 27
-9.8770 78.7073 -13.9008 -0.450 -0.249 0.857 30 36 29
-9.3259 78.1708 -13.7682 -0.425 -0.244 0.872 30 36 29
-4.6232 75.0161 -13.4155 -0.329 -0.635 -0.699 62 80 42
3.6819 72.8088 -14.6323 0.350 -0.494 0.796 51 61 24
4.6415 76.5137 -16.9385 0.209 -0.925 0.317 52 57 29
4.7571 76.4857 -16.9570 -0.061 -0.978 0.201 54 59 28
9.8857 70.6532 -15.2640 0.271 -0.817 0.510 48 52 26
9.9307 70.7345 -15.3217 0.356 -0.854 0.381 62 70 26
9.9923 70.7843 -15.3669 0.394 -0.829 0.396 87 97 48
10.0180 70.9043 -15.4400 0.729 -0.424 0.537 100 110 60
10.0179 71.0752 -15.5335 0.749 -0.474 0.462 103 113 60
9.8958 71.4864 -15.7227 0.899 -0.370 0.235 103 114 57
8.8292 74.5023 -17.0607 -0.628 -0.689 0.363 102 111 58
12.4351 69.1432 -15.1823 -0.844 -0.531 0.078 94 104 55
11.9662 71.6040 -16.3912 0.455 -0.528 0.717 89 95 57
13.3841 72.2139 -17.1387 0.198 -0.936 -0.292 110 118 67
13.3643 72.4723 -17.2742 -0.575 -0.621 0.533 105 113 63
13.5009 72.3607 -17.2530 -0.573 -0.633 0.522 74 83 42
13.6329 72.2589 -17.2359 -0.568 -0.632 0.527 63 70 37
12.7272 75.1079 -18.5296 0.542 -0.445 -0.713 106 116 66
16.1430 72.6951 -18.2070 -0.253 -0.888 0.383 71 79 33
16.2474 72.6531 -18.2145 -0.249 -0.899 0.361 60 66 28
16.4781 72.5045 -18.2006 -0.287 -0.889 0.358 55 59 34
18.2412 72.2558 -18.5792 0.017 -0.852 0.524 43 46 25
18.3387 72.2253 -18.5909 0.052 -0.855 0.517 46 49 28
15.9109 80.3401 -22.3202 -0.173 0.037 0.984 48 52 28
18.0229 74.1180 -19.5339 -0.846 -0.528 -0.066 60 63 31
18.9216 72.0381 -18.6587 0.664 -0.380 0.644 69 74 33
19.4019 72.1888 -18.8813 0.278 -0.754 0.595 19 21 12
23.3634 73.7385 -20.8850 -0.584 -0.757 -0.294 25 27 13
24.1940 72.1035 -20.2332 0.141 -0.582 0.801 41 43 30
24.8795 73.7349 -21.3255 0.428 -0.532 0.731 45 48 28
24.9613 73.7803 -21.3743 0.381 -0.503 0.776 48 52 29
25.0393 73.8514 -21.4359 0.243 -0.366 0.898 43 48 24
25.1235 73.8831 -21.4778 0.235 -0.356 0.905 36 40 17
25.1979 73.9809 -21.5530 0.188 -0.305 0.933 33 36 20
25.8882 72.8712 -21.1476 0.227 -0.011 0.974 21 24 10
25.9722 72.8934 -21.1842 0.161 -0.003 0.987 21 24 8
26.0611 72.8792 -21.2024 0.158 -0.008 0.987 24 28 6
26.1469 72.8882 -21.2323 0.290 -0.008 0.957 26 29 8
26.2327 72.8971 -21.2623 0.371 0.038 0.928 26 29 10
27.0023 73.0037 -21.5452 0.307 0.066 0.949 26 30 7
26.8786 74.8760 -22.5330 0.085 -0.254 0.964 33 37 15
27.1696 73.0630 -21.6264 0.354 0.129 0.926 35 39 16
28.3541 73.4410 -22.1789 0.299 0.073 0.952 85 92 50
28.5292 73.4380 -22.2283 0.317 0.083 0.945 91 98 56
28.6150 73.4574 -22.2640 0.323 0.083 0.943 89 96 55
29.0383 73.6529 -22.4945 0.509 0.123 0.852 99 107 61
29.1209 73.7285 -22.5599 0.401 0.116 0.909 106 114 67
29.2083 73.7345 -22.5887 0.344 0.093 0.934 108 116 69
29.2964 73.7280 -22.6109 0.346 0.091 0.934 106 114 67
29.3819 73.7651 -22.6561 0.328 0.093 0.940 107 115 67
29.4745 73.6815 -22.6375 0.518 0.158 0.841 106 115 61
31.4734 74.2945 -23.5561 0.208 0.012 0.978 86 94 42
31.5624 74.2370 -23.5506 0.211 0.013 0.977 85 92 39
31.6506 74.2174 -23.5656 0.210 0.011 0.978 81 88 34
33.1964 72.7239 -23.2000 -0.362 -0.619 0.697 74 79 39
35.7640 71.1301 -23.0777 -0.825 -0.363 0.434 32 41 11
35.8316 70.9719 -23.0109 -0.824 -0.365 0.434 37 46 12
35.9832 70.8626 -22.9954 -0.460 -0.870 0.179 54 65 23
36.0587 70.8073 -22.9872 0.253 -0.939 -0.234 68 80 36
36.2903 70.7107 -23.0020 -0.069 -0.745 -0.663 112 124 66
-13.8064 81.5785 -14.4575 -0.383 -0.809 0.446 70 84 33
-14.3353 82.7431 -14.9428 -0.377 -0.773 0.510 40 51 21
-10.5719 79.3403 -14.1717 -0.589 -0.359 0.724 31 41 30
-9.5463 78.2351 -13.8638 -0.453 -0.248 0.856 37 47 38
-9.0387 77.7507 -13.7459 -0.408 -0.232 0.883 37 47 38
-6.4733 76.3925 -13.7482 0.677 -0.694 0.245 36 56 31
-6.4262 76.4627 -13.8005 0.683 -0.694 0.228 37 57 31
-6.3491 76.4952 -13.8408 0.692 -0.673 0.260 40 61 34
-6.1103 76.4536 -13.8876 -0.333 -0.586 0.739 46 67 40
-5.9393 76.3668 -13.8899 -0.259 -0.656 0.709 48 69 41
-1.9207 74.1089 -13.8219 -0.414 -0.648 -0.640 66 80 45
4.7402 76.4313 -17.0404 -0.087 -0.977 0.196 53 58 27
4.8149 76.4756 -17.0866 -0.076 -0.994 0.081 54 59 26
5.5027 75.7780 -16.9040 -0.580 -0.140 0.803 66 73 33
5.9682 75.2915 -16.7726 -0.553 -0.094 0.828 73 80 34
10.0033 70.6850 -15.4196 0.711 -0.369 0.598 75 84 39
10.0405 70.7823 -15.4839 0.627 -0.356 0.693 95 104 57
10.0429 70.9479 -15.5755 0.686 -0.455 0.568 102 112 60
9.9948 71.2133 -15.7073 0.868 -0.293 0.400 103 114 58
9.8866 71.5987 -15.8874 0.630 -0.271 0.728 103 115 54
12.6246 68.8427 -15.1724 -0.827 -0.547 -0.132 93 103 53
12.0803 70.7108 -16.0396 0.008 -0.670 -0.742 77 85 38
11.9592 71.1556 -16.2486 -0.520 -0.831 -0.198 75 82 40
13.1064 72.5651 -17.3574 0.077 -0.972 -0.221 111 120 67
13.2222 72.5044 -17.3578 -0.573 -0.622 0.533 111 119 68
13.3460 72.4243 -17.3499 -0.575 -0.621 0.533 107 115 65
13.4809 72.3168 -17.3302 -0.568 -0.632 0.527 73 82 41
13.6139 72.2126 -17.3118 -0.568 -0.632 0.527 63 70 38
12.6291 75.2473 -18.6913 0.542 -0.445 -0.713 108 117 67
16.1176 72.6639 -18.2900 -0.272 -0.893 0.359 73 81 35
16.2204 72.6264 -18.2994 -0.249 -0.899 0.361 60 67 28
16.3238 72.5865 -18.3076 -0.033 -0.935 0.352 58 64 32
18.2300 72.1811 -18.6410 0.144 -0.937 0.317 43 46 25
18.3277 72.1495 -18.6521 -0.001 -0.878 0.478 46 49 28
17.9792 74.1435 -19.6456 -0.863 -0.493 0.106 60 63 31
18.0836 75.0205 -20.1578 0.132 -0.585 -0.800 70 75 34
19.3840 72.1339 -18.9516 0.285 -0.750 0.596 21 24 9
20.8129 72.0078 -19.2992 -0.083 -0.911 -0.404 21 23 11
20.8972 72.0178 -19.3293 -0.082 -0.908 -0.411 21 22 12
21.3276 72.0315 -19.4624 -0.242 -0.966 -0.092 21 23 11
21.4100 72.0496 -19.4963 -0.128 -0.991 -0.043 22 24 12
21.5044 72.0176 -19.5063 -0.087 -0.990 -0.114 24 25 14
21.5893 72.0250 -19.5351 -0.114 -0.986 -0.123 24 26 15
21.6758 72.0257 -19.5607 -0.102 -0.987 -0.124 19 20 12
21.9223 72.0830 -19.6641 -0.129 -0.985 -0.117 14 16 6
23.8086 72.1605 -20.2569 0.058 -0.537 0.841 26 29 13
23.9891 72.1177 -20.2861 0.005 -0.506 0.863 28 30 16
24.0850 72.0643 -20.2847 0.008 -0.559 0.829 29 32 17
24.1737 72.0498 -20.3026 0.022 -0.554 0.832 26 29 13
24.3491 72.0300 -20.3429 0.119 -0.584 0.803 20 23 5
24.4346 72.0326 -20.3693 0.178 -0.591 0.787 20 23 8
24.5166 72.0548 -20.4054 0.234 -0.659 0.715 19 23 7
24.8484 73.7396 -21.4275 0.479 -0.398 0.782 23 26 4
24.9317 73.7755 -21.4715 0.484 -0.396 0.780 30 34 8
25.0153 73.8105 -21.5151 0.446 -0.441 0.779 32 36 8
25.0962 73.8638 -21.5680 0.183 -0.322 0.929 28 33 7
25.1825 73.8827 -21.6035 0.192 -0.318 0.928 23 28 2
25.8053 72.6365 -21.1008 0.338 0.011 0.941 95 100 69
25.8856 72.6818 -21.1491 0.233 -0.006 0.972 99 104 72
25.9696 72.7013 -21.1843 0.161 -0.003 0.987 105 110 77
26.0579 72.6897 -21.2037 0.164 -0.002 0.987 112 117 80
26.1400 72.7239 -21.2464 0.292 -0.008 0.956 111 116 79
26.2303 72.6968 -21.2579 0.376 0.040 0.926 111 115 80
26.3180 72.6886 -21.2789 0.358 0.041 0.933 111 115 82
27.5011 72.9511 -21.7682 0.381 0.116 0.917 117 125 71
27.5850 72.9795 -21.8083 0.371 0.114 0.922 116 125 70
27.7583 72.9827 -21.8606 0.503 0.110 0.857 116 125 70
28.3469 73.1989 -22.1511 0.299 0.072 0.952 107 116 57
28.6068 73.2131 -22.2346 0.317 0.083 0.945 110 120 61
28.6914 73.2436 -22.2760 0.340 0.079 0.937 110 119 60
28.7775 73.2568 -22.3084 0.340 0.079 0.937 105 113 55
29.1173 73.3768 -22.4735 0.508 0.127 0.852 101 109 51
29.2054 73.3622 -22.4911 0.510 0.131 0.850 102 110 52
29.2885 73.4253 -22.5500 0.512 0.130 0.849 101 109 51
29.3731 73.4673 -22.5978 0.522 0.133 0.843 102 110 52
29.4562 73.5369 -22.6602 0.522 0.133 0.843 101 109 51
29.5489 73.4438 -22.6361 0.524 0.139 0.840 98 106 47
29.6330 73.4987 -22.6908 0.525 0.138 0.840 96 104 45
29.7148 73.6013 -22.7710 0.524 0.148 0.839 94 102 43
29.8014 73.6156 -22.8042 0.531 0.137 0.836 93 101 42
29.8848 73.6974 -22.8734 0.383 0.075 0.921 92 100 40
29.9712 73.7203 -22.9112 0.383 0.075 0.921 92 100 40
30.4915 73.8522 -23.1354 0.392 0.064 0.918 87 95 39
30.6711 73.7182 -23.1142 0.278 0.055 0.959 87 95 39
30.7585 73.7179 -23.1395 0.278 0.055 0.959 87 95 38
30.8459 73.7177 -23.1649 0.284 0.056 0.957 87 95 38
31.0212 73.6883 -23.1999 0.499 0.092 0.862 88 95 41
31.3649 73.9786 -23.4596 0.439 0.073 0.895 90 95 41
31.6837 69.1825 -20.9184 -0.591 -0.718 -0.368 87 92 38
31.7632 69.0806 -20.8856 -0.547 -0.735 -0.401 87 92 38
33.5353 73.5014 -23.8306 -0.507 -0.535 0.676 66 71 30
35.8882 70.9324 -23.1060 -0.697 -0.716 -0.024 37 46 13
36.0485 70.9207 -23.1463 0.324 -0.906 -0.273 49 61 21
36.1356 70.9912 -23.2104 -0.120 -0.772 -0.625 56 68 26
36.3392 72.2977 -23.9874 -0.555 -0.263 0.789 65 79 30
36.4142 72.2132 -23.9628 -0.555 -0.263 0.789 86 101 46
36.5010 72.2526 -24.0098 -0.557 -0.355 0.751 100 116 58
-13.8887 81.5982 -14.5778 -0.387 -0.784 0.486 69 83 34
-13.9239 81.7735 -14.6643 -0.541 -0.621 0.567 64 78 30
-13.7867 81.7478 -14.6901 -0.532 -0.642 0.552 58 71 29
-14.2772 82.5964 -15.0152 -0.333 -0.805 0.491 47 58 26
-9.2520 77.8080 -13.8390 -0.446 -0.239 0.863 66 80 67
-8.7547 77.3358 -13.7235 -0.408 -0.232 0.883 71 86 75
-6.6280 76.2580 -13.7490 0.304 -0.952 -0.039 29 56 40
-6.5367 76.2722 -13.7834 0.580 -0.812 -0.066 27 54 36
-6.4116 76.2442 -13.8044 0.371 -0.928 -0.042 30 56 38
-6.3851 76.3397 -13.8649 0.571 -0.797 0.197 32 58 39
-6.3274 76.3964 -13.9130 0.324 -0.314 0.892 28 55 35
-4.7295 75.9207 -14.1164 -0.193 -0.381 0.904 37 51 30
-4.5433 75.8101 -14.1097 -0.355 -0.470 0.809 41 57 34
-4.3843 75.7345 -14.1143 -0.347 -0.496 0.796 53 68 43
-4.1819 75.6015 -14.1000 -0.345 -0.499 0.795 52 70 44
0.8876 74.7553 -15.1111 0.402 -0.309 0.862 63 76 32
0.9960 74.7392 -15.1339 0.401 -0.334 0.853 61 74 32
1.0714 74.7727 -15.1743 0.100 -0.317 0.943 61 74 32
1.1714 74.7692 -15.2015 0.143 -0.297 0.944 61 73 34
4.6923 76.4318 -17.1450 0.099 -0.995 -0.027 53 58 28
4.1371 77.7745 -17.7238 -0.642 -0.168 0.748 58 64 28
4.3429 77.5901 -17.6821 -0.759 -0.255 0.600 61 67 31
6.1818 74.8226 -16.6917 -0.601 -0.116 0.791 73 80 35
9.9695 70.6724 -15.5067 0.671 -0.362 0.647 66 75 32
10.0207 70.7424 -15.5603 0.663 -0.375 0.648 88 97 52
10.0577 70.8404 -15.6251 0.688 -0.484 0.541 102 112 62
11.3733 69.4374 -15.2348 -0.432 -0.705 0.562 100 109 56
11.0052 70.5193 -15.7242 -0.356 -0.231 0.905 95 104 51
13.2836 72.2690 -17.3536 0.062 -0.950 -0.305 111 119 68
13.3276 72.3763 -17.4256 -0.575 -0.621 0.533 104 112 62
13.4602 72.2746 -17.4081 -0.552 -0.631 0.545 75 84 43
12.8243 74.4502 -18.4227 0.473 -0.338 -0.814 84 92 56
12.5254 75.3996 -18.8593 0.538 -0.444 -0.717 108 117 67
15.9813 72.6922 -18.3734 -0.276 -0.889 0.367 85 93 44
16.0904 72.6379 -18.3753 -0.272 -0.893 0.359 73 81 35
16.1917 72.6046 -18.3864 -0.261 -0.896 0.359 60 67 28
16.2968 72.5601 -18.3925 -0.040 -0.939 0.341 58 64 32
16.4266 72.4452 -18.3670 -0.132 -0.920 0.368 55 59 35
17.3240 72.4175 -18.6133 0.693 -0.352 0.629 53 59 23
18.2193 72.1049 -18.7019 0.166 -0.979 0.123 43 46 25
18.0793 75.5434 -20.5577 0.121 -0.622 -0.773 63 68 27
19.3686 72.0706 -19.0180 0.275 -0.724 0.632 37 42 15
19.6316 72.0674 -19.0930 0.106 -0.665 0.739 36 40 16
19.7309 72.0249 -19.0985 0.037 -0.699 0.714 36 40 16
19.8285 71.9879 -19.1065 0.087 -0.686 0.722 36 40 16
19.9819 72.0633 -19.1928 0.449 -0.354 0.820 42 50 17
22.1325 72.1627 -19.8746 0.297 0.157 0.942 44 48 23
23.5270 72.1196 -20.2574 0.314 -0.031 0.949 69 74 40
23.6179 72.0963 -20.2710 0.291 -0.081 0.953 71 77 43
23.7059 72.0870 -20.2916 0.282 -0.082 0.956 74 80 46
23.7908 72.0944 -20.3203 0.204 -0.102 0.974 76 82 48
23.8819 72.0684 -20.3326 0.016 -0.512 0.859 79 85 51
23.9743 72.0344 -20.3408 0.009 -0.511 0.859 84 90 55
24.0644 72.0124 -20.3549 0.009 -0.511 0.859 84 88 51
24.1542 71.9917 -20.3696 0.251 -0.118 0.961 87 92 54
24.2447 71.9665 -20.3821 0.246 -0.116 0.962 93 98 60
24.3326 71.9546 -20.4012 0.240 -0.114 0.964 96 101 62
25.2579 72.0653 -20.7320 0.071 -0.044 0.996 139 147 97
25.3489 72.0317 -20.7400 0.071 -0.044 0.996 136 144 95
25.8043 72.4401 -21.0980 0.338 0.011 0.941 136 144 93
25.8898 72.4458 -21.1261 0.218 0.012 0.976 142 150 98
25.9730 72.4682 -21.1627 0.207 0.016 0.978 146 155 102
26.0588 72.4720 -21.1898 0.277 0.037 0.960 148 154 103
26.4879 72.4896 -21.3246 0.285 0.068 0.956 137 144 96
28.2511 72.9831 -22.1108 0.371 0.029 0.928 100 108 49
28.3371 72.9907 -22.1401 0.378 0.056 0.924 102 110 51
28.4264 72.9594 -22.1489 0.314 0.077 0.946 99 107 47
28.6810 73.0260 -22.2598 0.345 0.075 0.936 102 110 50
28.7682 73.0185 -22.2811 0.335 0.078 0.939 100 108 48
29.1086 73.1065 -22.4289 0.427 0.083 0.900 96 104 45
29.1837 73.2829 -22.5481 0.406 -0.148 0.902 97 105 45
29.2712 73.2748 -22.5691 0.416 -0.152 0.896 97 105 45
29.3552 73.3228 -22.6201 0.402 -0.155 0.902 97 105 45
29.4437 73.2983 -22.6324 0.397 -0.153 0.905 94 102 43
29.5442 73.0647 -22.5328 0.499 0.133 0.856 92 100 41
29.6313 73.0531 -22.5518 0.520 0.132 0.844 90 98 39
29.7151 73.1032 -22.6039 0.523 0.132 0.842 88 96 36
29.8024 73.0870 -22.6204 0.520 0.158 0.840 88 96 36
29.9728 73.1406 -22.6996 0.548 0.140 0.825 90 98 38
30.0591 73.1439 -22.7266 0.550 0.144 0.823 90 98 38
32.4718 73.0608 -23.3841 -0.445 -0.162 0.881 101 105 53
36.2414 72.3683 -24.1011 -0.581 -0.300 0.756 42 57 18
36.5607 72.2272 -24.1164 -0.518 -0.321 0.793 87 106 49
37.6885 74.7616 -25.8430 0.960 -0.242 -0.144 108 120 59
-13.3772 80.7945 -14.4154 -0.463 -0.264 0.846 74 87 41
-13.3252 80.8658 -14.4700 0.175 -0.033 0.984 69 82 36
-13.5172 81.2222 -14.6115 0.043 -0.139 0.989 65 78 33
-13.5633 81.5439 -14.7763 -0.559 -0.591 0.581 56 68 30
-13.1665 81.2123 -14.7082 -0.578 -0.591 0.563 49 61 25
-9.9403 78.4344 -14.1094 -0.597 -0.374 0.710 38 52 35
-8.8768 77.2847 -13.7824 -0.431 -0.239 0.870 60 76 61
-7.8914 76.4730 -13.6199 -0.156 -0.454 0.877 70 92 80
-7.7096 76.3778 -13.6202 -0.147 -0.451 0.880 68 92 81
-7.1841 76.2396 -13.6967 -0.093 -0.855 0.511 67 100 88
-7.0416 76.1907 -13.7112 -0.094 -0.856 0.509 76 109 97
-6.8918 76.1327 -13.7227 -0.034 -0.995 -0.089 75 108 96
-6.7860 76.1287 -13.7513 -0.056 -0.994 -0.095 72 105 94
-6.6941 76.1419 -13.7854 -0.068 -0.994 -0.089 71 103 92
-6.6274 76.1865 -13.8295 0.367 -0.930 -0.018 72 102 89
-6.5434 76.2097 -13.8669 0.595 -0.802 -0.056 71 101 86
-6.4559 76.2287 -13.9029 0.373 -0.926 -0.051 69 100 85
-6.3980 76.2847 -13.9508 0.375 -0.927 -0.019 67 97 82
-6.3269 76.3245 -13.9935 0.468 -0.852 0.233 63 94 77
-6.1905 76.2821 -14.0098 0.329 -0.307 0.893 58 88 72
-5.9959 76.1659 -14.0021 -0.077 -0.318 0.945 51 81 66
-4.8425 75.8640 -14.1709 0.044 -0.139 0.989 38 56 44
-4.6785 75.7828 -14.1737 0.092 -0.120 0.989 39 56 43
-4.4992 75.6811 -14.1696 -0.207 -0.291 0.934 37 54 39
-4.3312 75.5936 -14.1701 -0.217 -0.305 0.927 32 49 31
-4.1411 75.4767 -14.1607 -0.345 -0.499 0.795 30 48 27
-3.9677 75.3810 -14.1582 -0.015 -0.493 0.870 26 44 23
-3.8800 75.3975 -14.1930 0.207 -0.591 -0.780 25 43 22
-3.4583 75.7737 -14.5242 -0.446 -0.861 0.246 32 50 25
-3.2941 75.6884 -14.5248 -0.446 -0.861 0.246 31 49 25
-3.1134 75.5803 -14.5176 -0.406 -0.887 0.220 38 53 30
-2.9603 75.5090 -14.5227 -0.406 -0.887 0.220 44 59 36
-2.7967 75.4230 -14.5227 -0.409 -0.885 0.224 43 59 35
-2.6543 75.3653 -14.5322 -0.345 -0.900 0.267 42 58 32
-1.6310 74.6407 -14.4290 -0.228 -0.628 -0.744 52 69 36
3.6084 72.8512 -14.9644 -0.112 -0.725 -0.680 49 59 25
3.7262 78.4175 -18.0819 -0.703 -0.195 0.684 57 63 29
4.5434 77.1459 -17.6157 -0.735 -0.217 0.643 61 67 31
5.3808 75.8289 -17.1302 -0.753 -0.225 0.618 66 73 33
5.8650 75.1364 -16.8876 -0.596 -0.104 0.796 70 77 36
9.8850 70.5892 -15.5401 0.716 -0.524 0.462 49 56 23
9.9466 70.6386 -15.5854 0.707 -0.528 0.470 59 67 28
10.0075 70.6898 -15.6315 0.701 -0.532 0.476 80 88 47
10.0409 70.7945 -15.6993 0.738 -0.609 0.291 99 108 62
10.1413 70.9409 -15.8096 0.782 -0.601 -0.163 103 114 55
10.1894 71.0189 -15.8668 0.782 -0.601 -0.163 103 115 53
13.3103 72.3260 -17.5002 -0.552 -0.631 0.545 102 110 60
13.4425 72.2254 -17.4829 -0.552 -0.631 0.545 77 85 44
13.5740 72.1252 -17.4657 -0.552 -0.631 0.545 66 73 40
13.7049 72.0255 -17.4487 -0.552 -0.631 0.545 58 64 36
12.6506 74.7708 -18.6622 0.479 -0.336 -0.811 86 93 57
12.4216 75.5513 -19.0278 0.400 -0.478 -0.782 108 118 68
16.0631 72.6120 -18.4606 -0.272 -0.893 0.359 73 81 35
16.1645 72.5784 -18.4716 -0.261 -0.896 0.359 60 67 28
16.2707 72.5309 -18.4762 -0.040 -0.939 0.341 58 64 32
16.4052 72.4030 -18.4445 -0.129 -0.923 0.362 55 59 35
17.5879 72.3154 -18.7406 0.740 -0.375 0.559 48 53 20
18.2116 72.0197 -18.7585 0.194 -0.981 0.012 43 46 25
18.9068 72.0384 -18.9714 0.824 -0.565 0.042 73 79 35
19.0234 71.9409 -18.9514 0.816 -0.509 0.275 73 79 35
19.1676 72.0440 -19.0505 0.551 -0.626 0.552 83 90 50
19.7346 71.8935 -19.1323 0.221 0.149 0.964 102 109 71
19.8284 71.8692 -19.1462 0.223 0.150 0.963 102 109 70
25.0853 71.8894 -20.6891 0.290 0.021 0.957 154 164 102
25.1696 71.8972 -20.7179 0.205 -0.030 0.978 157 168 103
25.2564 71.8890 -20.7387 0.087 -0.047 0.995 156 166 100
25.3435 71.8785 -20.7582 0.075 -0.043 0.996 149 160 93
25.7146 72.2628 -21.0792 0.341 0.012 0.940 132 142 78
25.7981 72.2808 -21.1135 0.313 -0.005 0.950 132 142 78
26.0530 72.3047 -21.2011 0.223 0.014 0.975 125 133 75
26.1388 72.3061 -21.2269 0.284 0.033 0.958 125 132 75
26.2290 72.2751 -21.2359 0.367 0.042 0.929 125 132 76
26.3162 72.2655 -21.2561 0.256 0.022 0.967 126 133 77
27.5826 72.4585 -21.7319 0.569 -0.139 0.810 111 122 53
27.7481 72.5233 -21.8160 0.588 -0.153 0.794 106 117 48
27.8251 72.6160 -21.8898 0.621 -0.168 0.765 105 116 47
27.9061 72.6705 -21.9436 0.621 -0.168 0.765 105 116 47
27.9914 72.6807 -21.9741 0.560 -0.144 0.816 105 116 48
28.0810 72.6440 -21.9799 0.521 -0.122 0.845 97 105 47
28.3297 72.7563 -22.1145 0.399 0.064 0.915 96 104 48
28.4172 72.7427 -22.1325 0.386 0.061 0.921 95 103 47
29.0808 68.5416 -19.9988 -0.638 -0.760 0.122 93 101 43
30.3160 70.6031 -21.5006 -0.146 -0.989 0.026 103 111 51
31.6797 72.5880 -22.9973 -0.049 -0.044 0.998 111 116 58
33.5220 77.9443 -26.5011 0.928 -0.240 -0.286 70 75 35
36.9912 71.8029 -24.1100 -0.576 -0.535 0.618 105 124 68
37.0636 71.7163 -24.0832 -0.579 -0.541 0.610 106 125 68
37.1369 71.6400 -24.0623 -0.584 -0.543 0.603 108 126 67
37.6545 74.6543 -25.8827 -0.124 -0.967 -0.223 115 125 68
37.7412 74.6483 -25.9047 -0.124 -0.967 -0.223 117 125 69
-12.7206 79.9579 -14.2731 -0.418 -0.204 0.886 74 87 41
-13.6101 81.5222 -14.8843 -0.550 -0.602 0.579 57 69 31
-13.1707 81.1410 -14.8002 -0.559 -0.568 0.604 49 61 25
-7.7503 76.2319 -13.6478 -0.075 -0.553 0.830 49 70 61
-7.4738 76.1463 -13.6807 0.361 -0.687 0.631 52 82 68
-7.3836 76.1617 -13.7155 0.361 -0.687 0.631 55 85 71
-7.3172 76.2062 -13.7596 0.152 -0.819 0.553 58 88 74
-7.1943 76.1817 -13.7818 -0.035 -0.893 0.450 61 91 77
-7.0738 76.1600 -13.8048 -0.178 -0.981 0.079 66 96 82
-6.9597 76.1461 -13.8302 -0.056 -0.994 -0.095 68 97 83
-6.8544 76.1429 -13.8591 -0.056 -0.994 -0.095 69 99 85
-6.7626 76.1563 -13.8933 -0.068 -0.994 -0.089 71 101 87
-6.6717 76.1709 -13.9279 0.367 -0.930 -0.018 76 105 89
-6.5942 76.2022 -13.9679 0.367 -0.930 -0.018 76 104 89
-6.5032 76.2168 -14.0025 0.375 -0.927 -0.005 73 101 85
-6.3563 76.2903 -14.0862 0.358 -0.933 -0.020 67 96 78
-6.2603 76.2989 -14.1189 0.349 -0.937 -0.016 66 95 77
-6.0178 76.1224 -14.0913 -0.056 -0.627 0.777 69 97 81
-5.8882 76.0879 -14.1099 -0.056 -0.627 0.777 71 99 84
-5.7316 76.0190 -14.1172 -0.048 -0.622 0.782 73 99 85
-5.5791 75.9548 -14.1259 -0.109 -0.414 0.904 61 86 73
-4.8669 75.6931 -14.1877 0.088 -0.116 0.989 52 75 63
-4.7087 75.6194 -14.1927 0.055 -0.133 0.990 54 77 64
-4.5566 75.5531 -14.2002 -0.076 -0.252 0.965 54 76 65
-4.3946 75.4737 -14.2031 -0.202 -0.289 0.936 52 73 61
-4.2438 75.4083 -14.2107 -0.217 -0.305 0.927 47 67 53
-4.1176 75.3747 -14.2287 -0.323 -0.491 0.809 46 64 48
-3.7220 75.9191 -14.6468 -0.346 -0.758 0.554 43 58 37
-3.5562 75.8326 -14.6469 -0.313 -0.541 0.780 41 56 33
-3.3843 75.7373 -14.6440 -0.313 -0.541 0.780 39 55 29
-3.2215 75.6539 -14.6450 -0.267 -0.562 0.783 37 53 27
-3.0131 75.5080 -14.6245 -0.105 -0.645 0.757 34 50 25
-2.8432 75.4137 -14.6215 -0.213 -0.586 0.782 34 49 26
-2.6965 75.3504 -14.6290 -0.213 -0.586 0.782 34 49 25
-2.5772 75.3240 -14.6491 -0.195 -0.646 0.738 34 50 24
-2.4273 75.2555 -14.6546 -0.317 -0.734 0.601 36 52 24
-2.2681 75.1738 -14.6555 -0.317 -0.728 0.608 35 51 22
-2.0779 75.0490 -14.6415 -0.355 -0.715 0.602 35 51 22
-1.9421 74.9984 -14.6529 -0.287 -0.726 0.625 36 53 21
0.7536 74.2281 -15.0094 0.344 -0.654 0.674 56 66 41
0.8166 74.2782 -15.0556 0.346 -0.663 0.664 56 66 40
0.8945 74.3063 -15.0939 0.341 -0.656 0.674 56 66 39
3.3725 72.8546 -15.0080 -0.224 -0.710 -0.668 53 63 29
9.5265 70.2031 -15.3250 0.323 -0.687 0.651 80 87 41
9.5674 70.2890 -15.3847 0.442 -0.520 0.731 69 76 35
9.6273 70.3398 -15.4304 0.425 -0.522 0.740 52 58 23
9.8953 70.3262 -15.5008 -0.011 -0.798 0.603 49 53 28
9.9231 70.4390 -15.5717 0.761 -0.649 0.006 47 54 23
9.9043 70.6421 -15.6792 0.808 -0.585 -0.066 53 61 24
9.9575 70.7082 -15.7315 0.744 -0.668 -0.007 71 79 40
10.0133 70.7696 -15.7819 0.798 -0.603 0.001 90 98 55
10.1062 70.7596 -15.8033 0.820 -0.567 -0.083 101 110 61
10.3268 70.6706 -15.8181 0.728 -0.684 0.048 102 113 54
11.2868 69.6249 -15.5159 -0.596 -0.626 0.502 104 113 60
11.2007 69.9685 -15.6820 -0.218 -0.724 0.654 99 108 55
11.9056 71.7783 -16.8940 -0.041 -0.985 -0.165 109 117 68
13.2977 72.2648 -17.5700 -0.538 -0.635 0.554 98 106 56
13.6927 71.9633 -17.5173 -0.551 -0.638 0.538 65 71 43
12.4781 75.0870 -18.9013 0.482 -0.335 -0.810 91 98 62
12.2635 75.8332 -19.2538 0.405 -0.463 -0.789 106 115 65
15.9259 72.6424 -18.5453 -0.272 -0.879 0.393 88 96 47
16.0368 72.5831 -18.5446 -0.595 -0.681 0.428 76 84 38
16.1627 72.4814 -18.5248 -0.584 -0.682 0.440 64 71 32
16.2449 72.5011 -18.5596 -0.049 -0.929 0.366 58 63 31
16.3774 72.3793 -18.5304 -0.079 -0.870 0.486 55 59 35
17.5584 72.2978 -18.8290 0.820 -0.267 0.506 47 52 19
17.4155 73.0052 -19.1809 0.455 -0.791 0.410 43 47 23
18.1914 71.9740 -18.8332 0.236 -0.971 -0.039 43 46 25
18.6283 71.6944 -18.8049 0.505 -0.796 -0.335 61 65 32
18.8843 71.9997 -19.0493 0.824 -0.565 0.042 71 77 33
19.0077 71.8796 -19.0184 0.816 -0.509 0.275 74 80 34
19.0903 71.8953 -19.0512 0.828 -0.483 0.286 75 81 35
19.1726 71.9121 -19.0845 0.521 -0.365 0.772 78 85 39
19.2598 71.9122 -19.1100 0.509 -0.367 0.778 79 87 41
23.8055 71.6989 -20.3150 0.185 0.065 0.981 121 130 71
23.8886 71.7118 -20.3463 0.147 0.066 0.987 121 131 72
23.9791 71.6855 -20.3581 0.147 0.066 0.987 122 132 71
24.6837 71.5620 -20.4945 0.261 0.042 0.964 91 100 37
26.1377 72.1042 -21.2195 0.284 0.033 0.958 124 132 71
26.2270 72.0775 -21.2307 0.367 0.047 0.929 125 133 72
26.5683 72.0860 -21.3348 0.337 0.049 0.940 119 128 67
27.1601 72.1443 -21.5396 0.291 0.040 0.956 120 129 65
27.7414 72.3132 -21.8028 0.422 0.007 0.906 113 124 55
28.2355 72.5348 -22.0699 0.405 0.067 0.912 121 129 71
28.8393 72.5007 -22.2268 0.196 0.017 0.980 123 131 73
28.9235 72.5214 -22.2628 0.466 -0.029 0.885 124 132 75
29.0073 72.5492 -22.3027 0.465 -0.027 0.885 124 132 74
29.0918 72.5674 -22.3374 0.468 -0.029 0.883 123 131 73
29.3425 72.6717 -22.4685 0.467 -0.027 0.884 118 126 68
29.4308 72.6332 -22.4727 0.112 -0.040 0.993 117 125 65
29.7715 72.6790 -22.5974 -0.012 -0.210 0.978 111 119 59
29.8597 72.6320 -22.5970 -0.023 -0.206 0.978 112 120 60
29.9472 72.5961 -22.6024 -0.023 -0.206 0.978 112 120 60
30.1091 72.7984 -22.7621 0.181 -0.084 0.980 110 118 58
30.6430 72.2592 -22.6177 0.204 -0.126 0.971 114 122 63
33.2265 74.4623 -24.5955 0.994 -0.108 -0.011 77 82 39
33.4783 77.2902 -26.2419 0.928 -0.243 -0.282 69 73 37
35.9199 71.0801 -23.4984 -0.043 -0.688 0.724 39 50 17
37.0145 71.4571 -24.0268 0.115 -0.336 0.935 105 125 64
37.1246 71.7090 -24.1990 0.400 -0.421 0.814 109 127 65
37.7237 74.6803 -26.0263 -0.099 -0.977 -0.189 120 128 70
-13.5157 81.3353 -14.9412 -0.554 -0.600 0.577 56 68 30
-11.0792 79.3881 -14.5625 -0.521 -0.274 0.809 37 45 26
-10.1470 78.4070 -14.2857 -0.517 -0.273 0.811 35 45 28
-7.3933 76.2290 -13.8704 -0.217 -0.340 0.915 31 55 43
-7.2452 76.1738 -13.8827 -0.224 -0.387 0.894 33 57 44
-6.8358 75.9231 -13.8618 0.189 -0.201 0.961 44 68 56
-6.7222 75.9092 -13.8871 0.189 -0.201 0.961 50 73 61
-6.6277 75.9188 -13.9200 0.182 -0.203 0.962 54 77 64
-6.5787 75.9848 -13.9711 0.414 -0.238 0.879 52 79 60
-6.4768 75.9853 -14.0011 0.416 -0.245 0.876 52 79 60
-6.3898 76.0045 -14.0371 0.416 -0.245 0.876 55 81 61
-6.3714 76.2380 -14.1729 0.517 -0.835 0.185 60 87 66
-6.1283 76.0616 -14.1451 0.339 -0.280 0.898 63 90 70
-5.8917 75.8923 -14.1194 -0.305 -0.391 0.868 62 89 69
-5.3910 75.7739 -14.1989 0.239 -0.261 0.935 59 86 71
-5.1037 75.5366 -14.1500 0.048 -0.424 0.904 60 87 72
-4.9703 75.4951 -14.1656 0.197 -0.347 0.917 60 87 72
-4.7712 75.4988 -14.2256 0.042 -0.121 0.992 62 89 74
-4.6825 75.5145 -14.2602 -0.208 -0.468 0.859 61 88 73
-4.5057 75.4162 -14.2567 -0.160 -0.511 0.845 62 88 74
-4.3478 75.3418 -14.2612 -0.187 -0.479 0.858 66 89 75
-4.1960 75.2751 -14.2680 -0.291 -0.468 0.834 68 88 75
-4.0640 75.2336 -14.2833 -0.319 -0.486 0.813 66 82 69
-3.9226 75.1797 -14.2943 -0.039 -0.449 0.893 64 78 65
-3.6496 75.8851 -14.7678 -0.359 -0.758 0.544 50 66 41
-3.4053 75.6931 -14.7317 -0.432 -0.666 0.609 50 64 38
-3.1978 75.5495 -14.7118 -0.267 -0.562 0.783 49 63 37
-3.0180 75.4424 -14.7043 -0.252 -0.569 0.783 49 63 38
-2.8201 75.3101 -14.6880 -0.271 -0.601 0.752 48 62 38
-2.4034 75.1505 -14.7201 -0.231 -0.530 0.816 47 61 35
0.3951 74.1128 -14.9549 0.317 -0.676 0.665 43 52 34
0.4970 74.1054 -14.9804 0.337 -0.668 0.664 43 52 33
3.3349 72.9863 -15.1812 -0.366 -0.707 -0.605 49 58 29
4.9010 75.9874 -17.3134 -0.005 -0.971 0.239 55 60 27
4.8908 77.2596 -18.0211 -0.582 -0.049 0.812 79 87 39
9.9014 70.2377 -15.5567 -0.037 -0.792 0.609 49 53 26
10.0031 70.5426 -15.7566 0.808 -0.544 -0.226 62 69 34
10.0545 70.6118 -15.8103 0.800 -0.594 -0.091 75 83 42
11.0299 70.0598 -15.7858 0.435 -0.691 -0.578 106 115 62
10.9633 70.3655 -15.9372 0.414 -0.711 -0.568 104 113 60
10.9466 70.5733 -16.0484 0.527 -0.685 -0.502 100 109 56
11.0487 70.5430 -16.0612 0.742 -0.597 -0.305 95 104 51
11.8661 71.7783 -16.9891 -0.031 -0.987 -0.155 109 118 65
13.2804 72.2145 -17.6444 -0.538 -0.635 0.554 95 103 53
13.5453 72.0112 -17.6079 -0.547 -0.635 0.545 67 74 41
13.6773 71.9090 -17.5893 -0.543 -0.635 0.550 70 76 48
12.2714 75.4836 -19.1770 0.487 -0.334 -0.807 92 100 64
15.7480 72.7829 -18.6800 -0.541 -0.687 0.485 97 105 56
15.8755 72.6797 -18.6595 -0.558 -0.682 0.473 88 96 47
16.0006 72.5819 -18.6413 -0.594 -0.663 0.456 77 84 39
16.1231 72.4900 -18.6256 -0.591 -0.671 0.449 67 74 35
16.2553 72.3700 -18.5970 -0.492 -0.747 0.446 58 64 32
16.3603 72.3251 -18.6025 -0.067 -0.838 0.541 53 57 33
17.4024 72.1287 -18.7960 0.653 -0.432 0.622 59 65 29
17.4766 72.1710 -18.8413 0.769 -0.396 0.501 55 61 27
17.1582 73.4040 -19.4374 0.081 -0.043 0.996 48 54 21
17.3576 73.0725 -19.3102 0.471 -0.721 0.509 44 48 24
17.2937 73.5447 -19.5554 0.932 -0.356 0.076 43 46 25
18.1562 71.9757 -18.9300 0.258 -0.950 0.178 43 46 25
19.6068 71.4993 -19.0860 0.199 0.143 0.969 78 86 36
21.7969 71.3455 -19.6375 0.242 0.159 0.957 95 105 48
22.8035 71.4298 -19.9775 0.299 0.168 0.939 106 117 49
22.8876 71.4358 -20.0053 0.299 0.168 0.939 109 120 51
23.0304 71.5698 -20.1217 0.326 0.087 0.941 110 122 51
23.1312 71.4961 -20.1099 0.280 0.050 0.959 110 122 51
23.2167 71.4962 -20.1348 0.280 0.050 0.959 111 122 52
23.3065 71.4746 -20.1489 0.222 0.039 0.974 112 123 53
23.3928 71.4698 -20.1713 0.228 0.038 0.973 118 129 60
24.1611 71.4630 -20.3911 0.213 0.011 0.977 133 142 75
26.7343 71.8990 -21.3835 0.394 -0.077 0.916 150 159 95
27.0626 72.0063 -21.5390 0.405 -0.071 0.912 151 160 96
27.1493 71.9940 -21.5574 0.415 -0.069 0.907 151 160 96
27.9648 72.3790 -22.0098 0.281 0.120 0.952 149 160 92
28.7217 72.5651 -22.3340 0.337 0.150 0.929 138 146 86
33.4553 77.4006 -26.4128 0.928 -0.243 -0.282 66 70 35
37.2557 71.5998 -24.2784 0.585 -0.620 0.522 116 128 68
-13.6752 81.4453 -15.0901 -0.506 -0.530 0.680 57 69 31
-13.3814 81.2358 -15.0580 -0.387 -0.572 0.723 50 61 26
-8.0558 76.4609 -13.9284 -0.412 -0.813 0.412 46 64 52
-7.7627 76.2317 -13.8850 -0.417 -0.813 0.405 46 64 52
-7.4988 76.0368 -13.8524 -0.124 -0.987 0.103 40 61 48
-7.3427 75.9719 -13.8614 -0.011 -0.763 0.646 35 55 43
-5.8107 75.7196 -14.1655 -0.301 -0.382 0.874 46 71 49
-5.6210 75.6086 -14.1584 -0.315 -0.376 0.871 46 70 48
-5.5098 75.5962 -14.1838 -0.242 -0.377 0.894 46 71 49
-5.3822 75.5629 -14.2022 -0.147 -0.438 0.887 52 77 57
-5.2124 75.4757 -14.2027 0.051 -0.377 0.925 52 77 59
-5.0864 75.4438 -14.2215 0.061 -0.392 0.918 49 76 59
-4.8966 75.3301 -14.2129 0.233 -0.287 0.929 50 77 60
-4.7755 75.3040 -14.2334 0.061 -0.139 0.988 52 79 62
-4.6599 75.2848 -14.2563 0.042 -0.121 0.992 53 80 63
-4.5198 75.2336 -14.2684 0.042 -0.121 0.992 52 79 61
-4.4967 75.3337 -14.3312 0.307 -0.301 0.903 55 80 62
-4.4002 75.3390 -14.3622 0.307 -0.301 0.903 56 78 63
-4.2196 75.2348 -14.3563 -0.001 -0.262 0.965 58 77 62
-4.1099 75.2226 -14.3814 -0.019 -0.259 0.966 60 76 63
-4.3247 76.1694 -14.8500 0.224 -0.566 -0.793 57 73 59
-3.8032 75.8822 -14.8406 0.396 -0.337 0.854 60 75 52
-3.5410 75.6672 -14.7963 -0.277 -0.364 0.889 59 75 49
-3.3379 75.5302 -14.7785 -0.355 -0.394 0.848 60 76 49
-3.1492 75.4117 -14.7669 -0.346 -0.392 0.852 61 75 50
-2.9709 75.3066 -14.7598 -0.344 -0.393 0.853 60 75 50
-1.7748 74.8963 -14.8775 0.432 -0.529 0.730 51 67 42
4.8791 75.9425 -17.3997 -0.067 -0.997 0.041 55 60 27
3.9472 78.5007 -18.5638 -0.545 -0.025 0.838 74 81 37
9.4584 70.1787 -15.4983 0.216 -0.502 0.837 85 92 49
9.8685 70.2237 -15.6428 0.020 -0.795 0.606 49 54 24
9.9366 70.2593 -15.6825 0.689 -0.543 -0.479 50 56 28
9.9843 70.3340 -15.7384 0.687 -0.545 -0.481 50 57 25
9.9854 70.4990 -15.8312 0.800 -0.550 -0.239 55 62 29
9.9689 70.6989 -15.9386 -0.646 -0.761 0.060 66 74 35
