ply
format ascii 1.0
element vertex 204
property float x
property float y
property float z
property float nx
property float ny
property float nz
property uchar diffuse_red
property uchar diffuse_green
property uchar diffuse_blue
end_header
34.8205 70.2591 -21.6692 0.156 -0.957 -0.247 76 83 38
14.8380 98.6348 -17.9198 -0.283 -0.891 0.354 69 75 32
15.9995 97.1744 -18.5872 -0.641 -0.628 0.442 100 112 62
11.5221 102.2136 -18.9984 -0.770 -0.458 0.443 62 29 25
11.0923 102.5327 -19.1945 -0.897 -0.371 0.242 39 37 18
35.9942 74.2285 -26.4411 0.747 -0.576 0.332 27 39 3
-12.0655 115.8059 -10.2740 -0.482 -0.779 0.401 126 139 104
11.2006 101.7791 -19.4568 -0.885 -0.374 0.277 35 41 12
11.0444 101.8765 -19.7504 -0.526 -0.272 0.806 84 89 56
10.8826 101.5668 -19.9603 -0.526 -0.272 0.806 93 99 64
11.1506 100.9849 -19.9815 -0.526 -0.272 0.806 93 99 63
10.9892 100.6772 -20.1904 -0.526 -0.272 0.806 81 87 49
11.5411 100.7143 -20.4826 -0.573 -0.592 0.568 86 94 54
10.8340 100.8261 -20.4951 -0.664 -0.276 0.695 67 74 33
21.5943 79.5775 -21.7088 -0.649 -0.363 0.668 33 42 20
-9.0794 60.1383 -2.1525 0.218 -0.919 -0.329 86 98 48
10.6691 100.2051 -20.6370 -0.802 -0.487 0.346 81 90 46
13.9303 104.6595 -24.3433 -0.517 -0.829 0.211 108 118 65
13.7448 103.7648 -24.4235 -0.673 -0.720 0.167 108 118 66
10.6929 98.9162 -22.1521 -0.267 -0.863 0.430 104 111 67
10.5351 98.8372 -22.4085 -0.267 -0.863 0.430 105 112 68
22.3132 73.6564 -24.0230 -0.793 -0.536 0.290 102 111 59
25.7348 77.0885 -26.5860 -0.703 0.067 0.708 136 145 90
24.9493 75.8409 -26.2201 -0.904 -0.426 -0.035 132 141 88
25.0998 74.8011 -26.0645 -0.933 -0.356 -0.058 134 143 88
25.6672 75.2692 -26.4682 -0.716 0.056 0.696 137 145 88
22.9860 67.5481 -23.6246 -0.389 -0.285 0.876 129 138 85
26.7954 72.6773 -26.7972 -0.949 -0.198 0.246 144 153 98
31.1908 51.9132 -24.3816 -0.915 -0.083 0.394 116 126 66
-17.5928 118.4811 -14.2464 -0.316 -0.941 0.118 62 75 30
-17.7992 118.6586 -14.5551 -0.310 -0.945 0.106 63 76 32
8.0622 98.3610 -23.5037 -0.479 -0.718 0.505 92 99 57
-17.9627 118.5044 -14.8102 -0.277 -0.921 0.275 63 76 32
-18.1636 118.6333 -15.1122 0.380 -0.889 0.255 64 76 32
-9.6063 69.4426 -8.0530 -0.890 -0.418 0.183 67 88 53
-18.3344 118.5325 -15.3765 0.379 -0.886 0.266 65 76 32
-1.4506 107.5604 -21.7232 -0.947 -0.121 0.296 15 22 16
-18.2028 117.4712 -16.3283 -0.731 -0.503 0.461 58 69 34
7.3658 100.7767 -25.8849 -0.614 -0.776 -0.143 74 81 41
7.1979 101.6282 -26.3720 -0.611 -0.755 -0.239 64 69 36
7.4128 113.1345 -29.3123 -0.674 -0.049 0.737 50 55 25
-8.1741 126.0768 -27.8590 -0.911 -0.399 0.105 50 59 27
-2.4349 135.2875 -37.3673 -0.978 -0.206 -0.016 84 93 50
-1.1667 143.6099 -40.4130 -0.645 0.080 0.760 89 98 55
56.8542 128.1577 -70.8117 -0.819 -0.520 0.244 95 102 56
57.1221 127.6094 -70.7985 -0.825 -0.508 0.247 91 98 52
40.8399 46.3419 -37.8116 -0.670 -0.733 0.122 102 103 46
97.0543 57.7276 -72.3202 -0.852 -0.523 0.010 18 21 10
96.7757 57.4117 -72.4474 -0.845 -0.535 0.001 23 26 17
22.4329 90.8188 -41.8693 -0.254 -0.943 0.215 107 114 60
99.1637 61.4886 -75.7572 -0.795 -0.575 -0.194 38 42 27
-25.4441 55.8565 -4.9463 0.258 -0.909 -0.327 76 106 65
98.1024 60.1888 -75.9303 -0.082 -0.984 0.161 67 75 29
97.6484 60.1647 -76.0553 -0.114 -0.967 0.230 102 111 57
98.7752 60.2558 -76.7149 -0.220 -0.974 -0.046 64 74 24
98.4930 60.5089 -77.0239 -0.020 -0.997 -0.069 94 103 46
99.0436 60.2445 -77.2505 -0.512 -0.850 -0.123 65 74 29
127.3116 69.5482 -96.0170 0.701 -0.696 -0.155 59 65 29
50.9761 111.6788 -67.6896 -0.560 -0.828 0.035 27 27 17
-27.0111 57.1459 -7.9923 0.397 -0.749 -0.531 75 99 67
35.5125 76.8476 -50.1185 -0.083 -0.883 -0.462 92 96 46
-27.5498 57.4719 -8.3460 0.219 -0.867 -0.447 80 111 82
-26.8764 58.5218 -9.3632 0.396 -0.749 -0.532 7 10 5
-26.5572 58.8652 -9.9436 0.249 -0.828 -0.503 76 82 42
-26.9034 58.9595 -10.0596 0.258 -0.826 -0.501 52 58 32
-23.4388 57.4688 -11.5375 0.086 -0.819 -0.567 77 91 43
-27.0390 58.9380 -10.2570 0.199 -0.844 -0.497 41 49 24
44.6483 104.0685 -67.0179 0.589 0.067 0.805 63 69 25
45.1373 104.7899 -67.5477 0.600 0.062 0.797 69 75 29
46.5920 106.7968 -69.0754 0.637 0.015 0.771 104 111 36
43.6088 101.2659 -65.8972 0.574 0.073 0.816 69 75 29
-24.4804 57.7831 -11.8967 0.320 -0.804 -0.502 73 87 38
44.0583 100.8469 -66.4537 0.632 0.024 0.775 72 78 32
94.4796 43.1989 -75.7713 -0.947 -0.027 0.319 112 121 66
-22.8969 62.0400 -14.8871 -0.210 -0.934 -0.288 76 87 45
17.2961 92.1943 -49.6048 0.142 -0.987 0.074 94 101 50
43.2776 91.3945 -64.3985 -0.637 -0.663 -0.393 111 111 51
43.2430 91.9694 -65.0115 -0.606 -0.766 -0.215 113 113 53
41.9472 91.1394 -64.3843 0.294 -0.954 0.053 61 64 19
56.0847 73.6401 -66.2729 -0.925 0.204 0.320 113 113 48
40.8268 89.4388 -63.5367 0.601 -0.795 0.087 58 62 26
42.6162 91.9772 -65.5062 -0.585 -0.792 -0.175 77 78 40
56.4690 73.2103 -66.7400 -0.924 0.207 0.321 106 114 50
42.1793 92.1985 -65.7618 -0.195 -0.946 0.257 50 51 18
56.3566 73.2514 -67.0896 -0.924 0.207 0.321 97 104 51
35.5269 56.5023 -50.4984 -0.592 -0.690 0.417 32 29 18
35.3477 56.1961 -50.6234 -0.606 -0.659 0.447 32 30 18
44.2076 23.5070 -43.4040 -0.414 -0.892 -0.182 53 56 25
35.1696 55.8940 -50.7495 -0.450 -0.711 0.540 39 43 18
43.9586 23.0125 -43.3478 0.154 -0.962 -0.223 50 54 27
34.5035 56.4401 -51.2613 0.616 -0.788 0.000 53 58 28
34.7819 56.5155 -51.4556 0.453 -0.891 -0.032 49 54 24
41.4626 87.4011 -69.5365 0.237 -0.400 0.885 67 72 43
41.5559 73.6248 -64.8934 0.181 -0.981 -0.076 45 48 27
-23.9307 70.5749 -24.7300 0.404 -0.857 0.320 80 92 52
14.4538 92.6035 -57.5755 0.007 -1.000 -0.026 85 90 49
32.1036 79.0055 -62.6198 -0.865 -0.484 0.129 51 55 24
-4.1370 101.3998 -53.4248 0.371 -0.889 -0.268 80 86 48
-2.4780 102.8704 -55.0701 0.327 -0.883 -0.337 78 85 44
36.0117 87.8955 -72.1242 0.026 -0.810 0.586 16 18 8
36.3908 88.2339 -72.5012 0.670 -0.740 -0.061 22 24 14
76.4859 55.6064 -82.9415 0.895 -0.168 0.414 64 68 54
-4.3205 101.4158 -53.7533 0.374 -0.888 -0.266 80 86 48
35.6525 90.7283 -73.5715 -0.833 -0.251 0.493 20 21 13
35.8897 90.1491 -73.4660 -0.833 -0.251 0.493 20 21 14
36.2475 88.2998 -72.8848 0.344 -0.842 -0.414 21 22 16
36.6462 88.7479 -73.3224 0.339 -0.853 -0.398 27 28 22
75.7177 53.5592 -81.9905 0.886 -0.140 0.442 6 9 2
35.0062 91.8308 -74.1043 -0.796 -0.250 0.551 22 20 14
35.1523 90.6303 -73.6716 -0.857 -0.417 0.303 21 20 15
35.6351 89.5217 -73.4850 -0.595 -0.687 0.417 20 21 16
35.0714 91.1317 -74.2906 -0.854 -0.271 0.444 22 20 16
35.2969 90.4584 -74.1345 -0.859 -0.276 0.430 21 20 16
47.3425 17.3874 -50.1299 -0.867 -0.306 0.393 8 10 5
-26.9941 72.2377 -29.3263 0.047 -0.837 -0.545 53 60 26
35.0434 90.7713 -75.9247 0.711 -0.360 0.604 58 44 35
35.3309 90.4950 -75.9787 0.686 -0.276 0.673 53 42 32
34.7850 90.1102 -75.9224 0.720 -0.397 0.569 60 37 31
29.3085 76.7871 -66.9598 -0.941 -0.336 0.039 72 31 24
106.6901 64.7861 -109.4777 0.723 -0.183 0.666 37 42 22
72.7412 43.4677 -79.1845 0.892 -0.186 0.412 24 28 16
112.7820 70.2948 -116.2290 0.835 -0.180 0.520 74 81 48
35.6962 88.4270 -77.0849 0.229 0.270 0.935 52 19 19
36.8426 85.4349 -76.4300 0.217 0.276 0.936 46 13 13
37.0785 84.9077 -76.3357 0.218 0.276 0.936 47 14 15
106.3957 62.3143 -109.5612 0.777 -0.148 0.611 31 37 26
110.1003 65.9858 -113.5551 0.854 -0.244 0.459 45 50 26
107.5025 63.4865 -111.2564 -0.781 -0.416 0.466 31 37 25
-27.8304 73.7226 -31.9328 0.467 -0.787 -0.404 61 65 37
47.1925 14.7463 -51.4072 -0.855 -0.397 -0.333 19 21 18
85.9399 77.9537 -105.9419 0.007 -0.913 -0.407 4 7 2
44.9807 19.1739 -52.9663 -0.956 -0.216 -0.199 93 98 77
97.6476 89.4003 -121.2997 0.886 -0.186 0.425 101 109 73
121.7813 71.6416 -129.0197 0.792 -0.071 0.607 106 114 63
-6.7889 104.4898 -63.9507 0.546 -0.828 -0.126 63 70 29
22.1359 71.8304 -68.8136 -0.704 -0.543 0.458 80 75 45
22.3672 71.2054 -68.6463 -0.704 -0.586 0.402 82 72 44
22.6228 70.8672 -68.6395 -0.718 -0.603 0.348 72 58 31
73.1193 45.5191 -88.6398 -0.341 -0.231 0.911 127 135 101
73.2868 46.0419 -89.4196 -0.297 -0.262 0.918 134 142 102
10.9780 96.5963 -76.0500 -0.116 -0.993 0.030 69 70 36
-8.9270 104.6469 -67.8159 0.525 -0.833 -0.173 69 75 39
5.8155 92.9586 -72.2200 -0.931 -0.365 -0.021 69 74 33
-8.6929 105.5898 -69.8917 0.398 -0.857 -0.328 59 63 30
6.5173 95.5417 -74.4977 0.262 -0.807 -0.529 82 84 45
6.8198 96.1709 -75.0254 0.134 -0.791 -0.596 82 84 45
7.7416 98.3685 -76.7810 0.223 -0.779 -0.586 75 77 38
5.1030 68.3530 -59.6721 -0.218 0.204 0.955 74 81 39
6.6340 96.5596 -75.5829 0.134 -0.791 -0.596 96 98 59
6.9409 97.0014 -76.0164 0.136 -0.795 -0.591 92 94 54
6.7495 97.8927 -76.8417 0.126 -0.795 -0.593 83 85 46
57.5949 76.7612 -99.2724 -0.257 -0.948 -0.185 11 14 4
68.1815 22.4093 -77.1670 0.779 -0.450 0.437 81 87 59
5.7831 96.0451 -76.1783 0.280 -0.821 -0.497 69 71 34
7.4699 95.3339 -77.3772 -0.935 -0.002 0.354 64 64 33
8.0908 96.2119 -78.2580 -0.185 -0.058 0.981 58 56 35
75.1153 42.8477 -93.8477 0.798 -0.036 0.601 9 11 1
117.0583 65.3670 -134.6524 0.572 -0.696 0.434 77 93 47
-6.0203 126.0669 -87.2918 0.651 -0.216 0.728 76 80 42
75.4704 29.1582 -87.7943 0.896 -0.327 0.299 35 37 24
1.9139 62.1910 -57.7790 -0.736 -0.179 0.653 41 43 21
-6.3649 124.7596 -87.4385 0.698 -0.328 0.636 64 67 37
75.5447 40.9683 -95.5783 0.426 -0.806 -0.412 18 18 18
75.8365 40.8993 -95.7334 0.324 -0.825 -0.463 21 21 20
-9.4780 125.3515 -87.3491 -0.268 -0.898 -0.350 50 52 31
-11.4641 92.9689 -68.2328 0.175 -0.421 0.890 70 71 39
-9.7849 108.3215 -78.0491 -0.663 -0.720 -0.205 51 52 33
-9.6474 124.7645 -87.4545 -0.259 -0.919 -0.297 39 40 22
-9.4346 109.1095 -79.2369 -0.204 -0.833 0.514 35 36 18
-13.3486 94.4950 -69.2331 0.790 -0.612 -0.044 46 45 22
86.3441 40.2763 -105.7904 0.884 -0.355 0.305 99 108 67
-16.2048 86.8593 -64.2599 -0.879 -0.468 -0.093 38 42 16
7.2008 91.9718 -83.5035 -0.863 -0.385 -0.327 58 50 30
7.5167 91.1959 -83.2622 -0.875 -0.375 -0.308 52 44 24
84.3943 36.4664 -103.5335 0.863 -0.130 0.488 12 14 9
-15.9986 42.6939 -39.9478 -0.959 -0.122 0.257 52 54 29
-24.1001 91.2506 -63.2998 -0.274 0.061 0.960 48 50 26
-17.2840 55.8584 -46.8972 -0.154 -0.985 0.075 42 44 20
-19.2848 71.8073 -55.0155 -0.267 -0.763 -0.589 42 44 20
20.7123 105.6395 -102.2625 0.685 -0.526 0.504 36 18 18
99.0475 54.8754 -125.2651 0.831 -0.555 0.038 47 58 19
60.0283 20.3443 -82.5529 0.671 -0.685 -0.284 8 11 18
37.1307 39.9695 -79.8044 -0.885 -0.002 0.466 19 21 18
19.9596 53.0928 -76.5991 -0.843 -0.353 0.406 11 11 9
37.1558 39.4165 -79.8640 -0.881 -0.003 0.474 21 23 20
20.0678 52.8652 -76.9418 -0.845 -0.470 0.254 7 8 4
41.2160 -3.1538 -56.1203 -0.865 -0.356 -0.353 12 16 3
49.2611 9.2849 -70.0632 -0.901 -0.425 -0.084 8 12 3
50.8512 8.6988 -72.0958 0.396 -0.901 -0.178 15 17 13
27.3390 57.1857 -87.8484 0.677 -0.672 -0.299 7 12 16
54.1273 11.9497 -77.5675 -0.726 -0.616 -0.307 78 85 53
54.2865 11.7527 -77.5490 -0.726 -0.616 -0.307 29 34 13
4.2152 86.4609 -96.4436 -0.951 -0.010 0.308 13 16 7
20.5677 49.0883 -82.7097 -0.715 0.170 0.678 6 10 13
26.8521 29.2981 -73.8209 0.649 -0.631 -0.426 4 12 12
51.1745 9.3790 -78.1386 -0.899 -0.356 -0.254 7 7 11
62.3216 52.4245 -117.1145 0.066 -0.740 -0.669 82 90 49
12.2799 83.2661 -103.1541 0.167 -0.947 -0.274 17 20 13
51.5262 10.4831 -79.8682 -0.950 -0.279 -0.143 68 71 59
16.3358 81.3274 -106.8291 0.456 -0.843 -0.285 9 10 3
53.2562 13.9645 -86.5292 -0.062 -0.810 -0.584 16 18 12
-52.3116 75.1060 -55.3838 -0.019 -0.997 -0.070 33 36 19
-46.8759 48.2103 -39.9441 -0.790 -0.566 -0.237 24 32 9
77.0411 34.2985 -123.8049 0.823 -0.567 0.045 6 11 4
