ply
format ascii 1.0
element vertex 900
property float x
property float y
property float z
property float nx
property float ny
property float nz
property uchar diffuse_red
property uchar diffuse_green
property uchar diffuse_blue
end_header
7.6652 -5.5013 -43.7263 -0.168 0.385 0.908 111 102 97
7.6277 -5.6265 -43.6887 -0.365 0.441 0.820 88 79 74
7.5706 -5.7600 -43.6170 -0.367 0.493 0.789 70 63 57
7.5186 -5.8909 -43.5542 -0.229 0.551 0.803 81 75 69
7.4657 -6.0217 -43.4896 -0.230 0.561 0.795 110 105 99
7.4227 -6.1479 -43.4421 -0.201 0.610 0.766 135 130 124
7.3867 -6.3786 -43.4347 0.069 0.176 0.982 149 141 138
7.3632 -6.4960 -43.4214 0.073 0.176 0.982 154 147 141
7.4075 -6.5855 -43.5270 -0.270 0.141 0.953 151 146 140
7.3923 -6.6997 -43.5281 -0.776 0.427 0.464 151 147 138
7.4020 -6.8037 -43.5731 -0.578 0.650 0.493 152 148 139
7.3550 -6.9304 -43.5184 -0.573 0.655 0.492 157 150 142
7.3310 -8.1295 -43.7835 -0.475 0.770 0.426 79 82 63
7.2133 -8.2784 -43.6031 -0.186 0.623 0.759 71 72 54
7.1334 -8.4135 -43.4894 -0.208 0.601 0.772 62 63 45
7.0378 -8.5533 -43.3476 -0.429 0.635 0.642 57 58 42
6.9863 -8.6777 -43.2838 -0.268 0.638 0.721 66 67 51
6.9091 -9.1313 -43.2575 -0.297 -0.524 0.799 104 95 78
6.8503 -9.5778 -43.2635 0.006 0.551 0.835 108 100 83
6.6982 -10.0490 -43.1023 -0.534 0.323 0.782 75 80 58
6.7158 -10.1510 -43.1614 -0.579 0.016 0.815 69 74 52
6.7489 -10.2491 -43.2483 -0.550 -0.089 0.830 66 71 50
6.7515 -10.3556 -43.2807 0.222 0.149 0.964 63 68 46
6.7283 -10.4689 -43.2667 0.241 0.191 0.952 59 64 41
6.6660 -10.5918 -43.1826 -0.120 0.712 0.692 51 59 36
6.6167 -10.7111 -43.1218 -0.165 0.812 0.560 46 54 33
9.9726 11.9744 -43.7385 -0.355 0.548 0.758 44 59 32
9.9063 11.7956 -43.6609 -0.325 0.498 0.804 44 57 32
9.7977 11.5731 -43.5155 -0.420 0.445 0.791 53 62 41
9.7626 11.4281 -43.4875 -0.419 0.405 0.813 62 67 50
9.7146 11.2697 -43.4387 -0.813 0.474 0.338 69 72 55
9.8001 11.1416 -43.6318 -0.835 -0.164 0.525 83 84 68
9.8577 11.0921 -43.7523 -0.902 -0.027 0.430 87 88 72
9.8039 10.9281 -43.6943 -0.849 0.285 0.445 104 106 89
9.7352 10.7492 -43.6121 -0.792 0.454 0.408 108 111 94
9.7635 10.6694 -43.6857 -0.756 0.492 0.431 110 113 96
10.2566 10.7268 -44.5926 -0.400 -0.425 0.812 136 134 121
10.0741 9.7709 -44.4990 0.284 0.218 0.934 101 97 85
10.0788 9.5539 -44.5640 -0.037 0.356 0.934 85 81 69
10.0782 9.4425 -44.5918 -0.386 0.573 0.723 77 73 62
9.9976 9.2545 -44.4897 -0.431 0.525 0.734 77 73 64
9.9190 9.0691 -44.3909 -0.374 0.565 0.735 85 80 74
9.7563 8.8046 -44.1552 -0.310 0.673 0.671 105 97 94
9.6350 8.5804 -43.9864 -0.310 0.673 0.671 129 122 116
9.5813 8.4206 -43.9274 -0.301 0.709 0.638 145 138 132
9.4721 8.2093 -43.7780 -0.062 0.639 0.767 157 150 142
9.3959 8.0295 -43.6821 -0.095 0.627 0.773 162 155 149
9.3586 7.8863 -43.6494 -0.183 -0.909 0.375 158 151 144
9.4305 7.8441 -43.7948 -0.182 -0.909 0.374 142 138 129
9.5537 6.5302 -44.3654 -0.367 0.588 0.721 50 48 43
9.5343 6.4032 -44.3621 -0.612 0.589 0.528 42 39 35
9.4778 6.2443 -44.2976 -0.734 0.477 0.483 60 57 53
8.4934 4.7604 -42.8416 0.167 -0.447 0.879 113 115 107
8.6173 4.7570 -43.0741 0.116 -0.751 0.650 83 86 70
8.6326 4.6627 -43.1271 0.120 -0.741 0.661 75 78 61
8.6387 4.5606 -43.1650 0.114 -0.742 0.661 69 73 55
8.7156 4.5163 -43.3201 0.101 -0.702 0.705 63 67 50
8.7497 4.4365 -43.4045 0.101 -0.702 0.705 58 63 46
8.7775 4.3513 -43.4786 0.102 -0.702 0.705 55 61 43
8.8286 4.2845 -43.5915 0.118 -0.688 0.716 55 61 43
8.9341 4.1521 -43.8229 -0.058 0.491 0.869 55 68 48
8.9152 4.0283 -43.8196 -0.000 0.618 0.786 64 67 47
8.5710 3.4329 -43.3305 -0.071 -0.180 0.981 73 64 42
8.5250 3.2895 -43.2815 0.020 -0.569 0.822 76 64 43
8.5256 3.1826 -43.3103 -0.070 -0.730 0.680 76 64 41
8.6062 3.1370 -43.4728 -0.118 -0.689 0.715 74 64 41
8.6109 3.0327 -43.5086 -0.037 -0.679 0.733 77 64 41
8.6639 2.9650 -43.6252 -0.009 -0.684 0.729 77 64 41
8.7170 2.8969 -43.7422 -0.040 -0.700 0.713 78 64 44
8.7763 2.8329 -43.8695 0.110 -0.170 0.979 72 58 39
8.7815 2.7279 -43.9066 0.231 0.318 0.920 65 54 34
8.7605 2.6033 -43.8996 0.222 0.327 0.919 63 55 36
8.7035 2.4522 -43.8320 0.222 0.327 0.919 60 54 34
8.6525 2.3060 -43.7746 0.227 0.328 0.917 55 54 33
8.6005 2.1594 -43.7153 0.217 0.359 0.908 57 60 39
8.3918 1.6839 -43.4484 -0.640 0.453 0.621 60 77 50
8.3991 1.5814 -43.4886 -0.682 0.475 0.557 66 77 56
8.3743 1.4558 -43.4746 -0.637 0.499 0.588 86 90 76
8.3326 1.3186 -43.4323 -0.598 0.568 0.565 100 98 89
8.2561 1.1572 -43.3310 -0.536 0.587 0.606 115 112 103
8.3522 1.1168 -43.5213 -0.434 0.740 0.514 131 127 116
8.4068 0.5047 -43.7818 0.111 -0.043 0.993 168 164 153
8.4079 0.3969 -43.8117 0.187 -0.096 0.978 160 154 142
8.4625 0.3245 -43.9327 0.033 0.112 0.993 166 160 148
8.5003 0.2404 -44.0250 -0.183 0.364 0.913 173 167 155
8.4590 0.1042 -43.9832 -0.190 0.359 0.914 159 153 141
8.4122 -0.0353 -43.9317 -0.192 0.361 0.913 114 108 96
8.3730 -0.1695 -43.8932 -0.175 0.268 0.947 62 56 44
8.3381 -0.3007 -43.8620 -0.169 0.269 0.948 60 53 43
8.2970 -0.4357 -43.8200 -0.131 0.315 0.940 122 115 105
8.2575 -0.5693 -43.7808 -0.131 0.315 0.940 171 164 154
8.2283 -0.6962 -43.7591 -0.063 0.299 0.952 172 165 158
8.1907 -0.8282 -43.7230 -0.037 0.380 0.924 167 160 154
8.2958 -1.4165 -44.0718 0.062 -0.041 0.997 158 151 144
8.3122 -1.5160 -44.1282 -0.122 0.413 0.903 157 153 141
8.2523 -1.6608 -44.0537 -0.118 0.418 0.901 158 154 142
8.1573 -1.8255 -43.9189 -0.102 0.442 0.891 154 150 138
8.2083 -1.9047 -44.0347 -0.203 0.473 0.857 150 146 134
8.0656 -2.0962 -43.8176 -0.018 0.229 0.973 149 145 133
7.9705 -2.2592 -43.6820 -0.049 0.179 0.983 151 148 133
7.9423 -2.3835 -43.6615 0.026 0.027 0.999 146 143 128
7.9229 -2.5026 -43.6559 -0.225 0.253 0.941 125 122 107
7.8939 -2.6270 -43.6340 -0.121 0.124 0.985 100 97 82
7.8899 -2.7373 -43.6551 -0.105 0.148 0.983 83 80 65
7.8656 -2.8589 -43.6411 0.181 -0.259 0.949 73 71 56
7.8516 -2.9746 -43.6449 0.123 -0.422 0.898 69 67 52
7.8295 -3.0947 -43.6347 0.073 -0.024 0.997 63 64 48
7.8337 -3.2006 -43.6700 0.083 -0.026 0.996 60 61 45
7.8335 -3.3088 -43.6977 0.084 -0.041 0.996 62 63 47
7.8014 -3.4341 -43.6700 0.082 0.062 0.995 95 96 81
7.7396 -3.5747 -43.5909 0.024 0.035 0.999 124 125 108
7.7271 -3.6892 -43.5972 -0.013 -0.137 0.991 134 131 117
7.7017 -3.8103 -43.5810 -0.047 -0.197 0.979 141 132 123
7.5968 -5.3751 -43.7903 -0.169 0.390 0.905 137 128 121
7.5681 -5.4965 -43.7681 -0.159 0.374 0.914 119 110 103
7.5266 -5.6233 -43.7233 -0.159 0.374 0.914 94 85 78
7.4803 -5.7521 -43.6700 -0.273 0.519 0.810 78 71 63
7.4230 -5.8852 -43.5974 -0.265 0.640 0.721 64 59 53
7.3637 -6.0188 -43.5212 -0.230 0.561 0.795 88 84 77
7.3194 -6.1455 -43.4712 -0.201 0.610 0.766 117 112 106
7.2613 -6.2778 -43.3967 -0.282 0.587 0.759 136 131 125
7.2445 -6.3922 -43.3951 -0.311 0.298 0.903 143 136 130
7.2415 -6.5009 -43.4176 -0.305 0.127 0.944 145 138 132
7.2210 -6.6168 -43.4092 -0.318 0.085 0.944 148 141 133
7.2496 -6.7126 -43.4875 -0.581 0.089 0.809 153 146 138
7.2694 -6.8122 -43.5504 -0.563 0.398 0.724 156 149 141
7.2757 -6.9175 -43.5894 -0.536 0.605 0.589 158 149 140
7.1468 -7.7212 -43.5565 -0.114 0.345 0.932 142 134 125
7.1239 -8.1607 -43.6277 0.134 0.244 0.960 96 97 79
7.0883 -8.2809 -43.5921 0.134 0.244 0.960 87 88 70
7.0436 -8.4039 -43.5405 -0.202 0.622 0.757 72 73 55
6.9516 -8.5425 -43.4043 -0.251 0.625 0.739 59 60 42
6.8908 -8.6701 -43.3237 -0.262 0.641 0.722 60 59 41
6.8246 -8.7988 -43.2333 -0.262 0.641 0.722 73 70 53
6.7233 -9.6856 -43.2736 -0.043 0.606 0.794 106 102 83
6.5874 -10.0446 -43.1125 -0.516 0.396 0.760 81 86 64
6.5938 -10.1495 -43.1515 -0.771 0.296 0.564 75 80 57
6.6113 -10.2515 -43.2107 -0.517 0.080 0.852 72 77 54
6.6187 -10.3563 -43.2517 0.224 0.148 0.963 69 74 52
6.6212 -10.4626 -43.2839 0.283 0.169 0.944 63 68 46
6.6119 -10.5720 -43.2948 0.280 0.229 0.932 57 62 40
6.5598 -10.6921 -43.2286 -0.081 0.746 0.661 53 58 38
6.6658 -10.8804 -43.4755 -0.518 0.282 0.808 42 51 34
9.5846 11.4450 -43.3836 -0.511 0.355 0.783 43 52 31
9.5938 11.3467 -43.4262 -0.468 0.330 0.820 49 53 36
9.5511 11.1943 -43.3856 -0.824 0.447 0.347 55 58 41
9.4646 10.4584 -43.4142 -0.652 0.556 0.516 104 107 90
9.6522 10.5410 -43.7452 -0.716 0.513 0.474 107 110 93
9.6938 10.4744 -43.8406 -0.741 0.514 0.432 112 113 97
9.8346 10.0688 -44.2106 0.341 0.016 0.940 129 125 113
9.8102 9.9349 -44.1993 0.341 0.016 0.940 128 124 112
9.7754 9.7909 -44.1714 0.343 0.011 0.939 115 111 99
9.8958 9.7991 -44.3955 0.345 0.049 0.937 110 106 94
9.9397 9.5106 -44.5530 -0.037 0.356 0.934 96 92 81
9.9758 9.4347 -44.6404 -0.386 0.573 0.723 80 73 65
9.8926 9.2442 -44.5336 -0.386 0.573 0.723 75 68 62
9.7936 9.0391 -44.4007 -0.317 0.686 0.655 77 70 64
9.6648 8.8066 -44.2193 -0.317 0.686 0.655 89 81 78
9.5321 8.5713 -44.0310 -0.315 0.684 0.659 104 97 91
9.4209 8.3573 -43.8776 -0.262 0.706 0.658 128 121 115
9.2843 8.1202 -43.6824 -0.244 0.720 0.650 144 137 131
9.1917 7.9254 -43.5590 -0.083 0.645 0.759 153 143 141
9.6510 7.1410 -44.6258 -0.139 0.555 0.820 86 85 69
9.6092 6.9933 -44.5854 -0.179 0.548 0.817 70 71 55
9.4683 6.6486 -44.4102 -0.195 0.535 0.822 66 68 57
9.4017 6.2605 -44.3859 -0.731 0.455 0.508 55 58 49
8.4727 4.7137 -43.0419 0.118 -0.794 0.596 60 67 50
8.5055 4.6343 -43.1241 0.120 -0.743 0.658 56 63 45
8.5312 4.5487 -43.1948 0.124 -0.732 0.670 52 60 42
8.5559 4.4619 -43.2636 0.123 -0.668 0.734 49 58 39
8.5912 4.3835 -43.3502 0.126 -0.674 0.728 48 57 38
8.6229 4.3020 -43.4311 0.126 -0.674 0.728 46 56 36
8.6255 4.1965 -43.4634 0.259 -0.340 0.904 49 59 40
8.7281 4.0632 -43.6907 -0.032 0.460 0.887 57 70 49
8.3915 3.2588 -43.2670 0.058 -0.586 0.808 81 66 45
8.4154 3.1702 -43.3349 -0.070 -0.730 0.680 81 66 43
8.4771 3.1105 -43.4664 -0.043 -0.692 0.721 79 67 43
8.4618 2.9911 -43.4687 -0.038 -0.692 0.721 82 67 44
8.5468 2.9483 -43.6395 0.056 -0.592 0.804 82 67 44
8.5804 2.7574 -43.7522 0.097 -0.157 0.983 77 62 43
8.6128 2.6735 -43.8350 0.233 0.315 0.920 70 58 39
8.5887 2.5469 -43.8224 0.213 0.332 0.919 64 55 36
8.5318 2.3962 -43.7547 0.213 0.332 0.919 56 50 30
8.4752 2.2461 -43.6872 0.213 0.332 0.919 49 47 26
8.4188 2.0965 -43.6201 0.213 0.332 0.919 47 51 29
8.3637 1.9484 -43.5551 0.106 0.170 0.980 45 57 32
8.3385 1.8223 -43.5404 0.102 0.170 0.980 45 63 33
8.2760 1.6694 -43.4627 -0.191 0.180 0.965 49 67 40
8.1903 1.5005 -43.3456 -0.180 0.124 0.976 57 68 47
8.1883 1.3918 -43.3701 -0.134 0.167 0.977 77 80 66
8.3301 1.2768 -43.6662 -0.198 0.516 0.834 107 104 95
8.3091 1.1540 -43.6586 -0.132 0.639 0.758 122 118 107
8.2479 0.6797 -43.6669 0.076 0.181 0.981 153 150 141
8.2181 0.4434 -43.6723 0.075 -0.275 0.958 164 160 148
8.2198 0.3365 -43.7031 0.075 -0.275 0.958 176 170 158
8.3340 0.3043 -43.9261 0.033 0.112 0.993 163 157 145
8.3157 0.1835 -43.9231 0.061 0.097 0.993 153 147 135
8.3485 0.0964 -44.0073 -0.188 0.362 0.913 171 165 153
8.3006 -0.0437 -43.9538 -0.185 0.359 0.915 154 148 136
8.2570 -0.1808 -43.9073 -0.164 0.278 0.947 112 106 94
8.2197 -0.3134 -43.8717 -0.131 0.315 0.940 68 62 50
8.1782 -0.4485 -43.8288 -0.110 0.309 0.945 79 72 62
8.1390 -0.5818 -43.7898 -0.071 0.312 0.947 120 113 103
8.0987 -0.7155 -43.7489 -0.071 0.312 0.947 165 158 152
8.0647 -0.8451 -43.7186 -0.042 0.315 0.948 179 172 166
8.1133 -1.6832 -44.0274 0.185 0.205 0.961 155 151 139
8.0264 -1.8432 -43.9057 -0.097 0.436 0.895 155 152 137
8.0378 -1.9451 -43.9537 -0.097 0.456 0.885 155 152 137
7.8521 -2.3773 -43.7169 0.224 -0.092 0.970 144 141 126
7.8204 -2.5034 -43.6901 -0.214 0.232 0.949 127 124 109
7.7745 -2.6372 -43.6386 -0.110 0.139 0.984 113 110 95
7.7743 -2.7452 -43.6662 -0.105 0.148 0.983 97 94 79
7.7504 -2.8663 -43.6529 -0.096 0.141 0.985 82 80 65
7.7059 -2.9987 -43.6036 0.192 -0.305 0.933 79 77 62
7.6883 -3.1161 -43.6008 0.074 -0.029 0.997 70 71 55
7.6874 -3.2243 -43.6273 0.035 0.078 0.996 66 67 51
7.6655 -3.3439 -43.6172 0.035 0.078 0.996 65 66 50
7.6295 -3.4708 -43.5825 0.024 0.053 0.998 88 89 74
7.6096 -3.5890 -43.5758 0.024 0.053 0.998 112 110 94
7.5729 -3.7159 -43.5398 -0.004 -0.129 0.992 123 120 106
7.5868 -3.8163 -43.5920 -0.016 -0.155 0.988 136 127 118
7.6510 -3.8910 -43.7321 0.006 -0.016 1.000 146 135 130
7.4742 -5.2739 -43.7589 0.007 0.570 0.822 157 148 141
7.4271 -5.6196 -43.7601 -0.150 0.393 0.907 106 95 89
7.3805 -5.7484 -43.7061 -0.273 0.519 0.810 88 80 72
7.3319 -5.8777 -43.6482 -0.261 0.652 0.712 62 57 51
7.2619 -6.0160 -43.5527 -0.230 0.561 0.795 69 66 59
7.2177 -6.1426 -43.5025 -0.208 0.594 0.777 92 87 81
7.1517 -6.2782 -43.4137 -0.296 0.580 0.759 116 111 105
7.1487 -6.3867 -43.4361 -0.320 0.300 0.898 127 122 116
7.1328 -6.5006 -43.4359 -0.313 0.114 0.943 132 127 121
7.1212 -6.6126 -43.4432 -0.318 0.085 0.944 141 137 128
7.1568 -6.7054 -43.5341 -0.431 0.150 0.890 150 146 137
7.1597 -6.8117 -43.5671 -0.466 0.582 0.666 158 151 143
7.1578 -6.9201 -43.5917 -0.399 0.655 0.642 157 150 142
7.1567 -7.0281 -43.6177 -0.473 0.605 0.641 159 150 143
6.8546 -7.7867 -43.2471 0.367 0.181 0.912 141 133 126
7.0289 -8.0453 -43.6417 0.145 0.360 0.922 115 116 97
7.0057 -8.1612 -43.6282 0.156 0.254 0.955 111 110 92
6.9687 -8.2817 -43.5901 0.156 0.254 0.955 107 108 90
6.9330 -8.4015 -43.5540 -0.216 0.624 0.751 93 94 78
6.8510 -8.5367 -43.4350 -0.267 0.680 0.683 71 72 56
6.7915 -8.6637 -43.3563 -0.212 0.713 0.668 64 62 47
6.7194 -8.7944 -43.2548 -0.268 0.690 0.673 74 71 54
6.6703 -9.0237 -43.2220 -0.213 0.349 0.913 102 95 79
6.6966 -9.1221 -43.2969 -0.374 -0.488 0.789 103 97 78
6.6784 -9.5554 -43.3752 -0.573 0.259 0.778 107 102 83
6.6614 -9.6674 -43.3723 -0.560 0.467 0.684 105 102 83
6.6224 -9.7857 -43.3298 -0.645 0.489 0.587 99 100 79
6.5787 -9.9050 -43.2786 -0.665 0.472 0.579 92 94 73
6.5434 -10.0216 -43.2427 -0.783 0.318 0.534 84 89 67
6.5306 -10.1319 -43.2471 -0.771 0.296 0.564 79 84 62
6.4968 -10.2477 -43.2137 -0.449 0.454 0.770 75 80 57
6.4852 -10.3574 -43.2205 0.224 0.148 0.963 73 76 55
6.4854 -10.4640 -43.2484 0.284 0.171 0.944 68 71 50
6.5034 -10.5661 -43.3088 0.281 0.163 0.946 61 66 44
6.5032 -10.6730 -43.3362 0.078 0.376 0.923 57 62 42
6.5432 -10.7701 -43.4366 -0.429 0.503 0.750 45 50 30
6.5815 -10.8679 -43.5339 -0.518 0.282 0.808 45 49 32
6.3729 -11.3449 -43.2659 -0.246 0.821 0.515 41 45 28
6.3008 -11.4675 -43.1622 -0.240 0.819 0.521 41 44 27
9.3701 11.2071 -43.2749 -0.537 0.366 0.760 38 42 25
9.5011 11.2371 -43.5145 -0.845 0.493 0.209 46 49 32
9.5440 11.0658 -43.6401 -0.911 0.123 0.395 60 63 46
9.2063 10.1802 -43.2328 -0.649 0.572 0.501 98 101 84
9.6458 9.5359 -44.2305 0.144 -0.097 0.985 103 99 87
9.6813 9.4609 -44.3170 0.126 -0.100 0.987 99 95 83
9.8260 9.4914 -44.5824 -0.118 0.347 0.930 97 90 80
9.8440 9.3983 -44.6405 -0.260 0.495 0.829 81 74 66
9.7033 9.0424 -44.4675 -0.213 0.622 0.754 67 60 54
9.5004 8.6295 -44.1918 -0.107 0.624 0.774 79 72 66
9.3216 8.3511 -43.9267 -0.315 0.702 0.638 112 105 99
9.1565 8.0870 -43.6837 -0.251 0.718 0.649 130 123 117
9.0339 7.8640 -43.5102 -0.298 0.696 0.654 141 131 128
9.0007 7.7253 -43.4836 -0.435 0.326 0.839 141 133 127
9.2562 6.4360 -44.3017 -0.182 0.544 0.819 60 67 51
9.2437 6.2058 -44.3379 -0.730 0.035 0.683 49 59 42
9.3388 6.0679 -44.5533 -0.522 -0.783 0.337 52 62 44
9.4171 6.0247 -44.7126 -0.464 -0.825 0.322 52 63 44
9.4653 5.9550 -44.8217 -0.464 -0.825 0.322 50 62 44
8.3837 4.6100 -43.1293 0.120 -0.743 0.658 45 56 36
8.4088 4.5242 -43.1990 0.124 -0.732 0.670 45 56 36
8.4052 4.3075 -43.2486 0.253 -0.311 0.916 42 55 35
8.4305 4.2213 -43.3187 0.285 -0.291 0.913 44 56 36
8.4846 4.1581 -43.4374 0.259 -0.340 0.904 47 60 40
8.5464 4.1007 -43.5691 0.255 -0.393 0.884 53 66 46
8.5776 4.0181 -43.6495 -0.120 0.192 0.974 58 70 49
8.4844 2.6488 -43.8299 0.209 0.409 0.888 75 63 43
8.4504 2.5150 -43.8005 0.208 0.393 0.896 64 56 37
8.3966 2.3667 -43.7375 0.202 0.389 0.899 52 48 28
8.3315 2.2105 -43.6553 0.202 0.389 0.899 41 41 19
8.2401 2.0354 -43.5283 0.090 0.169 0.981 37 43 21
8.2087 1.9048 -43.5028 0.090 0.169 0.981 36 48 22
8.1866 1.7813 -43.4933 0.090 0.165 0.982 37 55 25
8.0650 1.3719 -43.3703 0.050 0.186 0.981 71 74 60
8.2218 1.3762 -43.6652 0.062 0.067 0.996 85 82 73
8.0672 0.6223 -43.5695 -0.466 0.097 0.879 152 149 140
8.0565 0.5074 -43.5792 0.189 0.084 0.978 160 156 145
8.0936 0.3171 -43.6988 0.075 -0.275 0.958 172 166 152
8.1287 0.2327 -43.7871 0.117 -0.047 0.992 166 160 148
8.1858 0.1624 -43.9131 0.061 0.097 0.993 165 159 147
8.1761 0.0477 -43.9247 0.046 0.092 0.995 168 162 150
8.1367 -0.0866 -43.8852 0.050 0.136 0.989 163 157 143
8.1120 -0.2110 -43.8709 0.043 0.124 0.991 148 142 130
8.0858 -0.3362 -43.8542 0.043 0.124 0.991 111 105 93
8.0604 -0.4608 -43.8385 -0.110 0.309 0.945 73 67 55
8.0253 -0.5914 -43.8063 -0.064 0.296 0.953 65 58 48
7.9866 -0.7241 -43.7677 -0.064 0.296 0.953 130 123 117
7.9479 -0.8564 -43.7291 -0.064 0.296 0.953 175 168 162
7.9101 -0.9880 -43.6919 -0.049 0.360 0.932 165 158 152
7.8797 -2.0870 -43.9205 0.226 -0.001 0.974 154 151 136
7.7121 -2.5076 -43.7135 -0.214 0.232 0.949 133 130 115
7.6689 -2.6398 -43.6664 -0.206 0.232 0.951 123 120 105
7.6525 -2.7567 -43.6659 -0.214 0.232 0.949 113 110 95
7.5850 -2.9019 -43.5761 0.189 -0.281 0.941 103 101 86
7.5814 -3.0114 -43.5979 0.135 -0.103 0.985 95 93 78
7.5695 -3.1254 -43.6050 0.119 0.058 0.991 84 82 67
7.5632 -3.2364 -43.6220 0.035 0.078 0.996 76 74 59
7.5414 -3.3557 -43.6120 0.035 0.078 0.996 70 68 53
7.5066 -3.4819 -43.5790 0.024 0.053 0.998 78 76 63
7.4867 -3.5998 -43.5723 0.024 0.053 0.998 93 91 76
7.4532 -3.7249 -43.5415 -0.004 -0.129 0.992 110 105 93
7.4455 -3.8363 -43.5560 -0.004 -0.129 0.992 131 122 113
7.4552 -3.9387 -43.6009 0.033 0.112 0.993 140 129 123
7.4270 -4.0606 -43.5794 0.024 -0.079 0.997 147 133 130
7.4476 -4.1576 -43.6436 0.012 -0.104 0.995 153 139 136
7.3081 -5.0864 -43.6218 -0.033 0.562 0.827 159 150 143
7.3126 -5.1918 -43.6577 -0.032 0.574 0.818 159 150 143
7.3489 -5.2826 -43.7499 0.007 0.575 0.818 161 152 145
7.3492 -5.3903 -43.7785 -0.182 0.381 0.906 157 146 140
7.3188 -5.6199 -43.7809 -0.141 0.239 0.961 114 103 97
7.2858 -5.7425 -43.7505 -0.240 0.529 0.814 97 89 82
7.2349 -5.8729 -43.6883 -0.261 0.652 0.712 76 70 64
7.1546 -6.0156 -43.5739 -0.251 0.652 0.715 63 60 53
7.1121 -6.1414 -43.5263 -0.214 0.591 0.778 67 64 57
7.0511 -6.2749 -43.4457 -0.269 0.568 0.777 88 83 77
7.0505 -6.3822 -43.4726 -0.320 0.300 0.898 112 108 99
7.0338 -6.4963 -43.4708 -0.257 0.156 0.954 126 122 113
7.0236 -6.6077 -43.4806 -0.303 0.149 0.941 138 134 125
7.0618 -6.6991 -43.5766 -0.342 0.173 0.923 151 146 140
7.0197 -6.8236 -43.5294 -0.581 0.489 0.650 156 151 145
6.9941 -6.9412 -43.5116 -0.442 0.665 0.602 157 150 144
6.9736 -7.0565 -43.5029 -0.760 0.490 0.427 159 149 146
6.9301 -7.1808 -43.4531 -0.661 0.615 0.430 158 148 146
6.8253 -7.4352 -43.3214 -0.154 0.793 0.590 158 148 146
6.7841 -7.9845 -43.3867 0.186 0.205 0.961 123 121 108
6.8437 -8.0701 -43.5214 0.166 0.285 0.944 118 119 104
6.8658 -8.1695 -43.5891 0.154 0.244 0.957 119 117 102
6.8301 -8.2893 -43.5527 0.154 0.244 0.957 118 116 101
6.7944 -8.4089 -43.5165 0.154 0.244 0.957 111 109 94
6.7524 -8.5303 -43.4688 -0.257 0.669 0.697 94 92 77
6.6957 -8.6564 -43.3946 -0.212 0.713 0.668 76 74 59
6.6489 -8.7787 -43.3381 -0.262 0.601 0.755 68 66 51
6.5918 -8.9041 -43.2628 -0.301 0.569 0.766 88 85 68
6.5843 -9.0130 -43.2771 -0.213 0.342 0.915 87 84 67
6.5747 -9.1227 -43.2873 -0.373 -0.506 0.778 98 96 76
6.5276 -9.2440 -43.2301 -0.367 -0.527 0.766 113 111 92
6.5982 -9.4356 -43.4132 -0.567 0.323 0.757 106 103 86
6.5762 -9.5491 -43.4012 -0.592 0.317 0.741 104 103 85
6.5561 -9.6619 -43.3927 -0.585 0.313 0.748 103 104 86
6.5308 -9.7761 -43.3746 -0.752 0.309 0.582 94 96 75
6.4943 -9.8933 -43.3362 -0.746 0.335 0.576 87 90 69
6.4624 -10.0090 -43.3060 -0.764 0.285 0.579 87 90 69
6.4357 -10.1230 -43.2852 -0.764 0.285 0.579 86 89 68
6.4120 -10.2360 -43.2700 -0.449 0.454 0.770 82 85 64
6.4137 -10.3421 -43.3008 0.224 0.165 0.961 74 77 56
6.3594 -10.4630 -43.2296 0.285 0.170 0.943 69 72 51
6.3601 -10.5693 -43.2587 0.279 0.159 0.947 63 66 45
6.3614 -10.6755 -43.2887 0.190 0.146 0.971 58 61 42
6.4835 -10.8589 -43.5671 -0.522 0.292 0.802 49 49 31
6.4597 -11.1865 -43.6075 -0.260 0.825 0.502 47 47 29
6.3106 -11.3275 -43.3626 -0.232 0.810 0.539 43 43 25
6.2125 -11.4560 -43.2108 -0.172 0.848 0.501 38 37 19
6.1446 -11.5771 -43.1141 -0.204 0.727 0.655 31 32 16
9.4569 11.0700 -43.7096 -0.892 0.201 0.406 49 52 35
9.4074 10.2618 -43.8265 -0.313 0.420 0.852 108 104 92
9.5304 9.4045 -44.2837 0.125 -0.099 0.987 98 94 82
9.6306 9.1727 -44.5344 0.031 0.389 0.921 81 74 66
9.5795 9.0135 -44.4789 -0.108 0.617 0.779 67 61 54
9.3607 8.5852 -44.1754 -0.107 0.624 0.774 64 58 51
9.1912 8.3153 -43.9241 -0.262 0.706 0.658 100 94 86
9.0452 8.0689 -43.7113 -0.263 0.707 0.657 119 112 104
8.9133 7.8369 -43.5214 -0.350 0.705 0.617 131 125 116
8.8987 7.7157 -43.5253 -0.435 0.315 0.843 132 128 118
9.2804 7.7456 -44.2419 0.035 -0.799 0.600 117 119 102
8.9870 6.4998 -44.0103 0.148 -0.537 0.830 63 74 51
9.1342 6.4117 -44.3126 -0.182 0.544 0.819 47 59 39
9.2005 6.3602 -44.4519 -0.681 0.458 0.571 46 59 39
9.2914 5.9988 -44.7188 -0.501 -0.796 0.339 46 61 36
9.3361 5.9265 -44.8224 -0.501 -0.796 0.339 45 61 36
9.3927 5.8639 -44.9461 -0.455 -0.812 0.366 45 60 37
9.4814 5.8278 -45.1239 -0.460 -0.820 0.340 42 57 34
9.5617 5.7840 -45.2878 -0.433 -0.827 0.359 40 53 33
8.0738 4.4281 -42.8175 0.246 -0.246 0.938 38 51 31
8.1036 4.3473 -42.8952 0.248 -0.249 0.936 39 52 32
8.2858 4.1790 -43.2850 0.247 -0.383 0.890 43 58 37
8.3133 4.0946 -43.3591 0.245 -0.384 0.890 46 61 40
8.3442 4.0127 -43.4391 0.255 -0.373 0.892 53 67 47
8.5058 4.0360 -43.7398 -0.628 0.505 0.592 59 70 48
8.4888 3.9145 -43.7393 -0.632 0.526 0.569 75 73 52
8.3268 3.4627 -43.5496 -0.590 0.592 0.549 90 77 53
8.3789 2.5330 -43.8912 0.207 0.478 0.853 63 56 36
8.2754 2.3474 -43.7432 0.213 0.443 0.871 49 45 25
8.1789 2.0604 -43.6349 -0.168 0.714 0.679 35 41 19
8.0761 1.8773 -43.4876 0.098 0.150 0.984 34 46 21
7.9948 1.7107 -43.3767 0.087 0.331 0.940 34 52 22
7.8974 1.5331 -43.2382 0.063 0.328 0.943 36 53 26
7.9425 1.4591 -43.3431 0.032 0.133 0.991 46 55 35
7.9346 1.3466 -43.3574 0.052 0.179 0.982 66 68 55
7.8724 1.1954 -43.2788 -0.155 0.738 0.657 78 75 66
7.9448 0.4971 -43.5985 -0.385 -0.039 0.922 160 156 145
8.0187 0.3321 -43.7818 0.108 -0.168 0.980 168 162 148
7.9897 0.2047 -43.7599 0.164 0.135 0.977 168 162 150
8.0467 0.1349 -43.8863 0.050 0.109 0.993 167 161 149
8.0481 0.0278 -43.9170 0.046 0.092 0.995 168 162 148
8.0079 -0.1068 -43.8759 0.050 0.136 0.989 165 159 145
7.9956 -0.2230 -43.8829 0.047 0.116 0.992 154 148 134
7.9871 -0.3366 -43.8964 -0.131 0.315 0.940 123 117 105
7.9476 -0.4702 -43.8562 -0.130 0.341 0.931 91 85 73
7.9062 -0.6047 -43.8127 -0.130 0.341 0.931 57 51 40
7.8673 -0.7374 -43.7734 -0.094 0.349 0.932 82 75 68
7.8244 -0.8723 -43.7273 -0.094 0.349 0.932 147 140 134
7.7882 -1.0026 -43.6927 -0.049 0.360 0.932 179 172 166
7.7420 -1.1391 -43.6404 -0.155 0.342 0.927 158 151 145
7.8211 -1.4134 -43.8621 -0.180 0.203 0.962 160 153 147
7.7155 -2.1241 -43.8473 0.167 -0.072 0.983 155 152 137
7.7059 -2.2376 -43.8587 0.159 -0.083 0.984 153 150 135
7.4981 -2.6795 -43.5795 -0.081 0.136 0.987 134 130 118
7.4583 -2.8091 -43.5378 0.193 -0.178 0.965 130 127 112
7.4720 -2.9087 -43.5898 0.199 -0.161 0.967 125 122 107
7.5028 -2.9989 -43.6717 0.164 0.144 0.976 109 107 92
7.4736 -3.1224 -43.6485 0.164 0.144 0.976 95 93 78
7.4565 -3.2391 -43.6466 0.146 0.187 0.971 84 82 67
7.4306 -3.3606 -43.6291 0.144 0.218 0.965 72 70 57
7.3905 -3.4895 -43.5866 0.142 0.213 0.967 66 64 51
7.3622 -3.6117 -43.5649 0.131 0.200 0.971 77 74 59
7.2991 -3.7522 -43.4818 -0.071 0.334 0.940 101 95 83
7.2693 -3.8748 -43.4572 -0.049 0.328 0.943 126 117 108
7.2753 -3.9787 -43.4956 0.119 0.217 0.969 136 125 119
7.2456 -4.1010 -43.4711 0.182 -0.107 0.977 142 131 127
7.2298 -4.2160 -43.4711 0.142 -0.193 0.971 149 135 132
7.1739 -5.2073 -43.6237 -0.043 0.745 0.666 161 150 144
7.1244 -5.3376 -43.5638 -0.100 0.626 0.774 163 152 146
7.0957 -5.4580 -43.5407 0.024 -0.165 0.986 158 147 141
7.1926 -5.5209 -43.7410 -0.086 -0.074 0.994 141 130 124
7.1694 -5.6389 -43.7279 -0.093 -0.098 0.991 124 113 107
7.1601 -5.7507 -43.7393 -0.392 0.267 0.880 110 102 94
7.1401 -5.8671 -43.7318 -0.367 0.549 0.751 88 82 76
7.0691 -6.0059 -43.6332 -0.254 0.651 0.715 73 70 63
7.0103 -6.1388 -43.5563 -0.214 0.591 0.778 64 61 54
6.9535 -6.2703 -43.4828 -0.269 0.568 0.777 64 59 53
6.9526 -6.3777 -43.5091 -0.320 0.300 0.898 85 82 73
6.9441 -6.4882 -43.5218 -0.284 0.175 0.943 100 97 88
6.9483 -6.5935 -43.5572 -0.282 0.175 0.943 117 114 105
6.9578 -6.6967 -43.6023 -0.309 0.210 0.927 136 131 125
6.9601 -6.8030 -43.6343 -0.191 0.283 0.940 150 145 141
6.8619 -6.9499 -43.4864 -0.494 0.414 0.765 161 153 151
6.8234 -7.0722 -43.4451 -0.494 0.414 0.765 158 150 149
16.7075 -3.2792 -61.2148 -0.877 0.389 0.283 158 148 148
6.5826 -7.6977 -43.1513 0.315 0.087 0.945 154 144 144
6.5655 -7.8102 -43.1482 0.152 0.094 0.984 148 140 138
6.5449 -7.9238 -43.1388 0.197 0.187 0.962 129 124 117
6.6384 -7.9959 -43.3350 0.089 0.296 0.951 123 120 109
6.6771 -8.0886 -43.4328 -0.020 0.253 0.967 123 121 108
6.6909 -8.1904 -43.4856 0.149 0.103 0.983 124 121 106
6.7118 -8.2901 -43.5510 0.177 0.266 0.947 124 120 108
6.6663 -8.4128 -43.4968 0.154 0.298 0.942 126 122 110
6.6261 -8.5335 -43.4520 0.154 0.298 0.942 119 117 104
6.5089 -8.8925 -43.3232 -0.293 0.571 0.767 76 74 59
6.4849 -9.0067 -43.3074 -0.213 0.345 0.914 72 72 54
6.4432 -9.1264 -43.2596 -0.298 0.319 0.900 83 85 66
6.4599 -9.2275 -43.3176 -0.191 0.254 0.948 106 108 90
6.4746 -9.4361 -43.4000 -0.150 0.374 0.915 101 102 84
6.5547 -9.5187 -43.5735 -0.105 -0.275 0.956 100 101 83
6.5464 -9.6282 -43.5864 -0.101 -0.242 0.965 100 102 83
6.4670 -9.7585 -43.4696 -0.280 -0.272 0.921 90 93 72
6.4142 -9.8805 -43.4013 -0.167 -0.046 0.985 84 87 66
6.3481 -10.0058 -43.3085 -0.537 0.250 0.805 84 87 66
6.3322 -10.1166 -43.3072 -0.554 0.363 0.749 84 87 66
6.2536 -10.3506 -43.2192 0.229 0.167 0.959 74 77 56
6.2557 -10.4563 -43.2507 0.215 -0.370 0.904 70 73 52
6.2650 -10.5602 -43.2955 0.214 -0.368 0.905 63 66 45
6.2543 -10.6693 -43.3037 0.216 -0.370 0.903 59 62 43
6.3678 -11.1757 -43.6513 -0.300 0.803 0.515 52 49 30
6.2336 -11.3135 -43.4325 -0.225 0.806 0.548 49 45 26
6.1277 -11.4438 -43.2655 -0.176 0.850 0.496 43 39 22
9.3516 11.1630 -43.7209 -0.843 0.503 0.191 45 48 31
9.3940 10.9914 -43.8467 -0.745 0.648 0.159 56 59 42
9.2641 10.7484 -43.6625 -0.732 0.654 0.191 64 67 50
9.2861 9.7986 -43.9529 -0.976 0.198 0.089 118 112 100
9.3894 9.3573 -44.2654 0.143 -0.051 0.988 98 94 82
9.3306 8.7544 -44.3109 -0.211 0.707 0.675 59 57 46
9.2217 8.5411 -44.1590 -0.107 0.624 0.774 60 58 46
9.0711 8.2889 -43.9377 -0.263 0.707 0.657 87 86 73
8.9319 8.0487 -43.7350 -0.263 0.707 0.657 104 102 89
8.8159 7.8314 -43.5705 -0.350 0.705 0.617 119 119 104
8.8054 7.7143 -43.5812 -0.437 0.409 0.801 121 121 105
8.9173 7.7115 -43.7954 0.246 -0.500 0.830 114 117 98
8.9433 7.6278 -43.8669 -0.047 -0.845 0.533 110 115 93
8.2436 3.4711 -43.6195 -0.584 0.576 0.572 95 80 57
8.0624 2.0445 -43.6470 -0.168 0.714 0.679 41 48 25
7.9655 1.8657 -43.5089 -0.102 0.602 0.792 36 50 24
7.8281 1.6580 -43.3012 -0.183 0.671 0.719 34 52 22
7.7512 0.4304 -43.4757 -0.463 -0.153 0.873 161 157 146
7.7301 0.3091 -43.4671 -0.423 0.029 0.905 168 162 150
7.8667 0.0797 -43.7876 0.074 0.235 0.969 168 162 150
7.8518 -0.0378 -43.7900 0.033 0.179 0.983 168 162 150
7.8664 -0.1358 -43.8433 0.048 0.117 0.992 168 162 150
7.8713 -0.2404 -43.8801 0.051 0.109 0.993 163 157 145
7.8329 -0.3732 -43.8416 0.042 0.102 0.994 141 135 123
7.8260 -0.4854 -43.8578 -0.110 0.309 0.945 118 112 100
7.7941 -0.6138 -43.8305 -0.131 0.315 0.940 73 66 56
7.7461 -0.7521 -43.7752 -0.072 0.312 0.947 56 49 42
7.7118 -0.8814 -43.7436 -0.049 0.360 0.932 99 92 86
7.6669 -1.0172 -43.6934 -0.049 0.360 0.932 146 139 133
7.6221 -1.1526 -43.6435 -0.049 0.360 0.932 149 142 136
7.5875 -1.2814 -43.6110 -0.033 0.348 0.937 160 153 147
7.5918 -1.4931 -43.6747 -0.123 0.232 0.965 160 153 147
7.6042 -1.5928 -43.7245 -0.189 0.224 0.956 160 153 146
7.5114 -2.1851 -43.7022 0.100 -0.163 0.981 154 150 138
7.5140 -2.2909 -43.7350 0.094 -0.160 0.983 152 148 136
7.5737 -2.3639 -43.8679 0.108 -0.213 0.971 149 145 133
7.3074 -2.7309 -43.4560 -0.151 0.056 0.987 143 137 125
7.3084 -2.8372 -43.4856 -0.162 0.073 0.984 145 139 127
7.3912 -2.8976 -43.6593 0.133 0.199 0.971 138 134 122
7.3713 -3.0158 -43.6524 0.138 0.204 0.969 121 117 105
7.3509 -3.1343 -43.6445 0.139 0.208 0.968 104 100 88
7.3331 -3.2512 -43.6412 0.140 0.210 0.968 92 88 76
7.3102 -3.3708 -43.6287 0.072 0.319 0.945 71 67 55
7.2610 -3.5044 -43.5699 0.079 0.318 0.945 65 61 49
7.2211 -3.6328 -43.5272 0.069 0.331 0.941 75 69 57
7.1680 -3.7678 -43.4612 -0.078 0.332 0.940 94 87 77
7.1515 -3.8832 -43.4599 -0.048 0.326 0.944 114 105 96
7.1224 -4.0050 -43.4364 0.174 0.151 0.973 125 114 108
7.0911 -4.1278 -43.4088 0.248 -0.033 0.968 136 125 119
7.0863 -4.2368 -43.4281 0.156 -0.140 0.978 149 138 132
7.1261 -4.3233 -43.5267 0.179 -0.136 0.974 155 144 138
7.2067 -4.3896 -43.6978 0.183 -0.139 0.973 154 143 137
7.2167 -4.4919 -43.7435 0.177 -0.146 0.973 158 147 141
7.2098 -4.6027 -43.7593 0.175 -0.104 0.979 164 153 147
7.2023 -4.7138 -43.7741 0.015 0.325 0.945 168 157 151
6.8840 -5.4007 -43.3467 -0.008 -0.133 0.991 161 150 146
6.9300 -5.4858 -43.4566 -0.038 -0.141 0.989 157 143 140
6.9724 -5.5730 -43.5604 -0.097 -0.052 0.994 147 133 130
6.9901 -5.6719 -43.6201 -0.121 -0.059 0.991 134 122 118
7.0087 -5.7706 -43.6812 -0.217 0.005 0.976 121 112 107
7.0142 -5.8754 -43.7192 -0.397 0.260 0.880 94 89 80
6.9848 -5.9956 -43.6946 -0.387 0.515 0.764 83 80 71
6.9289 -6.1273 -43.6224 -0.334 0.577 0.745 72 69 60
6.8663 -6.2614 -43.5380 -0.315 0.574 0.756 63 59 50
6.8589 -6.3714 -43.5527 -0.327 0.296 0.898 78 75 66
6.8641 -6.4761 -43.5900 -0.295 0.207 0.933 92 89 80
6.8316 -6.5967 -43.5596 -0.106 0.122 0.987 109 106 97
6.8026 -6.7156 -43.5353 -0.142 0.359 0.922 124 121 114
6.7886 -6.8282 -43.5381 -0.091 0.477 0.874 141 136 132
6.7374 -6.9558 -43.4738 -0.091 0.477 0.874 154 146 145
6.6894 -7.0817 -43.4152 -0.078 0.386 0.919 155 146 148
6.4228 -7.9273 -43.1279 0.098 0.095 0.991 132 126 120
6.5319 -7.9933 -43.3533 0.097 0.239 0.966 127 123 113
6.5259 -8.1019 -43.3701 0.131 0.103 0.986 127 125 112
6.5371 -8.2043 -43.4184 0.129 0.088 0.988 128 124 112
6.5601 -8.3027 -43.4879 0.180 0.245 0.953 133 129 117
6.5372 -8.4173 -43.4742 0.154 0.298 0.942 141 137 125
6.4973 -8.5377 -43.4296 0.154 0.298 0.942 138 134 122
6.4928 -8.7523 -43.4772 -0.505 0.554 0.662 95 93 78
6.4413 -8.8759 -43.4113 -0.664 0.646 0.377 75 77 60
6.3513 -9.0116 -43.2750 -0.690 0.661 0.295 65 68 49
6.3188 -9.2342 -43.2713 -0.687 0.543 0.483 82 87 67
6.3756 -9.3227 -43.4029 -0.201 0.401 0.894 93 97 78
6.4160 -9.4168 -43.5046 -0.176 -0.046 0.983 94 97 78
6.3374 -9.5472 -43.3887 -0.509 -0.097 0.856 95 98 79
6.2998 -9.6648 -43.3477 -0.180 -0.059 0.982 95 98 79
6.3112 -9.7678 -43.3964 -0.169 -0.055 0.984 84 87 66
6.3056 -9.8758 -43.4141 -0.177 0.078 0.981 79 82 61
6.2787 -9.9899 -43.3926 0.176 0.363 0.915 78 81 60
6.1797 -10.2300 -43.2664 0.176 0.485 0.857 77 80 59
6.1293 -10.3498 -43.2016 0.177 0.486 0.856 74 77 56
6.0676 -10.4721 -43.1159 0.057 0.483 0.874 69 72 51
6.0917 -10.5715 -43.1880 0.204 -0.342 0.917 63 65 44
6.0986 -10.6757 -43.2283 0.204 -0.342 0.917 60 62 41
6.1516 -10.7683 -43.3537 0.105 -0.092 0.990 57 57 39
6.1522 -11.4072 -43.5219 -0.356 0.886 0.298 49 45 26
6.0019 -11.5469 -43.2717 -0.376 0.881 0.287 40 39 21
5.7458 -11.8130 -42.8529 -0.374 0.878 0.299 35 39 24
9.8145 11.6366 -44.7211 -0.756 0.648 0.095 48 52 35
9.7423 11.4510 -44.6314 -0.712 0.689 0.134 51 54 37
9.5825 11.1746 -44.3975 -0.725 0.676 0.129 54 57 40
9.1950 10.6633 -43.7887 -0.732 0.659 0.173 59 63 46
9.0500 9.9763 -43.6909 -0.035 0.314 0.949 101 99 86
9.2522 9.8567 -44.1098 -0.992 0.122 0.024 112 108 96
9.2237 9.7196 -44.0911 -0.992 0.126 0.011 113 110 97
9.1363 9.5240 -43.9749 -0.999 -0.027 -0.047 109 108 95
9.1357 9.4152 -44.0022 -0.998 -0.014 -0.054 105 104 90
9.2791 8.9035 -44.4114 -0.129 0.581 0.804 80 81 65
9.2296 8.7465 -44.3576 -0.263 0.733 0.627 71 74 56
9.0775 8.4915 -44.1328 -0.225 0.707 0.671 65 68 50
8.9480 8.2594 -43.9456 -0.337 0.742 0.580 56 59 41
8.8074 8.0176 -43.7394 -0.342 0.738 0.581 81 84 65
8.7003 7.8086 -43.5888 -0.338 0.677 0.654 103 107 87
8.6335 7.6384 -43.5053 -0.314 0.424 0.850 108 114 92
8.6744 7.5698 -43.6017 -0.179 0.026 0.984 104 112 88
8.9041 7.5691 -44.0423 0.006 -0.810 0.586 99 112 84
8.1265 3.3454 -43.6592 0.006 0.743 0.669 108 92 69
8.1899 2.7499 -43.9369 0.252 0.331 0.909 79 65 46
7.9604 2.1462 -43.6551 -0.112 0.611 0.784 52 52 31
7.9067 1.9991 -43.5909 -0.120 0.608 0.785 39 49 25
7.8569 1.8553 -43.5330 -0.096 0.592 0.800 36 51 24
7.7393 1.6619 -43.3583 -0.166 0.670 0.723 34 52 22
7.3799 0.6621 -42.9314 0.150 0.503 0.851 106 103 94
7.3506 0.4311 -42.9359 0.137 0.519 0.844 135 133 121
7.7281 0.4804 -43.6467 -0.355 0.024 0.934 162 158 147
7.7168 0.3656 -43.6551 -0.346 0.035 0.937 168 162 150
7.6118 -0.1332 -43.5847 0.097 0.232 0.968 169 163 151
7.6599 -0.2082 -43.6966 0.100 0.046 0.994 173 167 155
7.7441 -0.2599 -43.8715 0.051 0.109 0.993 173 167 155
7.7066 -0.3920 -43.8343 0.042 0.102 0.994 159 152 142
7.7099 -0.4974 -43.8683 -0.118 0.307 0.944 142 135 125
7.6792 -0.6248 -43.8428 -0.131 0.315 0.940 113 106 96
7.6330 -0.7619 -43.7901 -0.143 0.339 0.930 61 54 46
7.5923 -0.8952 -43.7471 -0.040 0.357 0.933 44 37 29
7.5505 -1.0289 -43.7020 -0.047 0.372 0.927 93 86 78
7.5016 -1.1668 -43.6443 -0.049 0.360 0.932 141 134 126
7.4659 -1.2961 -43.6099 -0.033 0.348 0.937 160 153 145
7.5123 -1.6960 -43.8038 0.059 0.188 0.981 159 152 142
7.4523 -1.8395 -43.7264 0.041 -0.289 0.957 158 151 141
7.3952 -2.1949 -43.7101 0.094 -0.144 0.985 164 157 148
7.4170 -2.2893 -43.7766 0.151 -0.075 0.986 158 151 143
7.4288 -2.3898 -43.8255 0.109 -0.190 0.976 158 151 143
7.4657 -2.4759 -43.9190 0.125 0.034 0.992 158 151 143
7.3736 -2.6363 -43.7843 0.226 0.273 0.935 159 150 142
7.2623 -2.9135 -43.6438 0.059 0.359 0.931 153 146 136
7.2395 -3.0332 -43.6315 0.229 0.246 0.942 140 134 122
7.2276 -3.1467 -43.6384 0.153 0.233 0.960 129 123 111
7.1975 -3.2702 -43.6130 0.200 0.191 0.961 111 105 93
7.1742 -3.3898 -43.5997 0.148 0.192 0.970 79 72 62
7.1338 -3.5185 -43.5560 0.078 0.321 0.944 80 73 63
7.0962 -3.6454 -43.5172 0.073 0.330 0.941 82 75 65
7.0529 -3.7750 -43.4682 -0.078 0.332 0.940 80 73 63
7.0343 -3.8914 -43.4630 -0.048 0.326 0.944 98 89 80
6.9746 -4.0291 -43.3846 0.156 0.170 0.973 113 104 97
6.9530 -4.1465 -43.3741 0.248 -0.033 0.968 128 119 112
6.9262 -4.2666 -43.3542 0.180 -0.198 0.963 146 135 129
6.9587 -4.3563 -43.4400 0.177 -0.123 0.976 150 141 132
7.0076 -4.4380 -43.5552 0.162 -0.128 0.978 150 141 132
7.0413 -4.5278 -43.6433 0.195 -0.072 0.978 155 146 137
7.0459 -4.6324 -43.6796 0.100 0.245 0.964 161 152 143
7.0374 -4.7437 -43.6924 0.086 0.360 0.929 165 154 148
6.7732 -5.6161 -43.4147 -0.042 -0.043 0.998 151 137 134
6.8056 -5.7077 -43.5009 -0.063 -0.063 0.996 138 126 122
6.8256 -5.8052 -43.5647 -0.143 -0.203 0.969 126 117 112
6.8422 -5.9044 -43.6227 -0.149 -0.201 0.968 103 98 89
6.8746 -5.9969 -43.7090 -0.370 0.519 0.771 92 89 80
6.8368 -6.1206 -43.6689 -0.334 0.577 0.745 81 78 69
6.7728 -6.2553 -43.5816 -0.315 0.574 0.756 73 69 60
6.7454 -6.3738 -43.5601 -0.293 0.205 0.934 78 76 64
6.7439 -6.4811 -43.5854 -0.104 0.115 0.988 86 83 74
6.7206 -6.5977 -43.5713 -0.106 0.122 0.987 99 96 87
6.6745 -6.7236 -43.5160 -0.164 0.349 0.923 110 105 99
6.6656 -6.8338 -43.5278 -0.079 0.371 0.925 126 121 118
6.6062 -6.9646 -43.4483 -0.168 0.342 0.925 144 135 136
6.5552 -7.0915 -43.3838 -0.196 0.348 0.917 150 139 143
6.5189 -7.2122 -43.3458 -0.196 0.348 0.917 156 145 151
6.5296 -7.3141 -43.3931 0.012 -0.159 0.987 161 150 154
6.5399 -7.4164 -43.4395 0.005 -0.152 0.988 164 153 157
6.4306 -7.7767 -43.3246 0.163 0.006 0.987 147 139 138
6.3452 -8.1261 -43.2524 -0.396 -0.267 0.879 134 130 118
6.3519 -8.2296 -43.2925 -0.737 -0.520 0.432 134 130 118
6.3758 -8.3271 -43.3639 0.151 0.142 0.978 138 134 122
6.3748 -8.4336 -43.3898 0.135 0.333 0.933 149 143 131
6.4545 -8.5125 -43.5632 -0.352 0.667 0.657 150 144 132
6.4501 -8.6206 -43.5833 -0.493 0.530 0.690 133 129 117
6.4520 -8.7266 -43.6147 -0.647 0.624 0.438 111 109 94
6.3899 -8.8539 -43.5290 -0.648 0.627 0.433 89 91 75
6.3121 -8.9859 -43.4145 -0.675 0.664 0.323 70 75 55
6.2366 -9.1164 -43.3039 -0.675 0.664 0.323 65 70 50
6.2042 -9.2327 -43.2722 -0.667 0.615 0.420 72 77 57
6.2579 -9.3218 -43.3986 -0.203 0.398 0.895 86 91 71
6.2128 -9.4420 -43.3436 -0.208 0.402 0.892 88 93 73
6.1998 -9.5520 -43.3475 -0.187 -0.053 0.981 89 92 73
6.1890 -9.6613 -43.3555 -0.187 -0.053 0.981 89 92 73
6.1789 -9.7704 -43.3648 -0.205 0.067 0.976 79 82 61
6.1846 -9.8749 -43.4032 -0.179 0.077 0.981 73 76 55
6.1443 -9.9926 -43.3568 0.162 0.391 0.906 74 76 55
6.0072 -10.2428 -43.1596 0.096 0.580 0.809 74 77 56
5.9718 -10.3580 -43.1219 0.053 0.561 0.826 74 77 56
5.8957 -10.4838 -43.0090 0.021 0.518 0.855 70 73 52
5.8903 -10.5905 -43.0267 0.139 -0.094 0.986 64 66 45
5.8980 -10.6938 -43.0685 0.206 -0.370 0.906 60 62 41
6.0056 -10.7720 -43.2953 0.101 -0.107 0.989 63 62 42
5.9660 -11.5239 -43.4165 -0.264 0.848 0.460 46 45 27
5.8071 -11.6645 -43.1488 -0.381 0.881 0.280 39 42 23
9.1289 10.6890 -43.8917 -0.690 0.699 0.188 52 56 39
8.7626 10.2014 -43.3141 -0.516 0.721 0.463 61 65 48
8.9441 9.9608 -43.7270 -0.068 0.317 0.946 95 96 82
9.1104 8.8298 -44.3449 -0.107 0.604 0.790 79 85 63
8.9950 8.5009 -44.2089 -0.420 0.749 0.512 62 70 46
8.8402 8.2441 -43.9782 -0.390 0.744 0.542 58 66 42
8.6995 8.0019 -43.7707 -0.379 0.745 0.549 75 82 58
8.5957 7.7959 -43.6248 -0.351 0.678 0.646 88 96 72
8.5268 7.6237 -43.5374 -0.314 0.424 0.850 93 101 77
8.5113 7.5024 -43.5395 -0.205 0.067 0.976 94 103 79
8.7164 7.4802 -43.9405 0.039 -0.818 0.575 89 102 74
8.7590 7.4119 -44.0405 0.039 -0.818 0.575 87 100 72
8.8465 7.1679 -44.2733 0.296 -0.548 0.783 76 89 61
8.2067 4.1290 -43.8395 0.389 -0.009 0.921 47 60 40
8.0240 3.3383 -43.6951 -0.030 0.796 0.604 109 93 70
7.9333 2.6255 -43.7079 -0.159 0.532 0.832 84 70 51
7.9649 2.5426 -43.7906 -0.113 0.387 0.915 78 68 47
7.8385 2.1256 -43.6566 -0.277 0.034 0.960 54 56 34
7.7896 1.9822 -43.6002 -0.576 0.207 0.791 39 49 25
7.7726 1.8628 -43.5987 -0.584 0.220 0.781 36 51 24
7.7265 1.7220 -43.5470 -0.589 0.207 0.781 34 52 22
7.6860 1.5856 -43.5047 -0.581 0.205 0.787 36 51 25
7.6774 1.4729 -43.5179 -0.589 0.207 0.781 46 52 33
7.2102 0.3986 -42.9000 0.136 0.524 0.841 136 134 122
7.6727 0.5083 -43.7622 0.082 0.044 0.996 164 157 147
7.6402 0.3789 -43.7337 0.024 0.065 0.998 169 160 151
7.4705 -0.1633 -43.5494 0.092 0.228 0.969 171 162 153
7.5299 -0.2304 -43.6813 -0.103 0.226 0.969 176 167 158
7.5384 -0.3316 -43.7243 -0.015 -0.172 0.985 178 169 160
7.5385 -0.4385 -43.7527 -0.036 -0.167 0.985 168 159 150
7.5786 -0.5195 -43.8512 -0.170 0.215 0.962 156 147 140
7.5494 -0.6457 -43.8281 -0.170 0.215 0.962 149 141 133
7.5116 -0.7772 -43.7900 -0.147 0.216 0.965 106 100 90
7.4790 -0.9052 -43.7607 -0.083 0.322 0.943 39 35 24
7.4321 -1.0421 -43.7064 -0.063 0.325 0.944 47 43 32
7.4006 -1.1689 -43.6789 -0.077 0.330 0.941 119 115 104
7.3602 -1.3010 -43.6359 -0.077 0.330 0.941 146 142 131
7.3284 -1.4276 -43.6079 -0.014 0.379 0.925 141 137 126
7.2766 -1.6728 -43.5725 -0.040 0.257 0.966 169 165 155
7.2993 -1.7656 -43.6406 0.004 0.171 0.985 158 149 143
7.3307 -1.8533 -43.7242 0.037 -0.282 0.959 157 148 143
7.2917 -1.9837 -43.6834 0.104 -0.278 0.955 163 154 149
7.2879 -2.0928 -43.7046 0.065 -0.274 0.960 168 159 154
7.2891 -2.1990 -43.7350 0.065 -0.274 0.960 168 159 155
7.3001 -2.2995 -43.7826 0.151 -0.073 0.986 162 153 149
7.2961 -2.4089 -43.8036 0.143 -0.087 0.986 162 152 150
7.2931 -2.5178 -43.8264 0.181 0.014 0.983 162 152 150
7.1367 -2.9279 -43.6330 0.059 0.363 0.930 154 145 136
7.0972 -3.0568 -43.5908 0.229 0.246 0.942 144 135 126
7.0895 -3.1677 -43.6050 0.145 0.240 0.960 135 126 117
7.0587 -3.2913 -43.5781 0.142 0.183 0.973 125 116 107
7.0354 -3.4106 -43.5646 0.147 0.195 0.970 107 98 89
7.0034 -3.5345 -43.5356 0.053 0.328 0.943 97 88 79
6.9658 -3.6612 -43.4964 0.052 0.322 0.945 81 72 63
6.9283 -3.7876 -43.4574 -0.066 0.306 0.950 69 60 51
6.9175 -3.8995 -43.4660 -0.048 0.326 0.944 87 78 69
6.8895 -4.0205 -43.4438 -0.007 -0.002 1.000 99 90 81
6.8385 -4.1533 -43.3805 0.099 -0.198 0.975 116 107 98
6.8217 -4.2680 -43.3784 0.099 -0.229 0.968 130 121 112
6.8270 -4.3714 -43.4157 0.096 -0.230 0.969 139 130 121
6.8187 -4.4817 -43.4287 0.099 -0.229 0.968 145 136 127
6.7943 -4.6002 -43.4128 0.153 -0.217 0.964 149 142 132
6.9464 -4.6304 -43.7139 0.099 0.284 0.954 156 147 138
6.9054 -4.7576 -43.6682 0.080 0.351 0.933 160 149 143
6.8700 -4.8817 -43.6328 0.101 0.357 0.929 165 152 146
6.8728 -4.9870 -43.6658 0.097 0.351 0.931 165 152 146
6.7647 -5.1457 -43.4992 -0.167 0.718 0.675 165 151 148
6.6571 -5.3033 -43.3333 -0.152 0.710 0.688 164 150 147
6.5735 -5.7657 -43.2937 -0.003 -0.247 0.969 143 130 127
6.6343 -5.8439 -43.4314 -0.075 -0.130 0.989 131 122 117
6.6973 -5.9217 -43.5734 -0.187 -0.097 0.978 113 108 99
6.7197 -6.0183 -43.6419 -0.292 0.391 0.873 102 99 90
6.7065 -6.1307 -43.6461 -0.303 0.414 0.858 90 87 78
6.6693 -6.2537 -43.6066 -0.329 0.412 0.850 82 79 70
6.6383 -6.3736 -43.5784 -0.351 0.363 0.863 77 75 63
6.6040 -6.4948 -43.5442 -0.218 0.250 0.943 80 77 68
6.5947 -6.6051 -43.5554 -0.096 0.130 0.987 87 84 75
6.5227 -6.8478 -43.4803 -0.129 0.348 0.929 113 108 105
6.4851 -6.9695 -43.4400 -0.129 0.348 0.929 134 125 126
6.4516 -7.0892 -43.4068 -0.196 0.348 0.917 144 133 137
6.4242 -7.2062 -43.3849 0.017 -0.163 0.986 154 143 149
6.4367 -7.3073 -43.4354 0.004 -0.156 0.988 163 152 156
6.4319 -7.4153 -43.4545 0.007 -0.154 0.988 163 152 156
6.3848 -7.5397 -43.3965 -0.222 0.318 0.922 160 149 153
6.3607 -7.6549 -43.3805 -0.164 0.372 0.914 153 142 145
6.3324 -7.7716 -43.3566 -0.195 0.358 0.913 148 140 138
6.3089 -7.8863 -43.3415 -0.187 0.354 0.916 140 133 127
6.2590 -8.0106 -43.2779 -0.585 -0.661 0.470 137 133 123
6.2926 -8.1041 -43.3674 -0.585 -0.661 0.470 138 135 121
6.2311 -8.2321 -43.2825 -0.671 -0.572 0.472 137 135 122
6.2544 -8.3296 -43.3530 -0.358 0.090 0.929 136 132 120
6.3640 -8.5036 -43.6099 -0.368 0.682 0.632 147 141 129
6.3638 -8.6102 -43.6376 -0.494 0.533 0.686 133 129 117
6.3287 -8.7287 -43.6010 -0.553 0.350 0.756 118 117 102
6.2867 -8.8491 -43.5519 -0.551 0.449 0.703 108 110 92
6.2532 -8.9665 -43.5181 -0.648 0.662 0.376 85 90 70
6.1980 -9.0907 -43.4444 -0.662 0.657 0.361 72 75 56
6.1631 -9.2079 -43.4080 -0.461 0.679 0.572 75 78 59
6.1359 -9.3225 -43.3857 -0.229 0.506 0.831 85 88 69
6.0952 -9.4411 -43.3384 -0.095 0.409 0.908 85 88 69
6.0848 -9.5501 -43.3470 -0.195 -0.047 0.980 86 89 70
6.0627 -9.6627 -43.3340 -0.200 -0.047 0.979 85 88 67
6.0340 -9.7770 -43.3088 -0.648 0.291 0.704 76 79 58
6.0267 -9.8849 -43.3231 -0.646 0.304 0.700 71 73 52
6.0032 -9.9975 -43.3075 0.159 0.373 0.914 71 73 52
5.9310 -10.1236 -43.2015 0.155 0.412 0.898 70 73 52
5.8285 -10.2576 -43.0391 0.035 0.703 0.710 72 75 54
5.8029 -10.3697 -43.0193 -0.009 0.690 0.723 73 78 56
5.7728 -10.4828 -42.9911 0.032 0.524 0.851 69 72 51
5.7515 -10.5934 -42.9791 0.178 -0.058 0.982 63 66 45
5.7420 -10.7008 -42.9891 0.180 -0.408 0.895 61 63 42
5.8692 -10.7735 -43.2532 0.092 -0.044 0.995 66 65 45
5.8347 -11.5221 -43.3836 -0.290 0.824 0.487 49 49 31
5.7768 -11.6406 -43.3032 -0.320 0.736 0.596 39 43 24
5.7157 -11.9705 -43.2723 -0.981 0.182 0.068 34 41 25
9.7472 11.5405 -45.1027 -0.767 0.640 0.050 41 45 27
8.6969 10.2263 -43.4150 -0.512 0.720 0.468 53 58 41
8.5395 9.9567 -43.1812 -0.538 0.710 0.454 53 58 41
8.7323 9.9434 -43.5581 -0.048 0.326 0.944 82 84 70
8.9734 8.7863 -44.3301 -0.107 0.604 0.790 76 85 59
9.0042 8.7076 -44.4104 -0.258 0.729 0.634 67 77 50
8.7549 8.2503 -44.0482 -0.390 0.744 0.542 58 68 41
8.5829 7.9778 -43.7869 -0.385 0.743 0.547 63 73 46
8.4693 7.7622 -43.6236 -0.375 0.666 0.645 69 77 53
8.4156 7.6045 -43.5613 -0.320 0.465 0.826 78 86 62
8.4056 7.4884 -43.5724 -0.211 0.082 0.974 84 94 69
8.5790 7.1148 -44.0067 0.251 -0.516 0.819 77 87 62
8.6094 7.0352 -44.0867 0.342 -0.407 0.847 71 84 56
7.6753 2.3926 -43.5013 -0.523 0.225 0.822 82 72 52
7.6489 2.2661 -43.4834 -0.523 0.225 0.822 76 69 50
7.6225 2.1399 -43.4656 -0.523 0.225 0.822 69 65 45
7.6171 2.0297 -43.4843 -0.499 0.236 0.834 55 57 35
7.5950 1.9068 -43.4738 -0.550 0.203 0.810 40 48 25
7.5933 1.7994 -43.4989 -0.528 0.218 0.821 37 50 24
7.5762 1.6804 -43.4971 -0.628 0.207 0.750 35 52 22
7.5881 1.5829 -43.5458 -0.603 0.200 0.772 37 50 24
7.5374 1.4393 -43.4855 -0.576 0.217 0.788 44 50 31
7.4432 0.5220 -43.5450 -0.062 0.145 0.987 154 150 138
7.4271 0.4044 -43.5446 -0.052 0.129 0.990 161 154 144
7.4027 0.2812 -43.5298 -0.052 0.129 0.990 170 161 152
7.3491 -0.1804 -43.5478 0.030 -0.036 0.999 174 165 158
7.2822 -0.3314 -43.4580 -0.037 -0.139 0.990 175 166 158
7.3624 -0.3843 -43.6272 0.051 -0.137 0.989 170 161 154
7.4193 -0.4533 -43.7556 -0.062 -0.201 0.978 164 155 148
7.4385 -0.6546 -43.8458 -0.170 0.215 0.962 158 150 143
7.3987 -0.7874 -43.8038 -0.074 0.310 0.948 134 129 118
7.3600 -0.9191 -43.7636 -0.074 0.310 0.948 75 71 60
7.3136 -1.0556 -43.7097 -0.063 0.325 0.944 59 55 44
7.2715 -1.1889 -43.6633 -0.034 0.379 0.925 88 84 73
7.2278 -1.3230 -43.6140 -0.028 0.379 0.925 117 113 102
7.1856 -1.4558 -43.5672 -0.019 0.375 0.927 136 132 121
7.0992 -1.9341 -43.5260 -0.126 0.285 0.950 155 145 143
7.1669 -1.9995 -43.6744 0.104 -0.278 0.955 159 149 147
7.1461 -2.2251 -43.6936 0.198 -0.075 0.977 165 155 153
7.1386 -2.3362 -43.7083 0.119 -0.132 0.984 162 152 151
7.1524 -2.5416 -43.7891 0.175 0.034 0.984 162 152 151
7.0043 -2.8401 -43.5811 0.165 0.437 0.884 159 150 143
6.9369 -2.9847 -43.4886 0.197 0.350 0.916 155 146 139
6.9547 -3.0808 -43.5483 0.226 0.247 0.942 150 141 132
6.9264 -3.2028 -43.5258 0.142 0.205 0.968 144 135 126
6.8838 -3.3326 -43.4776 0.239 0.027 0.971 140 131 122
6.8855 -3.4378 -43.5085 0.227 0.001 0.974 127 117 108
6.9052 -3.5333 -43.5717 -0.051 0.318 0.947 109 99 92
6.8669 -3.6602 -43.5311 -0.051 0.318 0.947 87 78 71
6.8134 -3.7952 -43.4630 -0.066 0.306 0.950 71 62 55
6.8012 -3.9077 -43.4691 -0.048 0.326 0.944 73 64 55
6.7565 -4.0373 -43.4167 -0.398 0.311 0.863 84 75 66
6.6903 -4.1778 -43.3256 -0.517 0.329 0.790 101 92 83
6.6524 -4.3032 -43.2851 -0.516 0.322 0.794 114 105 96
6.6933 -4.3878 -43.3867 -0.268 0.203 0.942 130 121 112
6.7047 -4.4878 -43.4351 0.098 -0.241 0.966 140 131 122
6.6502 -4.6213 -43.3647 -0.263 0.224 0.939 144 137 127
6.7604 -4.6719 -43.5914 0.049 0.117 0.992 150 141 132
6.7725 -4.7722 -43.6414 0.078 0.297 0.952 155 144 138
6.7469 -4.8913 -43.6232 0.074 0.303 0.950 165 152 146
6.7149 -5.0133 -43.5934 0.070 0.322 0.944 165 151 148
6.6985 -5.1276 -43.5916 0.061 0.320 0.946 165 151 148
6.5498 -5.3051 -43.3505 -0.332 0.444 0.832 165 151 148
6.4899 -5.4392 -43.2698 -0.151 0.711 0.686 172 158 157
6.5225 -5.8469 -43.4404 -0.103 -0.117 0.988 135 126 121
6.5729 -5.9300 -43.5601 -0.202 -0.086 0.976 121 116 107
6.5742 -6.0357 -43.5903 -0.307 0.205 0.929 110 107 98
6.5491 -6.1531 -43.5727 -0.307 0.205 0.929 98 95 86
6.5287 -6.2684 -43.5635 -0.323 0.191 0.927 90 87 78
6.5297 -6.3742 -43.5934 -0.218 0.250 0.943 74 71 62
6.5007 -6.4929 -43.5686 -0.218 0.250 0.943 77 74 65
6.4640 -6.6148 -43.5296 -0.211 0.235 0.949 80 77 68
6.4126 -6.7425 -43.4637 -0.111 0.345 0.932 84 79 73
6.4010 -6.8533 -43.4704 -0.097 0.343 0.934 106 98 96
6.3773 -6.9691 -43.4550 -0.129 0.348 0.929 124 115 116
6.3482 -7.0869 -43.4298 -0.196 0.348 0.917 137 126 130
6.3223 -7.2032 -43.4102 -0.059 -0.026 0.998 150 137 144
6.3099 -7.3140 -43.4154 0.015 -0.160 0.987 157 146 150
6.3042 -7.4221 -43.4328 -0.050 -0.049 0.998 163 152 156
6.2745 -7.5395 -43.4064 -0.218 0.321 0.921 159 148 152
6.2548 -7.6529 -43.3980 -0.166 0.365 0.916 153 144 146
6.2260 -7.7697 -43.3731 -0.199 0.355 0.914 151 143 140
6.1899 -7.8890 -43.3346 -0.199 0.355 0.914 147 140 134
6.2016 -7.9903 -43.3840 -0.659 -0.657 0.366 148 142 131
6.1089 -8.1300 -43.2412 -0.635 -0.578 0.512 147 144 129
6.1351 -8.2260 -43.3172 -0.635 -0.578 0.512 147 145 132
6.1554 -8.3243 -43.3826 -0.349 0.098 0.932 142 138 126
6.2285 -8.5105 -43.5731 -0.372 0.662 0.650 146 140 128
6.2701 -8.6025 -43.6779 -0.750 0.418 0.512 142 138 124
6.2036 -8.7315 -43.5831 -0.528 0.217 0.821 135 133 118
6.1584 -8.8529 -43.5275 -0.479 0.200 0.855 129 131 113
6.1518 -8.9611 -43.5434 -0.459 0.612 0.644 115 119 99
6.1194 -9.0778 -43.5113 -0.447 0.660 0.604 92 94 75
6.0708 -9.1995 -43.4494 -0.236 0.515 0.824 68 70 52
