ply
format ascii 1.0
element vertex 842
property float x
property float y
property float z
property float nx
property float ny
property float nz
property uchar diffuse_red
property uchar diffuse_green
property uchar diffuse_blue
end_header
374.9639 181.0104 -29.7153 -0.554 -0.416 0.721 107 89 87
369.7051 176.4003 -29.1875 -0.818 -0.196 0.541 112 93 91
364.1011 170.3529 -28.6256 -0.312 -0.840 -0.444 114 95 93
352.8434 147.8475 -27.5008 -0.448 -0.322 0.834 78 68 67
369.6852 145.9988 -29.1975 0.250 -0.905 -0.345 82 76 76
223.0092 446.6357 -15.2741 -0.185 -0.786 0.590 57 58 52
279.4422 361.3929 -20.8990 -0.368 -0.784 -0.500 29 30 24
396.5913 338.7254 -32.8217 -0.979 -0.182 0.090 68 59 60
397.5959 333.9625 -32.9167 -0.982 -0.185 0.047 68 56 58
395.4300 310.6563 -32.6584 -0.978 0.063 -0.197 66 55 61
391.3670 299.9031 -32.2265 -0.949 0.082 -0.305 60 49 55
392.8751 293.8966 -32.3709 -0.993 -0.074 -0.093 102 86 86
388.3580 242.5101 -31.8278 -0.967 -0.173 -0.187 104 90 87
384.1307 232.4312 -31.3802 -0.996 0.083 0.013 101 84 77
383.5442 228.3013 -31.3138 -0.481 -0.284 0.830 118 101 94
382.4328 216.0487 -31.1808 -0.995 0.085 0.053 124 110 110
378.9976 201.3681 -30.8067 -0.836 -0.488 -0.251 117 113 114
378.4145 200.1866 -30.7453 -0.840 -0.483 -0.246 118 114 115
379.0814 198.3241 -30.8104 -0.834 -0.498 0.239 102 90 92
378.9742 195.9618 -30.7957 -0.855 -0.497 0.148 102 92 93
382.3417 195.9266 -31.1394 -0.963 -0.264 -0.054 116 106 107
378.8307 191.3792 -30.7737 -0.624 -0.206 -0.754 101 83 85
379.4241 191.0278 -30.8337 -0.649 -0.196 -0.735 101 83 83
364.8534 170.2004 -29.3131 -0.934 -0.283 0.217 113 95 93
366.4163 170.4911 -29.4731 -0.894 -0.368 0.258 114 96 94
369.2150 171.5118 -29.7605 -0.863 -0.245 0.443 117 102 99
369.8826 171.2571 -29.8282 -0.864 -0.234 0.445 103 89 86
374.0834 167.8984 -30.2517 0.395 -0.896 0.203 107 96 94
366.5933 146.1557 -29.4524 -0.298 -0.927 -0.225 71 65 67
367.3183 145.4181 -29.5252 0.224 -0.938 -0.265 70 64 64
370.5623 146.4592 -29.8581 0.250 -0.922 -0.294 70 64 64
369.0371 136.6873 -29.6868 -0.773 -0.471 -0.425 102 93 94
376.6881 124.1206 -30.4478 0.098 -0.632 0.769 90 85 81
378.4813 124.3401 -30.6312 0.098 -0.630 0.771 87 82 78
384.4968 125.2096 -31.2466 -0.667 -0.651 -0.361 64 58 57
355.5036 105.5557 -28.2556 0.127 -0.454 0.882 78 74 73
222.9638 454.9739 -16.2653 -0.877 -0.467 0.115 42 43 38
223.5481 453.4621 -16.3203 -0.813 -0.582 -0.009 46 47 41
225.4581 430.6258 -16.4361 -0.917 -0.255 -0.306 43 45 40
226.7310 428.5394 -16.5603 -0.746 -0.636 -0.198 26 28 23
245.2890 396.3455 -18.3650 -0.921 -0.108 0.375 41 43 38
279.6316 368.2715 -21.8176 -0.437 -0.888 -0.143 35 36 30
279.5850 361.8943 -21.7899 -0.368 -0.784 -0.500 27 28 22
280.3779 361.5736 -21.8708 -0.368 -0.784 -0.500 24 25 20
395.9154 336.5743 -33.7351 -0.980 -0.188 -0.065 67 58 59
394.6029 319.3639 -33.5376 -0.930 -0.098 -0.353 123 110 117
397.0679 303.2925 -33.7350 -0.997 0.078 0.001 77 67 68
386.7940 254.3027 -32.4965 -0.984 0.140 0.110 96 80 80
389.7318 253.7570 -32.7985 -0.988 0.136 0.071 93 77 77
384.5555 237.5331 -32.2048 -0.872 0.061 0.485 98 84 81
387.5748 238.0831 -32.5191 -0.987 0.117 0.111 102 89 83
387.4521 237.0335 -32.5027 -0.987 0.117 0.111 95 80 75
383.3785 231.8947 -32.0628 -0.990 0.109 -0.084 102 85 78
383.2660 230.8835 -32.0475 -0.990 0.109 -0.084 108 89 83
383.9148 230.4796 -32.1132 -0.997 0.080 0.001 110 93 86
383.7845 229.4620 -32.0961 -0.996 0.085 -0.010 113 96 89
383.1049 228.0192 -32.0206 -0.998 0.058 0.025 113 96 89
380.8122 219.1773 -31.7517 -0.570 -0.257 0.780 108 93 86
380.4526 218.0447 -31.7104 -0.580 -0.264 0.771 114 99 92
381.0357 217.6249 -31.7693 -0.559 -0.281 0.780 115 100 93
378.3091 200.1650 -31.4246 -0.835 -0.494 -0.242 111 107 108
378.4118 199.4602 -31.4327 -0.882 -0.457 0.113 112 108 109
379.5920 197.9519 -31.5494 -0.821 -0.533 0.202 104 89 92
378.6126 195.7688 -31.4402 -0.850 -0.497 0.175 100 90 91
378.9502 195.2382 -31.4732 -0.850 -0.497 0.174 100 88 90
382.3630 195.9895 -31.8290 -0.963 -0.264 -0.054 115 105 106
379.2622 191.7077 -31.4929 -0.625 -0.207 -0.753 130 111 113
380.1196 191.5261 -31.5809 -0.649 -0.196 -0.735 127 107 108
358.4339 170.8449 -29.2631 -0.566 -0.165 -0.808 99 79 78
382.5197 171.4240 -31.7572 0.310 -0.884 0.349 100 89 87
352.8275 149.5673 -28.6068 -0.703 -0.658 -0.269 84 72 72
379.5594 154.3655 -31.3898 -0.710 -0.072 0.700 75 69 71
378.2696 153.1352 -31.2519 -0.705 -0.081 0.705 76 70 72
367.0791 146.4282 -30.0701 -0.317 -0.918 -0.238 76 70 72
369.8221 146.6798 -30.3548 0.248 -0.917 -0.312 75 69 71
372.4854 147.4313 -30.6330 0.245 -0.921 -0.303 73 67 69
346.2755 131.6638 -27.8648 -0.181 -0.982 0.049 66 57 60
369.0688 132.6750 -30.2267 -0.078 -0.393 0.916 72 63 64
370.5063 131.3053 -30.3705 -0.235 -0.508 0.828 95 85 84
377.1170 123.8385 -31.0277 0.110 -0.637 0.763 89 82 76
373.7376 120.2278 -30.6651 -0.035 -0.473 -0.880 81 73 71
369.4991 117.2912 -30.2160 -0.022 -0.518 -0.855 81 73 71
222.8600 454.9301 -17.2369 -0.877 -0.467 0.115 43 44 39
240.3859 403.8177 -18.7895 -0.766 -0.136 0.628 38 41 34
279.7102 362.3578 -22.6813 -0.355 -0.892 -0.280 26 27 21
281.8044 362.8127 -22.9034 -0.337 -0.777 -0.532 23 24 19
392.9002 357.8475 -34.5236 -0.372 -0.921 0.118 63 52 50
396.1415 339.9349 -34.7635 -0.592 -0.623 -0.512 81 72 73
397.2390 335.2520 -34.8525 -0.286 -0.578 0.764 56 44 46
397.2310 333.7753 -34.8434 -0.979 -0.160 -0.130 56 44 46
394.9290 319.8260 -34.5243 -0.930 -0.098 -0.353 83 70 77
392.4461 298.6617 -34.1460 -0.978 0.192 -0.082 77 67 67
391.6248 295.3102 -34.0412 -0.981 0.189 -0.036 91 76 73
390.0552 263.6110 -33.7000 -0.952 0.164 0.258 109 93 94
386.7036 254.2974 -33.2967 -0.984 0.140 0.110 89 73 73
384.1313 237.2528 -32.9320 -0.872 0.061 0.485 91 77 74
387.0425 237.7183 -33.2398 -0.992 0.068 0.105 102 89 83
384.3475 232.7324 -32.9294 -0.985 0.143 -0.095 102 85 78
383.4457 231.0897 -32.8257 -0.991 0.123 -0.058 108 89 83
386.4729 227.9886 -33.1258 -0.249 -0.443 0.861 101 86 79
380.3236 218.0056 -32.4255 -0.575 -0.252 0.778 121 106 99
381.0987 208.5368 -32.4539 -0.923 0.147 -0.357 127 116 118
378.0108 198.4649 -32.0741 -0.869 -0.382 0.313 117 108 109
378.6608 198.1386 -32.1404 -0.682 -0.617 0.392 117 105 107
379.3222 197.0546 -32.2037 -0.665 -0.663 0.345 116 104 106
379.6353 196.5029 -32.2334 -0.745 -0.602 0.288 113 103 104
381.0907 194.4442 -32.3746 -0.469 -0.382 -0.796 91 76 79
380.2948 192.4284 -32.2799 -0.625 -0.201 -0.754 113 94 96
380.8192 192.0275 -32.3326 -0.649 -0.196 -0.735 107 87 88
375.8331 184.4881 -31.7678 -0.993 0.076 -0.088 102 82 83
382.1421 171.2506 -32.3555 0.240 -0.941 0.238 94 83 81
384.2391 169.1709 -32.5638 -0.997 -0.001 -0.075 81 70 68
384.2396 168.5265 -32.5602 -0.997 -0.001 -0.075 85 74 72
377.2582 161.5964 -31.7896 -0.936 -0.195 0.292 86 74 74
377.0827 160.2811 -31.7639 -0.935 -0.327 0.135 86 74 74
364.8625 151.4893 -30.4337 0.239 -0.536 0.810 74 62 62
365.9878 151.5058 -30.5517 0.237 -0.521 0.820 70 58 58
377.1381 154.9322 -31.7399 0.243 -0.537 0.808 75 69 71
379.2552 155.4212 -31.9646 0.239 -0.524 0.817 75 69 71
372.6115 147.5248 -31.2240 0.241 -0.920 -0.309 80 74 76
362.2666 138.2617 -30.0878 -0.773 -0.588 -0.238 90 81 84
367.6821 132.0988 -30.6212 -0.219 -0.635 0.740 70 61 62
366.3170 131.0117 -30.4720 -0.213 -0.639 0.739 65 55 54
384.8394 125.8715 -32.3854 -0.796 -0.329 -0.508 88 81 75
368.7351 117.9209 -30.6526 -0.017 -0.534 -0.846 89 81 79
368.9128 117.5411 -30.6691 -0.023 -0.530 -0.848 89 81 79
362.4569 113.4127 -29.9692 -0.958 -0.264 -0.113 83 75 73
281.0539 82.8404 -21.2641 0.084 -0.531 0.843 76 66 65
338.7887 102.1058 -27.4247 0.055 -0.697 -0.715 85 77 75
120.5496 225.7469 -5.6178 -0.087 -0.753 0.652 60 60 50
249.5622 390.8172 -20.5711 -0.917 -0.379 0.125 28 31 22
249.9955 389.4478 -20.6067 -0.485 -0.814 -0.319 24 27 18
281.7251 364.8930 -23.7915 -0.092 -0.947 0.306 27 28 23
280.3007 359.7331 -23.6012 -0.516 -0.854 -0.061 27 28 23
394.1356 340.7199 -35.5497 -0.607 -0.614 -0.505 68 59 60
394.8297 340.0262 -35.6181 -0.600 -0.622 -0.503 82 73 74
395.4969 333.3791 -35.6387 -0.496 -0.516 0.699 74 62 64
397.3831 334.0614 -35.8443 -0.491 -0.508 0.708 80 68 70
396.3777 331.4650 -35.7178 -0.968 -0.252 0.022 85 73 75
395.1839 321.6012 -35.5164 -0.937 -0.081 -0.339 73 60 67
395.6834 317.9948 -35.5422 -0.971 -0.211 -0.115 72 59 66
391.4781 296.5072 -34.9329 -0.983 0.180 -0.026 71 57 56
393.7043 292.5299 -35.1393 -0.991 -0.036 -0.130 88 73 70
390.6656 284.6880 -34.7572 -0.889 0.165 0.427 136 126 127
388.9688 280.6758 -34.5466 -0.413 -0.910 0.037 136 126 127
384.5695 242.4969 -33.7905 -0.987 0.143 0.080 84 70 67
383.0211 237.3606 -33.5871 -0.926 -0.003 -0.378 86 72 69
386.3430 238.1697 -33.9461 -0.984 0.116 0.137 90 76 73
385.7556 234.8571 -33.8587 -0.992 0.124 0.002 93 76 69
387.1208 235.0118 -34.0048 -0.988 0.113 0.105 94 77 70
382.6092 225.0602 -33.4503 -0.505 -0.303 0.808 110 95 88
381.7903 214.8985 -33.2864 -0.508 -0.280 0.815 102 88 88
382.2435 213.5490 -33.3244 -0.921 0.153 -0.359 100 86 86
381.4351 208.8309 -33.2028 -0.923 0.147 -0.357 119 108 109
378.2610 199.4579 -32.7947 -0.879 -0.458 0.135 128 124 125
377.7038 198.3056 -32.7268 -0.869 -0.380 0.316 119 110 111
378.6596 197.4212 -32.8217 -0.834 -0.528 0.160 133 118 121
378.2314 196.3699 -32.7682 -0.831 -0.518 0.203 130 118 120
378.5598 195.8315 -32.7990 -0.831 -0.518 0.203 126 116 117
381.1973 193.8120 -33.0639 -0.621 -0.201 -0.757 119 103 104
381.4809 170.9170 -32.9209 0.238 -0.943 0.233 89 78 76
384.0936 165.3010 -33.1559 -0.840 -0.209 0.500 91 79 79
377.6281 151.7266 -32.3664 -0.429 -0.446 0.786 85 79 81
379.4810 150.9187 -32.5572 -0.618 -0.648 -0.445 86 80 82
381.2575 151.2127 -32.7481 -0.671 -0.541 -0.507 90 81 84
379.1433 149.6143 -32.5114 -0.838 -0.276 0.470 98 89 92
375.6922 146.8260 -32.1237 -0.227 -0.335 0.914 106 97 100
349.7566 133.3754 -29.2669 -0.659 -0.719 -0.222 88 79 82
362.3050 138.3089 -30.6372 -0.705 -0.526 -0.475 95 86 89
370.4824 136.9091 -31.4953 -0.933 -0.178 -0.311 89 80 83
369.8630 136.1169 -31.4235 -0.935 -0.172 -0.309 111 102 105
366.4939 129.1589 -31.0130 -0.930 -0.217 0.297 72 62 61
360.4024 126.0977 -30.3427 0.141 -0.724 -0.675 71 61 60
279.0584 82.1359 -21.3693 0.072 -0.455 0.888 88 80 78
340.5451 102.7441 -28.0567 0.080 -0.788 -0.611 83 78 75
342.7462 103.1386 -28.2935 0.062 -0.786 -0.615 83 78 75
232.9171 409.2062 -19.8478 -0.885 -0.446 0.132 37 39 34
233.8819 409.5093 -19.9545 -0.749 -0.659 0.061 38 40 35
238.4853 410.0705 -20.4552 -0.201 -0.876 0.439 23 26 19
241.2057 401.2195 -20.6634 -0.879 -0.433 0.198 20 22 17
243.4355 396.9352 -20.8624 -0.818 -0.538 0.202 33 35 32
248.4444 390.4064 -21.3390 -0.903 -0.381 0.198 33 36 27
249.2275 390.0779 -21.4202 -0.920 -0.373 0.117 30 33 24
250.2510 390.4568 -21.5339 -0.484 -0.807 -0.338 24 27 18
263.8329 375.5864 -22.8533 -0.858 -0.319 -0.403 26 27 22
268.3000 382.2201 -23.3974 -0.443 -0.890 0.111 26 27 22
269.2606 382.2784 -23.5014 -0.455 -0.885 0.101 22 23 18
391.5046 361.2440 -36.4549 -0.911 0.053 -0.410 61 47 46
394.8599 332.7657 -36.5438 -0.496 -0.516 0.699 75 63 65
396.7278 333.4308 -36.7512 -0.491 -0.508 0.708 81 69 71
396.3993 331.6016 -36.6984 -0.482 -0.517 0.707 87 75 77
395.9348 325.3477 -36.5886 -0.946 -0.060 -0.319 48 36 38
395.2408 323.1703 -36.4931 -0.940 -0.083 -0.331 65 53 57
392.6870 299.0986 -35.9883 -0.978 0.192 -0.082 65 55 55
388.5475 281.5273 -35.3750 0.069 -0.948 -0.312 142 133 136
391.5402 276.2649 -35.6467 -0.996 0.089 -0.027 95 84 82
388.7090 269.1122 -35.2737 -0.981 0.025 0.191 100 89 87
389.6394 266.6568 -35.3504 -0.992 0.020 0.125 100 89 87
389.2932 260.9359 -35.2584 -0.927 0.106 0.360 96 80 81
389.1701 258.7038 -35.2239 -0.926 0.103 0.363 93 77 78
385.0388 232.4839 -34.5287 -0.989 0.134 0.069 92 73 67
381.2951 227.6880 -34.0801 -0.899 0.226 0.374 99 82 75
380.8691 223.7741 -33.9968 -0.467 -0.311 0.828 76 61 54
374.2088 216.9007 -33.2144 -0.985 0.164 0.051 86 71 64
382.3936 213.7146 -34.0647 -0.910 0.142 -0.389 99 85 85
380.7641 205.1781 -33.8078 -0.978 0.193 0.076 98 94 95
368.3971 191.2661 -32.3441 -0.815 -0.549 0.185 119 107 109
379.1853 194.7867 -33.5386 -0.922 -0.376 0.092 125 113 115
382.7317 195.6211 -33.9282 -0.474 -0.457 -0.753 128 113 116
382.0128 194.3945 -33.8391 -0.502 -0.430 -0.751 126 110 111
381.4981 193.3086 -33.7734 -0.621 -0.210 -0.755 120 101 103
374.8856 181.8750 -32.9526 0.048 -0.990 0.135 101 81 80
334.5409 149.8934 -28.3055 0.236 -0.917 -0.322 105 91 88
376.9790 169.7028 -33.0615 0.011 -0.935 -0.353 109 95 92
377.6805 169.4556 -33.1346 -0.024 -0.998 -0.056 94 83 81
387.5576 169.7750 -34.2006 -0.954 -0.274 0.122 116 105 103
378.3401 161.6346 -33.1309 -0.383 -0.437 0.814 102 90 90
372.7488 151.0390 -32.4280 0.098 -0.993 0.060 76 70 72
377.6059 151.7486 -32.9574 -0.425 -0.483 0.765 82 76 78
377.6809 150.6398 -32.9549 -0.560 -0.737 -0.378 90 84 86
370.2774 143.7131 -32.0920 -0.933 -0.144 -0.331 99 90 93
366.8106 141.5223 -31.6980 -0.844 -0.414 -0.340 99 90 93
361.6959 138.0508 -31.1145 -0.615 -0.524 -0.589 94 85 88
367.7422 140.3739 -31.7873 -0.777 -0.384 -0.499 93 84 87
369.2751 140.5634 -31.9541 -0.806 -0.422 -0.416 88 79 82
370.1125 136.7710 -32.0079 -0.983 -0.128 0.134 89 80 83
370.1756 136.2851 -32.0101 -0.983 -0.128 0.134 105 96 99
363.1025 127.2653 -31.1628 0.143 -0.800 -0.582 99 89 88
366.3154 128.1420 -31.5169 0.186 -0.837 -0.515 92 82 81
370.6115 129.4613 -31.9918 0.174 -0.818 -0.548 94 84 83
341.1043 103.3407 -28.5669 0.112 -0.846 -0.521 86 81 78
342.4214 103.0434 -28.7058 0.038 -0.850 -0.526 82 78 75
236.3434 409.1315 -21.1263 -0.295 -0.694 0.657 62 65 58
240.2462 410.2523 -21.5647 -0.163 -0.970 0.179 25 28 19
249.0360 389.7639 -22.2861 -0.664 -0.730 -0.163 36 39 30
250.8935 392.6109 -22.5214 -0.588 -0.785 -0.194 30 33 24
252.7179 392.6523 -22.7207 -0.674 -0.668 -0.315 22 25 18
253.4000 391.9962 -22.7875 -0.674 -0.668 -0.315 22 23 18
254.0385 391.2168 -22.8481 -0.629 -0.692 -0.354 22 22 20
253.5289 384.6126 -22.7163 -0.946 -0.072 -0.316 21 21 19
252.1447 378.1958 -22.4913 0.137 -0.800 -0.585 13 13 11
261.0875 387.8801 -23.5779 0.109 -0.773 -0.625 29 31 26
395.3097 339.3189 -37.6462 -0.968 -0.031 0.248 54 45 46
394.2254 332.1548 -37.4453 -0.496 -0.516 0.699 76 64 66
396.0753 332.8028 -37.6544 -0.491 -0.508 0.708 82 70 72
396.2604 331.5571 -37.6602 -0.483 -0.512 0.711 88 76 78
397.3943 329.9405 -37.7651 -0.979 -0.184 0.086 100 88 90
397.3601 327.0378 -37.7279 -0.930 -0.083 -0.359 72 60 62
390.2647 307.0087 -36.7232 -0.985 -0.152 0.082 71 59 63
390.6116 304.7566 -36.7350 -0.985 -0.152 0.082 67 56 60
389.2777 282.3246 -36.3306 -0.001 -0.942 -0.336 92 83 86
390.5774 282.4063 -36.4732 -0.192 -0.950 -0.247 93 83 84
389.2800 268.6109 -36.1725 -0.981 -0.031 -0.192 105 94 92
389.3122 267.5362 -36.1636 -0.981 -0.031 -0.192 104 93 91
380.8990 205.3254 -34.5283 -0.975 0.201 0.097 93 89 90
378.8779 202.3270 -34.2734 -0.723 -0.588 0.361 114 110 111
367.4987 192.1796 -32.9160 -0.868 -0.490 0.081 111 107 108
377.9358 197.0311 -34.1096 -0.810 -0.551 0.203 129 114 117
373.4127 193.2235 -33.5726 -0.937 -0.345 0.059 126 114 116
386.3528 198.8240 -35.0476 -0.503 -0.454 -0.735 113 101 103
385.8849 197.7461 -34.9842 -0.481 -0.485 -0.730 115 102 105
385.2282 196.5504 -34.8988 -0.650 -0.342 -0.678 118 102 103
373.5255 181.0706 -33.4446 0.039 -0.991 0.128 101 81 80
359.4194 169.6800 -31.7756 -0.699 -0.067 -0.712 102 82 81
360.6639 167.2467 -31.8831 -0.602 -0.142 -0.786 119 101 99
367.8033 167.6602 -32.6660 0.100 -0.766 0.635 93 79 76
381.4814 169.6961 -34.1804 0.188 -0.640 0.745 85 74 72
387.3845 169.7192 -34.8240 -0.950 -0.288 0.123 112 101 99
380.5924 163.4959 -34.0119 -0.817 -0.247 0.521 102 90 90
377.0996 161.0080 -33.6025 -0.884 -0.158 0.441 102 90 90
377.1563 160.4281 -33.6019 -0.879 -0.164 0.447 102 90 90
365.4199 150.1772 -32.2044 -0.811 -0.172 0.559 115 105 106
360.9115 147.3017 -31.6798 0.284 -0.948 -0.140 120 112 115
364.6876 148.6787 -32.1073 0.289 -0.948 -0.135 128 122 124
372.5377 150.9657 -32.9893 0.094 -0.994 0.049 113 107 109
374.2574 151.2584 -33.1801 0.105 -0.994 0.033 82 76 78
375.3170 150.6451 -33.2885 -0.769 -0.187 0.611 82 76 78
374.5766 149.7103 -33.1970 -0.640 -0.356 0.681 86 80 82
366.8631 142.1102 -32.2685 -0.925 -0.229 -0.301 116 107 110
364.7865 139.0155 -32.0065 -0.651 -0.758 -0.030 94 85 88
366.2982 135.5907 -32.1317 -0.886 -0.298 -0.354 90 81 84
370.0388 136.7663 -32.5530 -0.983 -0.128 0.134 90 81 84
370.1021 136.2804 -32.5542 -0.983 -0.128 0.134 106 97 100
367.1989 131.4741 -32.1823 -0.993 -0.116 0.022 135 125 124
373.1722 130.5608 -32.8228 0.174 -0.818 -0.548 106 96 95
387.5790 131.9683 -34.4093 -0.125 -0.409 -0.904 89 82 76
342.5205 103.0971 -29.1649 -0.020 -0.870 -0.493 85 81 78
151.6171 193.2791 -9.7631 0.331 -0.778 0.533 45 41 42
238.9046 409.0410 -22.3186 -0.201 -0.876 0.439 30 33 26
253.2836 391.9113 -23.6737 -0.924 -0.381 0.028 22 23 18
251.5911 376.8758 -23.2834 0.151 -0.809 -0.568 13 13 11
257.1915 384.9923 -24.0114 0.028 -0.818 -0.575 28 28 26
259.2729 388.1956 -24.2845 0.109 -0.773 -0.625 36 36 34
261.2914 388.6661 -24.5137 0.109 -0.773 -0.625 29 31 25
253.6072 268.5556 -22.0393 -0.428 -0.723 -0.542 46 48 35
392.4591 330.2510 -38.2003 -0.493 -0.516 0.701 74 62 64
395.6060 330.9293 -38.5568 -0.483 -0.512 0.711 87 75 77
396.2484 330.2076 -38.6180 -0.973 -0.195 0.125 94 82 84
383.8381 304.1617 -36.8956 -0.780 -0.366 -0.508 73 60 66
385.2331 303.0532 -37.0345 -0.972 -0.202 -0.118 73 61 67
400.2779 307.0647 -38.7494 -0.902 0.007 0.431 66 55 56
389.5132 289.8482 -37.3282 -0.831 -0.070 0.551 115 101 99
389.3169 287.2250 -37.2710 -0.878 -0.070 0.473 123 108 104
390.3470 285.8363 -37.3659 -0.937 0.094 0.337 82 69 69
390.4472 284.7392 -37.3621 -0.973 -0.040 0.227 78 68 68
388.8555 282.0009 -37.1493 -0.222 -0.885 -0.409 78 69 71
389.9938 281.9280 -37.2740 -0.186 -0.950 -0.250 78 67 68
391.6698 282.3698 -37.4649 -0.290 -0.942 -0.170 83 71 71
392.6114 282.0980 -37.5652 -0.290 -0.942 -0.170 89 78 78
390.6888 272.2274 -37.2193 -0.998 -0.042 0.056 81 70 68
387.6529 257.5144 -36.6851 0.055 -0.996 -0.077 86 70 70
383.5009 211.2946 -35.6010 -0.982 0.186 0.035 102 89 90
377.9933 201.7637 -34.8641 -0.982 0.169 0.087 104 99 100
377.9596 194.0693 -34.7562 -0.686 -0.518 0.511 102 90 92
384.0673 197.3617 -35.4749 -0.883 -0.469 0.010 102 92 93
386.2707 198.0495 -35.7274 -0.888 -0.442 0.125 102 90 92
382.0758 193.7815 -35.2066 -0.985 0.138 0.106 113 95 96
361.4722 167.7701 -32.5803 -0.603 -0.145 -0.784 120 102 100
357.9183 160.7219 -32.0926 0.380 -0.850 -0.364 111 97 94
373.1774 166.3463 -33.8530 0.302 -0.683 0.666 110 99 97
376.8827 160.3185 -34.1804 -0.879 -0.164 0.447 102 90 90
365.4827 150.8085 -32.7933 -0.804 -0.188 0.564 102 92 91
365.0818 150.0359 -32.7386 -0.811 -0.172 0.559 105 95 96
364.9437 148.8420 -32.7072 0.289 -0.948 -0.135 120 114 116
372.3692 150.9137 -33.5548 0.081 -0.995 0.060 107 101 103
373.8377 151.0811 -33.7192 -0.141 -0.942 0.305 80 74 76
374.5531 150.8680 -33.7953 -0.574 -0.347 0.742 78 72 74
374.6436 150.3434 -33.7982 -0.578 -0.310 0.755 81 75 77
373.4044 149.1633 -33.6454 -0.668 -0.215 0.713 87 81 83
375.4102 142.9492 -33.7827 -0.638 -0.431 0.638 92 83 86
360.6252 133.5506 -32.0235 -0.807 -0.579 -0.120 90 81 84
364.8815 134.9780 -32.5126 -0.941 -0.324 0.098 90 81 84
369.2154 136.4240 -33.0106 -0.977 -0.127 0.174 90 81 84
369.8035 136.1749 -33.0721 -0.984 -0.122 0.133 105 96 99
394.1230 135.1422 -35.7424 -0.799 -0.377 -0.469 94 87 79
367.9860 114.6472 -32.5800 -0.812 -0.498 -0.306 92 82 81
351.6827 105.9378 -30.6627 0.114 -0.871 -0.477 83 78 75
355.9700 107.0332 -31.1507 0.097 -0.863 -0.496 79 74 71
246.7537 386.1029 -23.7539 -0.875 -0.451 0.173 42 45 38
261.5204 389.5206 -25.4572 0.100 -0.819 -0.565 39 39 32
275.3516 372.6394 -26.7408 -0.309 -0.928 -0.208 27 28 23
275.2339 370.1794 -26.6894 -0.834 -0.551 -0.023 31 34 27
275.6534 368.9815 -26.7177 -0.604 -0.793 0.078 34 37 30
394.3690 339.9582 -39.5343 -0.941 0.006 0.340 80 70 71
390.4916 328.1159 -38.9170 -0.976 -0.204 0.081 79 68 72
394.6809 329.9948 -39.4144 -0.488 -0.506 0.711 82 70 74
395.5379 323.8225 -39.4143 -0.984 0.019 0.179 79 67 69
389.1093 282.3351 -38.0515 -0.248 -0.887 -0.389 102 88 84
392.9041 283.6471 -38.4960 -0.361 -0.904 0.229 65 51 49
386.6438 256.6976 -37.3778 0.057 -0.992 -0.111 94 80 76
383.5899 223.3931 -36.5192 -0.883 0.143 -0.447 103 88 81
378.7652 203.1410 -35.6655 -0.981 0.174 0.084 93 86 84
375.1133 198.2678 -35.1817 -0.906 -0.366 0.213 97 89 88
372.9892 193.7821 -34.8746 -0.740 -0.573 0.351 112 100 102
373.1016 193.1107 -34.8767 -0.838 -0.487 0.246 112 100 102
373.6891 192.0181 -34.9254 -0.744 -0.532 0.405 96 84 86
414.7373 217.7085 -39.9119 -0.299 -0.685 0.664 95 83 87
377.1771 186.2774 -35.2261 -0.519 -0.854 -0.025 107 90 90
379.5424 183.4978 -35.4472 0.352 -0.927 -0.131 101 81 75
374.8291 158.6588 -34.5347 -0.803 -0.060 0.593 101 89 89
378.4300 159.3517 -34.9479 -0.898 -0.081 0.433 96 84 84
378.3827 158.7229 -34.9328 -0.900 -0.086 0.427 96 84 84
371.2262 153.2362 -34.0478 -0.852 -0.298 0.430 89 80 79
370.4664 150.5550 -33.9213 0.116 -0.993 -0.020 97 91 93
373.1002 151.3149 -34.2274 -0.338 -0.719 0.607 86 80 82
383.9938 152.6782 -35.4660 0.029 -0.411 0.911 109 100 103
367.8046 141.0213 -33.4757 -0.481 -0.809 0.338 107 101 101
329.6841 119.9450 -28.8881 -0.592 -0.746 0.305 90 81 84
338.0099 123.2964 -29.8707 -0.613 -0.729 -0.305 90 81 84
362.7298 128.1413 -32.7085 -1.000 0.002 -0.019 97 87 86
353.0836 106.4471 -31.2936 0.117 -0.867 -0.485 83 78 75
265.5703 395.5854 -26.9286 -0.250 -0.914 -0.321 35 36 28
264.3867 380.2403 -26.5258 -0.832 -0.375 -0.409 31 30 28
274.5946 371.0759 -27.5202 -0.424 -0.842 0.334 32 33 28
196.3618 149.3446 -14.7832 -0.976 -0.188 -0.106 67 70 63
399.6379 373.7630 -41.7148 -0.649 -0.407 -0.643 61 56 53
388.2554 325.6721 -39.5842 -0.974 -0.198 -0.108 76 65 69
396.8419 329.6552 -40.6255 -0.581 -0.556 -0.594 81 69 73
394.7086 321.6142 -40.2432 -0.986 -0.157 0.063 76 61 64
396.3897 307.1769 -40.1804 -0.839 -0.505 0.204 80 66 66
386.6578 284.7664 -38.6866 -0.389 -0.827 -0.407 111 97 97
387.5060 284.4114 -38.7763 -0.389 -0.827 -0.407 111 97 97
388.3551 284.0561 -38.8662 -0.389 -0.827 -0.407 99 85 83
392.6824 283.5206 -39.3464 -0.361 -0.904 0.229 74 59 56
390.0597 272.9330 -38.8641 -0.597 -0.485 0.639 88 74 71
390.8649 271.4308 -38.9289 -0.596 -0.477 0.646 91 77 74
389.2266 260.1169 -38.5452 -0.998 0.004 0.070 114 103 99
386.2094 256.3885 -38.1386 0.058 -0.992 -0.113 118 107 101
387.8741 256.8105 -38.3343 -0.957 0.028 0.289 123 112 106
381.5843 231.8298 -37.1849 -0.417 -0.559 -0.716 90 75 70
384.7413 222.5653 -37.3797 -0.988 0.153 0.033 96 81 74
384.0800 195.9439 -36.8384 -0.738 -0.505 0.448 94 80 80
372.6707 180.6680 -35.2798 0.234 -0.956 0.175 89 70 65
376.4159 182.3055 -35.7323 0.354 -0.925 -0.135 88 69 62
364.7737 165.3830 -34.1185 0.239 -0.704 0.669 107 94 88
370.8757 167.6479 -34.8486 0.276 -0.717 0.640 107 94 88
372.9956 168.2269 -35.0986 0.255 -0.707 0.660 106 92 89
378.6326 158.8889 -35.5727 -0.850 -0.098 0.518 108 96 96
369.4671 152.3629 -34.4213 -0.769 -0.222 0.599 96 87 85
368.8419 151.4685 -34.3349 -0.774 -0.227 0.592 98 91 91
369.9382 151.4587 -34.4588 -0.525 -0.414 0.744 99 93 93
372.5094 151.0503 -34.7426 0.127 -0.992 -0.006 86 80 80
374.4411 147.4928 -34.8988 -0.641 -0.344 -0.686 126 116 117
374.2002 146.8197 -34.8597 -0.635 -0.347 -0.690 125 115 116
370.9385 143.6097 -34.4344 -0.897 -0.198 -0.396 111 101 102
363.0989 137.2780 -33.4365 -0.973 -0.225 -0.058 97 86 88
363.8780 137.1257 -33.5220 -0.975 -0.221 -0.036 93 84 87
337.6552 123.1600 -30.3104 -0.537 -0.803 -0.258 84 78 80
364.1801 134.7164 -33.5139 -0.915 -0.361 0.179 84 78 80
369.3744 136.5522 -34.1338 -0.981 -0.133 0.140 85 79 81
369.8201 135.2159 -34.1608 -0.983 -0.124 0.136 123 117 119
369.4285 134.5342 -34.1045 -0.988 -0.100 0.114 122 113 116
355.3934 127.8533 -32.3995 -0.959 -0.058 -0.276 105 96 99
395.8661 134.8547 -37.1013 -0.588 -0.696 0.413 103 95 92
365.8820 110.1023 -33.2751 0.180 -0.965 -0.188 77 72 69
382.2919 112.6872 -35.1771 0.248 -0.968 -0.038 69 64 61
274.0449 363.5409 -28.1986 -0.067 -0.975 0.214 37 40 31
274.9349 363.4572 -28.2989 -0.067 -0.975 0.214 31 34 25
275.8087 363.3320 -28.3965 -0.074 -0.974 0.212 29 32 23
401.3103 372.6131 -42.9507 -0.540 -0.637 0.551 49 44 41
401.8990 371.6599 -42.9995 -0.534 -0.640 0.553 49 44 41
391.7765 318.4947 -40.8026 -0.992 -0.024 0.121 69 54 57
390.4482 306.2884 -40.4122 -0.967 -0.226 -0.118 100 86 86
391.4235 303.4032 -40.4676 -0.966 -0.227 -0.122 67 53 53
395.7492 306.6099 -41.0256 -0.927 -0.376 0.000 79 65 65
390.1439 285.9033 -39.9795 -0.392 -0.774 -0.498 101 87 85
390.6928 285.2444 -40.0295 -0.386 -0.777 -0.497 107 92 87
391.3675 284.7096 -40.0963 -0.983 -0.059 0.174 102 87 82
387.6213 271.8593 -39.4165 -0.649 -0.486 0.586 114 100 97
389.2223 272.2328 -39.6071 -0.536 -0.473 0.699 113 99 96
389.7910 271.6382 -39.6607 -0.588 -0.468 0.660 111 97 94
390.1689 270.8679 -39.6889 -0.592 -0.459 0.663 76 62 59
387.4714 257.5796 -39.1206 0.047 -0.991 -0.124 103 92 86
387.6321 256.6723 -39.1213 -0.957 0.028 0.289 102 91 85
388.5658 253.3350 -39.1631 -0.960 0.020 0.279 97 86 84
382.2357 232.4175 -38.0299 -0.439 -0.536 -0.721 93 78 73
380.5341 223.8174 -37.6672 -0.915 -0.050 -0.401 80 65 58
386.8625 224.2329 -38.4001 -0.960 0.196 -0.201 110 95 88
393.7828 223.2029 -39.1725 -0.198 -0.666 0.719 111 94 87
389.0703 217.1604 -38.5149 -0.972 0.216 0.097 118 101 94
381.7664 195.2286 -37.2503 -0.622 -0.570 0.537 87 75 77
374.0966 186.5473 -36.2025 -0.670 -0.600 -0.437 93 79 76
381.6593 190.6840 -37.1494 -0.818 -0.318 -0.479 93 79 76
369.0304 179.8074 -35.4908 0.292 -0.952 0.091 94 79 76
364.4191 169.6552 -34.7645 0.112 -0.601 -0.791 95 78 68
367.8273 171.0471 -35.1820 0.119 -0.600 -0.791 94 77 69
360.5210 164.1860 -34.2113 0.303 -0.803 0.514 94 79 74
362.3512 164.6352 -34.4297 0.296 -0.802 0.519 98 83 78
362.5726 164.1429 -34.4455 0.222 -0.838 0.498 99 84 79
370.5512 165.6037 -35.3877 -0.289 -0.947 0.138 103 89 86
371.6750 165.6120 -35.5166 -0.543 -0.804 0.242 97 86 84
372.1697 165.2631 -35.5664 -0.543 -0.804 0.242 93 82 80
372.9358 155.3564 -35.4608 -0.921 -0.253 0.297 119 108 106
368.0329 152.2294 -34.8383 -0.847 -0.319 0.426 105 95 93
373.9893 147.3051 -35.4243 -0.763 -0.488 -0.424 133 121 121
367.9649 140.6268 -34.6040 -0.945 -0.101 0.310 100 88 88
363.4084 137.4509 -34.0202 -0.442 -0.409 -0.798 90 79 80
337.7751 123.2395 -30.8072 -0.537 -0.803 -0.258 70 64 68
364.0829 134.7003 -34.0438 -0.915 -0.361 0.179 71 65 69
367.9622 135.9442 -34.5123 -0.925 -0.228 0.306 70 64 68
353.0686 126.8562 -32.6293 -0.841 -0.204 -0.501 85 79 81
370.0831 130.8435 -34.6557 0.099 -0.796 -0.598 89 80 81
374.8497 132.3699 -35.2314 0.145 -0.792 -0.594 91 82 83
396.0993 136.5487 -37.7465 -0.744 -0.400 -0.535 99 89 88
377.6127 112.8734 -35.1673 0.177 -0.979 -0.104 75 67 64
339.0964 98.6394 -30.4784 -0.050 -0.976 -0.214 74 66 63
345.8677 99.4194 -31.2691 -0.629 -0.518 0.580 72 64 62
245.8902 384.2707 -26.2540 -0.914 -0.400 0.064 40 43 36
275.3742 368.9348 -29.3416 -0.604 -0.793 0.078 47 50 43
300.2400 341.7424 -31.6388 -0.901 -0.423 0.096 36 40 22
370.1643 370.8206 -40.3691 0.320 -0.908 0.269 30 27 38
396.6251 361.8862 -43.2440 -0.979 0.049 0.197 42 40 38
396.5104 350.5355 -42.9865 -0.980 0.188 -0.070 45 41 40
390.1593 326.6358 -41.7363 -0.967 -0.235 -0.097 65 53 57
396.5108 323.8126 -42.4117 -0.934 -0.344 0.091 64 49 52
392.3901 316.5218 -41.7773 -0.995 0.069 0.068 76 61 64
391.0417 286.8753 -40.9833 -0.392 -0.820 -0.418 89 74 71
392.1599 286.7693 -41.1106 -0.995 -0.064 0.072 98 83 78
392.1642 284.3812 -41.0597 -0.995 -0.067 0.078 85 70 65
392.4494 283.4702 -41.0732 -0.995 -0.041 0.091 90 75 70
389.8390 278.6165 -40.6662 -0.884 -0.308 0.353 113 98 91
387.0374 271.3932 -40.1861 -0.678 -0.451 0.581 123 109 106
388.5156 270.5331 -40.3389 -0.566 -0.450 0.691 122 108 105
388.9974 269.8640 -40.3804 -0.566 -0.450 0.691 100 86 83
389.4784 269.1960 -40.4217 -0.566 -0.450 0.691 82 68 65
390.6842 269.1949 -40.5615 -0.987 0.017 0.157 134 120 117
391.0080 267.2810 -40.5578 -0.978 -0.029 0.206 102 91 85
390.8729 262.8066 -40.4459 -0.826 -0.253 0.504 86 75 69
386.8548 257.1093 -39.8577 0.044 -0.992 -0.120 80 69 63
388.6021 255.5099 -40.0258 -0.940 0.046 0.338 93 82 78
388.6587 254.5213 -40.0111 -0.922 0.009 0.387 91 80 78
378.6019 231.3984 -38.3480 -0.160 -0.644 -0.748 106 91 88
383.5985 221.8181 -38.7211 -0.971 0.012 0.240 123 108 101
379.7588 205.5889 -37.9269 -0.976 0.199 -0.091 101 91 89
380.9128 189.5193 -37.7150 -0.787 -0.458 -0.414 86 72 69
359.5378 170.5992 -34.8304 -0.752 -0.499 -0.431 88 70 60
371.4043 173.2229 -36.2623 0.123 -0.601 -0.789 90 73 64
373.8398 173.3494 -36.5473 0.016 -0.534 -0.846 104 89 84
376.4718 174.2398 -36.8716 0.036 -0.556 -0.831 99 84 79
359.0799 163.3792 -34.6221 0.303 -0.803 0.514 88 73 68
361.7611 164.3290 -34.9533 -0.788 -0.369 0.494 87 72 67
361.7379 163.6959 -34.9370 -0.788 -0.376 0.488 87 72 67
361.9015 163.1736 -34.9447 -0.789 -0.380 0.483 88 73 68
365.5114 162.7796 -35.3546 0.272 -0.957 0.100 90 76 73
367.6107 163.3523 -35.6103 0.268 -0.959 0.095 89 78 76
369.9969 164.0783 -35.9025 0.263 -0.960 0.095 90 79 77
351.8217 147.6601 -33.4426 -0.939 -0.130 -0.317 110 99 97
373.1581 155.5065 -36.0845 -0.913 -0.260 0.316 127 116 114
371.2809 147.6834 -35.6986 -0.499 -0.319 0.805 126 121 118
373.2986 146.4468 -35.9059 -0.776 -0.496 -0.390 141 127 127
373.1733 145.2843 -35.8664 -0.743 -0.466 -0.480 124 110 110
367.4068 140.3940 -35.0928 -0.668 -0.432 0.606 101 87 87
365.2665 137.8269 -34.7895 -0.339 -0.481 -0.809 91 81 82
366.3473 137.8092 -34.9144 -0.366 -0.477 -0.799 73 66 66
368.3223 138.1996 -35.1517 -0.870 -0.414 -0.266 69 64 68
369.0559 138.0158 -35.2328 -0.729 -0.463 -0.504 69 64 68
367.7985 135.8987 -35.0415 -0.925 -0.228 0.306 70 65 69
369.5484 136.1734 -35.2502 -0.983 -0.124 0.136 80 75 79
369.6100 135.6888 -35.2469 -0.983 -0.124 0.136 84 79 83
359.6295 126.4192 -33.8907 -0.823 -0.340 0.454 86 77 78
359.7907 126.0159 -33.9007 -0.823 -0.340 0.454 86 77 78
389.1063 116.3609 -37.0910 0.209 -0.935 -0.285 86 77 72
346.4858 99.6407 -31.7912 -0.691 -0.627 0.361 85 77 74
228.1674 410.0446 -25.6565 -0.301 -0.893 0.334 30 31 26
246.0402 384.9772 -27.1636 -0.917 -0.393 0.076 34 37 30
258.6988 392.9106 -28.8349 0.297 -0.944 -0.141 38 41 34
395.1839 360.2261 -44.0754 -0.973 0.078 0.216 56 54 52
395.3161 358.7654 -44.0565 -0.980 0.045 0.193 72 71 69
393.4119 354.8079 -43.7402 -0.863 -0.449 0.234 65 64 62
395.2730 352.3136 -43.8998 -0.821 -0.567 0.065 39 38 36
395.4714 349.4115 -43.8549 -0.834 -0.548 0.065 41 37 36
394.9096 322.1574 -43.1484 -0.849 -0.518 0.104 64 49 52
391.5745 303.7569 -42.3247 -0.966 -0.227 -0.122 91 77 77
390.5481 301.3952 -42.1488 -0.983 0.161 0.091 82 68 68
386.4668 289.6836 -41.3948 -0.912 -0.026 0.409 96 82 82
389.2598 287.6175 -41.6738 -0.390 -0.820 -0.420 82 68 68
391.7550 286.4618 -41.9394 -0.998 -0.050 0.025 70 55 49
387.1345 272.6942 -41.0738 -0.912 -0.265 0.314 106 92 89
386.9614 271.4039 -41.0231 -0.529 -0.476 0.702 122 108 105
387.4763 270.7644 -41.0685 -0.529 -0.476 0.702 126 112 109
387.9396 270.0783 -41.1067 -0.573 -0.446 0.687 121 107 104
388.4154 269.4058 -41.1467 -0.573 -0.446 0.687 112 98 95
388.8905 268.7344 -41.1867 -0.573 -0.446 0.687 104 90 87
387.4157 255.5872 -40.7047 -0.993 0.109 0.041 73 62 58
387.3342 254.4772 -40.6690 -0.913 0.010 0.407 89 78 74
384.6346 242.1234 -40.0620 -0.985 0.149 0.089 108 93 90
380.2087 232.7670 -39.3229 -0.555 -0.584 -0.593 116 101 98
382.3206 233.5456 -39.5890 -0.454 -0.504 -0.735 122 107 102
383.1942 233.3171 -39.6860 -0.462 -0.501 -0.732 121 106 101
383.7831 232.8588 -39.7443 -0.462 -0.501 -0.732 111 96 91
385.2445 224.9002 -39.7287 -0.976 0.103 -0.191 112 97 90
385.7021 224.3597 -39.7697 -0.975 0.103 -0.196 120 105 98
386.2310 222.9902 -39.7995 -0.987 0.150 -0.061 124 109 102
389.5695 222.8493 -40.1878 -0.965 0.165 -0.205 110 93 86
379.8498 205.7061 -38.6448 -0.976 0.199 -0.091 104 94 92
374.9282 190.8155 -37.7175 -0.949 0.153 -0.276 76 64 66
373.2721 188.2673 -37.4633 -0.943 0.226 -0.243 82 68 67
378.0085 189.1616 -38.0399 -0.674 -0.225 -0.703 83 69 66
381.7212 190.0824 -38.4970 -0.801 -0.426 -0.420 81 67 64
383.2166 190.3018 -38.6776 -0.818 -0.362 -0.446 82 68 65
357.9078 161.5079 -35.0322 -0.112 -0.441 -0.890 77 62 57
361.6194 163.0481 -35.5038 -0.789 -0.380 0.483 77 62 57
363.2602 161.5380 -35.6607 0.346 -0.931 0.118 78 64 61
366.1613 162.5701 -36.0253 0.346 -0.931 0.118 80 69 67
375.5668 166.6163 -37.2236 0.348 -0.933 0.091 90 79 77
351.1625 147.8898 -33.9210 -0.892 -0.202 -0.404 102 91 89
372.8077 155.3586 -36.6354 -0.902 -0.290 0.321 122 111 109
371.1099 145.4197 -36.2026 -0.362 -0.395 0.844 128 112 112
359.6237 137.7890 -34.6760 -0.974 -0.219 -0.055 98 82 83
364.8971 138.2021 -35.3042 -0.332 -0.474 -0.815 102 89 89
367.5819 135.3192 -35.5514 -0.867 -0.498 0.007 80 75 79
368.1585 135.0686 -35.6131 -0.988 -0.132 0.080 84 79 83
369.2419 135.0427 -35.7396 -0.991 -0.110 0.077 84 79 83
369.3393 134.5779 -35.7401 -0.990 -0.114 0.085 84 79 83
369.8842 134.3117 -35.7977 -0.899 -0.413 -0.145 84 79 83
357.3802 125.0195 -34.1127 -0.944 -0.011 0.331 80 71 72
357.3892 124.5577 -34.1029 -0.944 -0.011 0.331 85 76 77
357.5189 124.1482 -34.1085 -0.935 -0.020 0.355 86 77 78
346.4475 102.2822 -32.2959 0.275 -0.811 0.516 87 78 73
228.0085 409.7699 -26.5331 -0.301 -0.893 0.334 27 28 23
247.7697 390.4462 -28.3856 -0.935 -0.172 -0.312 26 29 22
279.0925 364.9740 -31.4534 -0.748 -0.287 -0.599 26 29 20
409.1890 381.2139 -47.3070 0.145 -0.513 0.846 66 61 58
396.7956 364.0041 -45.3974 -0.941 -0.030 0.338 94 89 86
395.4216 360.6512 -45.1488 -0.980 0.046 0.192 106 103 102
395.1123 358.6421 -45.0609 -0.980 0.045 0.193 114 113 111
393.2075 354.6832 -44.7339 -0.863 -0.449 0.234 91 90 88
395.6799 349.7850 -44.9024 -0.639 -0.539 0.549 40 36 35
388.7500 329.5672 -43.5644 -0.728 -0.366 -0.579 50 40 41
393.9372 334.0859 -44.2952 -0.832 -0.251 -0.494 51 41 42
388.1008 325.9393 -43.3948 -0.881 -0.416 -0.226 55 44 48
394.4964 323.2116 -44.0843 -0.976 -0.192 -0.104 66 54 56
394.8013 322.1456 -44.0933 -0.849 -0.518 0.104 64 49 52
391.1150 303.3744 -43.1772 -0.997 0.028 0.076 86 72 72
390.4668 301.4075 -43.0501 -0.983 0.161 0.091 94 80 80
389.4555 299.0780 -42.8707 -0.989 0.129 -0.070 89 75 75
391.6539 284.0616 -42.7487 -0.998 -0.054 0.026 98 83 78
391.7152 282.9355 -42.7272 -0.998 -0.054 0.026 93 78 73
387.9133 272.3806 -42.0069 -0.993 -0.043 -0.109 66 52 49
387.6822 269.9200 -41.9167 -0.531 -0.474 0.702 78 64 61
388.1939 269.2814 -41.9611 -0.531 -0.474 0.702 68 54 51
388.7050 268.6437 -42.0055 -0.531 -0.474 0.702 73 59 56
388.6295 260.9570 -41.8006 -0.517 -0.586 0.624 103 92 86
389.1994 260.3980 -41.8539 -0.517 -0.586 0.624 95 84 78
387.2650 255.5293 -41.5002 -0.993 0.110 0.044 69 58 54
387.1400 254.3815 -41.4561 -0.993 0.110 0.044 84 73 69
381.7563 242.7051 -40.5194 -0.989 0.135 0.063 92 78 77
381.0025 232.5448 -40.1709 -0.601 -0.576 -0.554 94 79 74
383.1326 233.3321 -40.4438 -0.826 -0.556 -0.097 89 74 69
383.5419 232.7299 -40.4770 -0.826 -0.556 -0.097 83 68 63
384.5568 222.6642 -40.3408 -0.943 -0.031 0.332 103 88 81
388.1038 220.9421 -40.7178 -0.132 -0.683 0.719 109 92 85
381.8706 208.8121 -39.6688 -0.972 0.210 -0.104 106 95 93
381.4936 206.9195 -39.5757 -0.984 0.166 -0.057 96 86 84
380.8327 189.5611 -39.0547 -0.773 -0.450 -0.447 114 103 99
381.6720 189.3655 -39.1493 -0.806 -0.420 -0.417 111 97 94
355.7778 158.5093 -35.2894 0.311 -0.937 -0.158 75 61 58
377.9604 167.3575 -38.1476 0.360 -0.926 0.110 93 82 80
369.3173 151.8459 -36.7263 -0.297 -0.202 0.933 101 95 92
370.9092 152.0883 -36.9214 -0.353 -0.199 0.914 97 92 89
367.6249 144.3068 -36.3332 0.040 -0.422 0.906 102 88 88
370.6340 145.2206 -36.7137 -0.357 -0.406 0.841 107 93 93
373.5905 140.1476 -36.9352 -0.214 -0.349 -0.912 69 64 68
363.8832 133.1867 -35.6056 -0.869 -0.480 0.122 85 80 84
356.0551 124.4828 -34.4546 -0.940 -0.017 0.342 75 66 67
357.1265 124.4717 -34.5815 -0.940 -0.015 0.340 79 70 71
357.6144 124.2131 -34.6328 -0.942 -0.006 0.335 80 71 72
357.6214 123.7531 -34.6219 -0.942 -0.006 0.335 80 71 72
154.9647 269.6339 -14.8122 -0.907 -0.409 0.102 45 48 30
227.7277 409.0312 -27.3810 -0.245 -0.937 0.248 27 28 23
263.6028 361.1218 -30.3710 -0.831 -0.503 0.238 17 18 13
396.4481 363.7016 -46.3917 -0.941 -0.030 0.338 103 99 96
395.2184 360.5285 -46.1568 -0.980 0.046 0.192 116 113 112
394.5651 358.0938 -46.0114 -0.980 0.047 0.192 123 122 120
393.0031 354.5586 -45.7267 -0.863 -0.449 0.234 100 99 97
395.2235 349.3600 -45.8504 -0.639 -0.539 0.549 40 36 35
393.4949 333.6916 -45.2120 -0.991 -0.125 0.050 51 41 42
387.5643 325.4362 -44.2730 -0.964 -0.252 -0.085 55 44 48
387.8515 324.3395 -44.2773 -0.964 -0.252 -0.085 62 50 54
390.9545 303.3045 -44.0715 -0.996 0.036 0.085 75 61 61
390.3560 301.3892 -43.9470 -0.986 0.150 0.077 94 80 80
389.5458 299.2676 -43.7914 -0.989 0.129 -0.070 103 89 89
389.2595 297.7015 -43.7140 -0.990 0.124 -0.061 93 79 79
390.5151 283.0436 -43.4617 -0.866 0.173 0.469 110 95 90
386.4933 268.8938 -42.5898 -0.529 -0.468 0.708 59 45 42
387.6044 268.8157 -42.7211 -0.531 -0.474 0.702 71 57 54
388.1148 268.1796 -42.7648 -0.531 -0.474 0.702 70 56 53
389.3705 267.1264 -42.8866 -0.970 -0.077 0.231 69 55 52
387.8370 263.5477 -42.6041 -0.987 -0.090 -0.133 82 71 65
387.7886 261.3505 -42.5379 -0.480 -0.530 0.699 81 70 64
388.9214 261.2946 -42.6724 -0.618 -0.480 0.622 79 68 62
385.6215 248.0433 -41.9118 -0.929 0.071 0.364 95 84 82
384.8394 246.3767 -41.7721 -0.927 0.067 0.370 85 74 72
384.9917 241.5836 -41.6586 -0.994 0.035 0.100 96 81 78
381.7731 235.1061 -41.0941 -0.984 0.131 0.122 82 67 64
382.7529 234.0246 -41.1820 -0.826 -0.556 -0.097 85 70 65
383.1630 233.4212 -41.2146 -0.826 -0.556 -0.097 86 71 66
383.5725 232.8187 -41.2472 -0.826 -0.556 -0.097 80 65 60
384.5881 223.6312 -41.1166 -0.957 0.010 0.289 75 60 53
383.6181 222.0115 -40.9556 -0.929 -0.043 0.366 75 60 53
387.1384 214.2956 -41.1661 -0.117 -0.687 0.717 107 92 87
374.0495 188.8688 -38.8955 -0.943 0.228 -0.241 96 82 81
381.2224 189.8568 -39.7839 -0.819 -0.287 -0.496 115 101 98
377.3426 185.9390 -39.2103 -0.838 -0.233 -0.493 108 94 91
380.3433 176.6449 -39.3150 -0.586 -0.805 0.096 101 86 81
365.9637 139.2797 -36.5612 -0.078 -0.479 -0.874 89 75 75
366.2634 132.7719 -36.4183 -0.406 -0.532 -0.743 74 69 73
355.6125 124.7840 -34.9199 -0.938 -0.023 0.346 71 62 63
355.9565 124.4659 -34.9525 -0.941 -0.019 0.338 72 63 64
357.1321 124.4990 -35.0945 -0.988 -0.092 0.123 78 69 70
357.6313 123.7820 -35.1347 -0.983 -0.147 0.106 79 70 71
231.6680 411.0367 -28.8189 -0.144 -0.984 0.103 31 32 27
235.3261 408.3229 -29.1832 -0.801 -0.537 0.265 38 41 32
271.5519 365.1666 -32.3100 -0.468 -0.843 -0.265 31 32 27
406.8615 378.5681 -49.1383 0.010 -0.521 0.853 59 54 51
394.3633 357.9726 -47.0131 -0.980 0.047 0.192 92 91 89
392.7990 354.4341 -46.7188 -0.863 -0.449 0.234 84 83 81
396.2706 349.1774 -46.9854 -0.826 -0.562 0.035 36 28 28
396.2237 339.9352 -46.7071 -0.755 -0.478 -0.448 55 45 46
387.4482 325.4143 -45.2131 -0.973 -0.190 0.132 55 45 48
388.1522 324.7926 -45.2803 -0.975 -0.183 0.129 62 50 54
390.0016 325.4713 -45.5249 -0.971 -0.190 0.147 67 56 60
390.3248 324.4151 -45.5330 -0.970 -0.195 0.149 70 58 62
391.2047 306.2742 -45.1049 -0.997 0.029 0.077 88 74 74
391.0678 304.8216 -45.0454 -0.996 0.027 0.083 76 63 63
390.7305 303.1680 -44.9557 -0.978 0.161 0.130 58 45 45
386.6729 266.9286 -43.3942 -0.803 -0.338 -0.490 74 60 57
386.7926 265.9406 -43.3796 -0.985 -0.135 -0.110 67 53 50
385.8996 264.0309 -43.2148 -0.945 -0.149 -0.291 60 46 44
386.9710 263.9231 -43.3418 -0.991 -0.082 -0.110 68 57 52
387.0522 262.9145 -43.3219 -0.991 -0.082 -0.110 69 58 52
387.8330 262.5421 -43.4058 -0.989 -0.083 -0.120 63 52 46
386.4836 260.2555 -43.1744 -0.474 -0.539 0.696 58 47 41
388.4350 260.9366 -43.4315 -0.618 -0.480 0.622 57 46 40
387.0246 248.3051 -42.8877 -0.994 0.065 0.090 67 56 54
379.0511 234.8227 -41.5217 -0.777 -0.100 -0.622 83 68 65
380.5520 218.8774 -41.2338 -0.165 -0.543 0.824 94 79 72
386.0758 213.5874 -41.7487 -0.113 -0.689 0.716 90 75 68
380.5856 203.9832 -40.7987 -0.102 -0.578 0.810 96 86 84
375.3752 189.0526 -39.7256 -0.989 0.082 0.122 94 80 77
377.9198 187.0690 -39.9761 -0.748 -0.376 -0.547 102 88 87
375.8309 146.6832 -38.5314 -0.108 -0.624 0.774 81 68 68
376.4392 146.4191 -38.5975 -0.104 -0.621 0.777 80 66 66
365.1443 132.3060 -36.8096 -0.689 -0.651 -0.319 66 61 65
366.3070 132.3199 -36.9512 -0.659 -0.685 -0.311 70 65 67
355.5848 124.7972 -35.4272 -0.938 -0.272 -0.215 70 61 62
356.1789 124.5851 -35.4930 -0.936 -0.261 -0.236 72 63 64
319.6623 94.5399 -30.1721 0.276 -0.821 0.499 95 86 81
267.4623 366.5367 -32.7245 -0.924 -0.340 0.177 20 19 17
268.9956 363.6595 -32.8222 -0.921 -0.347 0.175 24 23 21
278.6510 354.3261 -33.7144 0.178 -0.978 0.107 22 23 18
405.1218 376.5199 -49.9480 -0.058 -0.518 0.853 50 45 42
396.2013 349.2173 -47.9926 -0.826 -0.562 0.035 32 27 24
396.7849 348.3571 -48.0372 -0.826 -0.562 0.035 35 30 26
390.1725 327.2071 -46.5591 -0.984 -0.148 0.101 49 44 43
389.7626 277.8103 -44.9534 -0.990 -0.036 -0.139 101 90 89
388.9878 275.9211 -44.7988 -0.956 -0.144 -0.257 110 99 98
388.8250 274.6231 -44.7379 -0.968 -0.077 -0.239 128 117 115
389.1345 273.7770 -44.7493 -0.953 -0.131 -0.273 105 91 90
389.2686 272.7699 -44.7340 -0.953 -0.131 -0.273 100 86 85
385.8551 265.1582 -44.0751 -0.909 -0.246 -0.337 124 110 110
386.4264 264.5916 -44.1274 -0.947 -0.153 -0.281 123 109 109
386.7517 263.8018 -44.1425 -0.961 -0.160 -0.226 86 75 72
387.1112 263.0460 -44.1629 -0.998 -0.029 -0.063 74 63 59
387.8056 262.5950 -44.2340 -0.997 -0.081 0.005 70 59 55
385.7188 259.6451 -43.8848 -0.553 -0.512 0.657 67 56 52
387.9501 260.5797 -44.1883 -0.618 -0.480 0.622 61 50 46
387.5118 252.8615 -43.8914 -0.993 0.073 -0.096 58 49 46
387.4271 251.7630 -43.8464 -0.993 0.073 -0.096 45 36 34
387.2591 249.5846 -43.7572 -0.993 0.073 -0.096 47 39 36
387.1759 248.5047 -43.7130 -0.993 0.073 -0.096 50 41 38
385.8874 241.4904 -43.3338 -0.995 0.092 -0.045 78 66 60
381.8655 233.4366 -42.5862 -0.539 -0.574 -0.616 104 91 85
383.5578 232.0072 -42.7491 -0.925 -0.345 -0.157 101 86 81
384.5364 231.8611 -42.8647 -0.974 0.224 -0.034 97 84 78
382.6851 220.5486 -42.2811 -0.127 -0.571 0.811 109 94 87
380.3836 217.9469 -41.9165 -0.123 -0.636 0.762 113 98 91
381.0380 217.5797 -41.9853 -0.103 -0.622 0.777 118 103 98
386.5131 217.3508 -42.6506 -0.104 -0.475 0.874 106 91 85
379.9782 206.0091 -41.4908 -0.089 -0.561 0.823 97 87 85
381.3017 202.9462 -41.5570 -0.126 -0.564 0.816 100 90 89
376.1205 193.2808 -40.6162 -0.981 0.182 -0.062 83 72 72
378.8655 191.3731 -40.8933 -0.993 0.057 0.108 89 74 71
379.9811 191.3591 -41.0299 -0.930 -0.174 0.325 96 79 77
379.9082 189.8402 -40.9731 -0.996 -0.014 0.091 99 87 83
382.2167 190.5862 -41.2802 -0.815 -0.286 -0.504 88 75 70
370.8477 180.5231 -39.5669 -0.913 -0.200 0.355 107 92 87
370.9816 179.9171 -39.5642 -0.913 -0.200 0.355 106 90 83
362.6458 166.9216 -38.1311 -0.920 -0.282 -0.274 90 75 70
367.2330 152.5900 -38.2433 -0.809 -0.074 0.583 87 76 74
368.4138 140.4866 -38.0073 -0.872 -0.427 -0.239 83 68 71
368.2010 139.3337 -37.9449 -0.929 -0.346 0.129 80 69 73
365.7540 132.6019 -37.4323 -0.720 -0.628 -0.296 73 71 75
366.2015 132.3008 -37.4778 -0.674 -0.653 -0.344 79 74 78
373.9555 133.1574 -38.4572 -0.926 -0.177 -0.332 69 59 60
355.5273 124.7978 -35.9304 -0.937 -0.265 -0.227 70 61 62
355.6445 124.3834 -35.9318 -0.937 -0.265 -0.227 71 62 63
317.8004 93.9077 -30.3237 0.275 -0.815 0.511 95 86 81
257.8007 413.1901 -33.9573 -0.623 -0.645 0.442 27 30 23
267.0611 365.7701 -33.5199 -0.812 -0.548 0.200 17 16 14
268.2922 362.1894 -33.5529 -0.928 -0.339 0.153 21 19 20
273.6935 368.4043 -34.4319 -0.682 -0.202 0.703 19 19 17
274.6086 368.3615 -34.5442 -0.013 -0.825 0.566 18 18 16
404.4619 375.8275 -50.9245 -0.176 -0.845 0.505 50 45 42
391.6218 306.9144 -47.0221 -0.979 0.166 0.119 62 52 53
389.1422 297.8665 -46.4111 -0.990 0.126 -0.062 87 77 78
388.9832 292.6925 -46.2182 -0.795 -0.308 0.523 101 89 89
391.1026 288.6832 -46.3472 -0.987 -0.111 0.115 110 98 98
391.3391 287.7050 -46.3438 -0.986 -0.121 0.113 97 87 86
390.1399 279.4174 -45.9174 -0.983 -0.077 -0.166 71 61 62
390.4807 278.5805 -45.9317 -0.990 -0.037 -0.138 71 61 60
389.1869 276.1943 -45.6911 -0.956 -0.144 -0.257 77 67 66
388.7612 270.1317 -45.4352 -0.994 -0.070 -0.088 119 105 104
387.1606 263.1687 -45.0032 -0.998 -0.029 -0.063 93 82 78
387.7961 262.6641 -45.0653 -0.997 -0.081 0.005 92 81 77
387.3252 260.0974 -44.9208 -0.612 -0.470 0.636 83 72 68
390.4482 258.6232 -45.2594 -0.709 -0.195 0.678 74 65 60
387.8387 253.2178 -44.7543 -0.993 0.062 0.098 111 103 100
387.8525 252.2024 -44.7220 -0.994 0.054 0.094 82 74 71
387.0948 246.5041 -44.4371 -0.985 0.110 -0.131 68 60 54
386.9648 245.4011 -44.3840 -0.985 0.110 -0.131 67 56 50
385.3970 241.1523 -44.0470 -0.994 0.099 -0.039 67 56 50
381.1382 218.5732 -42.7620 -0.145 -0.630 0.763 110 95 90
380.1543 216.9753 -42.5863 -0.103 -0.622 0.777 121 106 101
380.7829 216.5911 -42.6515 -0.123 -0.620 0.775 129 116 110
383.5539 211.8841 -42.8381 -0.151 -0.488 0.860 121 107 105
380.3127 206.2986 -42.2484 -0.092 -0.564 0.820 106 96 95
380.3503 205.5211 -42.2271 -0.185 -0.482 0.857 109 99 99
379.0392 203.8022 -42.0067 -0.991 0.065 0.119 105 95 95
379.6336 203.4240 -42.0678 -0.094 -0.582 0.808 104 94 94
379.9955 202.8841 -42.0947 -0.098 -0.582 0.807 114 104 104
376.1054 194.0682 -41.3163 -0.982 0.177 -0.058 116 108 106
376.8256 187.9050 -41.1994 -0.992 0.036 0.119 99 85 79
377.0182 187.3060 -41.2033 -0.993 0.030 0.110 93 78 73
373.6318 182.3167 -40.6156 -0.931 -0.288 -0.224 106 88 82
354.4536 166.4418 -37.7017 -0.676 -0.203 -0.709 88 70 58
357.9078 159.2767 -37.8909 0.012 -0.537 -0.843 89 74 68
375.1445 146.4167 -39.6015 -0.858 -0.266 -0.439 94 78 79
375.1567 145.8693 -39.5847 -0.850 -0.393 -0.350 90 76 76
372.6041 140.8744 -39.1003 -0.097 -0.645 -0.758 75 67 68
379.5626 141.3788 -39.9816 -0.516 -0.440 -0.735 55 50 53
365.9710 132.7249 -38.0035 -0.748 -0.522 -0.409 84 79 82
366.7107 132.5513 -38.0896 -0.605 -0.686 -0.404 92 87 89
367.0581 130.7206 -38.0714 -0.025 -0.588 -0.808 74 65 66
254.6360 388.1217 -33.6212 -0.863 -0.116 0.491 25 23 24
390.6996 353.8190 -49.4945 -0.998 -0.055 -0.004 44 43 38
395.4484 348.5614 -49.9045 -0.780 -0.614 0.121 41 36 32
392.9331 323.4255 -48.6968 -0.874 -0.472 0.114 48 45 44
394.3861 320.8286 -48.7871 -0.777 -0.337 0.531 48 34 34
388.5660 292.3622 -47.0461 -0.795 -0.308 0.523 69 59 58
391.2701 287.7267 -47.2213 -0.997 0.001 -0.071 98 88 87
390.7442 278.9172 -46.8427 -0.992 -0.052 -0.118 142 132 133
389.3865 276.4681 -46.5853 -0.956 -0.144 -0.257 140 130 129
389.1385 271.6852 -46.3844 -0.997 0.055 0.060 97 83 83
389.0762 270.5055 -46.3347 -0.997 0.055 0.060 105 91 91
387.1971 265.4550 -45.9195 -0.961 -0.158 -0.228 106 92 92
387.3496 264.5037 -45.9049 -0.961 -0.158 -0.228 103 92 90
387.5558 263.6054 -45.8990 -0.962 -0.148 -0.231 104 93 89
389.0487 263.8732 -46.0960 -0.963 -0.134 -0.233 103 92 88
384.2031 258.4355 -45.2944 -0.931 -0.142 0.337 103 92 88
388.2298 260.9835 -45.8906 -0.947 -0.211 0.240 91 80 76
387.4050 251.8891 -45.4643 -0.994 0.059 0.093 62 54 51
387.8456 251.2466 -45.4969 -0.874 0.134 0.467 82 74 71
387.4688 248.8963 -45.3662 -0.857 -0.032 0.514 97 92 88
387.5213 247.9349 -45.3387 -0.857 -0.032 0.514 87 82 76
387.8322 246.1990 -45.3161 -0.856 -0.037 0.515 84 73 67
385.8678 241.6102 -44.9066 -0.961 0.004 0.277 84 73 67
383.8067 232.3341 -44.3186 -0.957 -0.160 -0.242 105 90 85
379.0077 215.3238 -43.1123 -0.110 -0.654 0.748 119 105 102
378.3533 204.9667 -42.6626 -0.977 0.150 0.152 102 93 96
377.5125 203.5768 -42.5077 -0.030 -0.624 0.781 107 98 101
378.0272 203.1456 -42.5571 -0.020 -0.635 0.772 116 107 110
379.5797 202.6473 -42.7344 -0.111 -0.584 0.804 134 125 128
372.4216 190.9112 -41.4189 -0.154 -0.928 -0.339 108 103 99
373.3578 190.7974 -41.5325 -0.154 -0.928 -0.339 91 86 83
378.5241 190.5082 -42.1711 -0.998 0.042 0.053 102 83 77
356.7678 159.2595 -38.3297 0.030 -0.569 -0.822 87 67 58
366.5031 159.9340 -39.5765 0.323 -0.809 0.492 101 87 84
368.8604 160.6299 -39.8972 0.324 -0.814 0.482 97 83 80
368.3977 149.8349 -39.4561 -0.849 -0.270 -0.454 90 80 78
369.7448 149.3866 -39.6094 -0.834 -0.215 -0.508 116 106 104
375.5625 146.0943 -40.2234 0.106 -0.895 0.434 97 83 80
