ply
format ascii 1.0
element vertex 860
property float x
property float y
property float z
property float nx
property float ny
property float nz
property uchar diffuse_red
property uchar diffuse_green
property uchar diffuse_blue
end_header
-107.2004 -56.4081 6.9553 0.899 0.318 0.301 151 167 180
-79.3629 -38.9070 7.9292 0.964 0.252 0.090 115 127 146
-297.7556 -90.1782 11.1531 0.906 -0.023 -0.422 103 118 137
-297.6964 -89.4651 11.2406 0.906 -0.023 -0.422 113 126 145
-297.6371 -88.7516 11.3280 0.906 -0.023 -0.422 120 133 150
-97.7170 -37.9586 8.8641 0.404 0.733 0.547 145 158 175
-143.3042 -47.4030 9.6960 0.995 0.103 -0.009 131 144 161
-232.2930 -63.5775 11.6053 0.918 0.279 0.280 85 98 117
-230.7017 -62.6652 11.6499 0.968 -0.096 -0.233 93 106 125
-134.6749 -37.0888 10.6153 0.809 -0.178 0.560 145 151 186
-272.9035 -25.9605 18.1595 0.112 -0.982 -0.150 45 49 76
-323.8715 -23.8364 20.6913 0.874 -0.204 0.442 57 62 91
-287.9283 -18.8938 19.7193 0.663 -0.569 -0.486 53 59 89
-270.1509 -15.2513 19.3898 0.982 0.158 0.103 52 58 89
-332.9971 -8.2808 23.0611 0.396 -0.350 0.849 59 65 97
-335.8669 -6.5990 23.4010 0.124 -0.861 0.493 58 64 98
-272.9686 4.1223 21.9616 0.141 -0.967 0.212 62 67 103
-360.3245 15.4019 27.2657 0.576 -0.458 0.677 48 57 90
-330.3590 22.7773 26.8663 0.896 0.143 -0.420 51 60 91
-331.8145 25.5204 27.2774 0.937 0.038 0.347 49 56 85
-345.9299 28.4084 28.2690 0.954 0.299 0.016 50 57 86
-191.4697 20.0813 20.3577 0.537 -0.503 -0.677 53 59 93
-186.8058 20.7438 20.2342 0.455 -0.510 -0.730 46 52 86
-342.1178 42.7506 29.9110 0.921 0.371 0.115 56 62 96
-392.2402 61.1477 34.4604 0.694 -0.650 -0.309 87 85 85
-391.3429 62.0683 34.5368 0.694 -0.650 -0.309 90 89 87
-265.2326 60.2208 28.7028 0.794 0.247 -0.555 52 57 95
-335.2604 87.4575 35.2525 0.418 -0.773 0.477 53 59 93
-331.4734 87.5132 35.0914 0.734 -0.377 0.564 64 70 104
-383.4015 121.4420 41.6824 0.851 -0.331 -0.408 139 129 130
-379.0880 123.4575 41.7454 0.846 0.062 -0.530 80 73 81
-379.8715 126.9548 42.2219 0.849 0.065 -0.525 117 110 117
-376.8358 127.1229 42.1083 0.738 -0.606 -0.296 114 107 114
-295.9091 164.4518 43.2286 0.161 -0.526 0.835 95 90 97
-80.6552 77.9416 22.7435 0.840 -0.351 -0.414 135 134 139
-80.8077 78.4133 22.8099 0.758 -0.406 -0.511 140 137 144
-255.3423 250.6975 52.3190 0.807 -0.591 -0.000 126 129 138
-251.5240 248.4771 51.8690 0.855 -0.517 -0.046 118 121 130
-249.4603 251.4351 52.1510 0.855 -0.518 0.010 120 117 134
-55.9817 -49.3466 5.3521 0.865 -0.277 -0.418 138 152 165
-55.7084 -49.0319 5.3801 0.846 -0.378 -0.376 142 156 169
-55.2667 -48.6462 5.4100 0.705 -0.698 -0.126 149 163 176
-54.7830 -48.2443 5.4402 0.589 -0.790 -0.167 155 169 182
-264.6132 -133.0600 3.6152 0.740 -0.554 -0.382 149 169 193
-47.5697 -41.8695 5.9381 0.906 0.256 -0.338 187 204 221
-47.6198 -41.7031 5.9612 0.869 0.195 -0.455 178 196 210
-47.6469 -41.5274 5.9844 0.869 0.195 -0.455 163 181 195
-122.7881 -68.2730 5.7872 0.932 -0.170 0.321 137 155 169
-122.5058 -67.8387 5.8300 0.640 -0.172 0.749 112 130 144
-74.8253 -47.7275 6.3501 0.404 -0.834 0.377 120 135 154
-106.4933 -57.3790 6.4708 0.901 0.408 0.149 154 169 188
-106.7687 -57.1700 6.5087 0.937 0.310 0.159 190 206 222
-106.8648 -56.8989 6.5469 0.937 0.310 0.159 174 190 205
-106.9227 -56.6143 6.5852 0.974 0.196 0.118 164 180 193
-107.2206 -56.4096 6.6235 0.898 0.325 0.298 153 169 182
-336.9628 -122.9095 7.9421 0.894 0.153 -0.421 117 130 147
-186.2974 -74.1587 7.7240 0.967 0.250 0.053 174 189 208
-181.6714 -70.4931 7.9901 0.544 -0.836 -0.079 157 168 187
-178.9784 -69.2629 8.0314 0.916 0.159 -0.368 157 168 188
-174.8705 -67.1943 8.1185 0.922 0.074 -0.381 157 168 186
-174.3548 -66.6035 8.1711 0.947 0.125 -0.295 159 170 188
-79.4279 -39.1762 7.6199 0.891 0.452 0.044 105 116 134
-79.5816 -38.9591 7.6537 0.960 0.258 0.109 113 124 142
-99.8900 -37.2313 8.7272 0.453 0.807 0.379 121 134 153
-231.6219 -63.4114 10.9867 0.926 0.276 0.259 85 98 117
-229.1161 -62.3077 11.0200 0.751 0.024 0.660 94 107 126
-219.9915 -43.0139 13.0626 0.720 0.550 0.424 71 70 102
-321.3948 -22.8311 19.8764 0.896 -0.146 0.418 72 74 95
-353.7099 -21.8798 21.3584 0.883 -0.465 -0.062 71 73 98
-325.8165 -3.9253 22.4413 0.275 -0.803 0.529 66 69 103
-283.4842 0.6549 21.2330 0.538 -0.843 -0.024 68 71 107
-359.1472 15.4289 26.2813 0.576 -0.458 0.677 59 69 103
-332.6306 23.0105 26.1173 0.878 0.178 -0.445 65 72 106
-332.8393 23.9080 26.2390 0.878 0.172 -0.446 63 69 102
-344.5933 29.3005 27.4129 0.858 0.509 -0.065 63 70 99
-345.1806 31.1835 27.6746 0.971 0.232 0.059 63 70 101
-340.3332 39.8797 28.5643 0.911 0.393 0.125 51 57 91
-340.7693 40.8451 28.7041 0.911 0.393 0.125 54 63 96
-341.2069 41.8136 28.8444 0.911 0.393 0.125 62 68 102
-341.3093 42.7459 28.9660 0.911 0.390 0.133 67 73 107
-347.8223 86.5898 34.7564 0.400 -0.624 0.672 66 71 111
-332.1969 87.7943 34.2493 0.732 -0.369 0.572 65 71 105
-352.4001 102.5841 36.9616 0.538 0.841 0.048 68 69 74
-385.2425 121.0076 40.6639 0.856 -0.295 -0.425 140 129 127
-382.2995 122.3524 40.7090 0.818 -0.283 -0.501 135 126 131
-379.7165 123.7780 40.7795 0.846 0.062 -0.530 82 72 81
-380.4960 127.2807 41.2530 0.849 0.065 -0.525 109 102 109
-377.0646 127.3295 41.1145 0.738 -0.606 -0.296 124 118 125
-80.8507 78.5042 22.4850 0.782 -0.408 -0.471 141 138 145
-250.3393 248.6133 51.0308 0.853 -0.520 -0.040 106 106 118
-245.8434 247.6352 50.7182 0.829 -0.556 -0.063 82 79 98
-249.3791 251.5529 51.3601 0.855 -0.518 0.010 84 81 100
-251.6503 255.3654 51.9355 0.881 -0.474 0.010 110 107 126
-56.5603 -49.5953 5.1234 0.751 -0.440 -0.492 138 152 165
-55.8284 -49.0834 5.1584 0.831 -0.392 -0.395 141 155 168
-55.2855 -48.6544 5.1905 0.706 -0.697 -0.129 148 162 175
-54.7815 -48.2437 5.2219 0.678 -0.722 -0.137 154 168 181
-47.5995 -42.0658 5.7095 0.906 0.256 -0.338 181 199 222
-47.6392 -41.8955 5.7325 0.906 0.256 -0.338 186 203 220
-47.6789 -41.7248 5.7555 0.906 0.256 -0.338 173 190 206
-47.7249 -41.5563 5.7784 0.904 0.253 -0.345 152 170 184
-47.7202 -41.3679 5.8018 0.940 0.164 -0.298 147 165 179
-47.7398 -41.1887 5.8251 0.942 0.131 -0.309 157 175 189
-122.4057 -68.1270 5.4281 0.926 -0.059 0.374 138 156 170
-121.9092 -67.6138 5.4726 0.731 -0.598 0.328 118 136 150
-106.7527 -57.1597 6.1780 0.970 0.244 0.026 188 204 220
-106.9069 -56.9082 6.2157 0.968 0.244 0.050 176 192 207
-106.9794 -56.6283 6.2537 0.968 0.244 0.050 165 181 194
-336.9699 -124.4063 6.9356 0.947 -0.067 -0.314 116 129 145
-337.4830 -123.0529 7.1257 0.891 0.160 -0.425 116 129 145
-186.1602 -74.5711 7.1641 0.967 0.250 0.053 178 191 207
-186.2746 -74.1406 7.2227 0.967 0.250 0.053 167 183 198
-181.1768 -70.3384 7.4958 0.551 -0.830 -0.090 156 168 185
-174.6572 -67.1219 7.6388 0.942 -0.032 -0.333 160 171 189
-174.6220 -66.6661 7.6945 0.942 -0.032 -0.333 153 164 182
-124.2054 -51.4728 7.5870 0.482 -0.871 0.093 109 120 138
-300.2748 -89.3494 9.8650 0.878 0.089 -0.469 151 164 181
-99.7460 -37.1872 8.4015 0.453 0.807 0.379 122 135 152
-231.1262 -63.2827 10.3729 0.914 0.309 0.263 84 97 116
-228.5855 -62.1726 10.4106 0.751 0.024 0.660 94 107 126
-218.6823 -43.9228 12.3026 0.222 -0.945 0.242 78 80 105
-219.7128 -42.9431 12.4665 0.716 0.554 0.425 78 80 105
-406.6467 -43.1343 19.9008 0.122 -0.983 -0.140 72 69 98
-321.5901 -22.7851 19.0575 0.893 -0.151 0.424 77 76 91
-357.5346 -21.0979 20.7030 0.979 -0.181 -0.091 86 84 101
-336.3946 -11.6333 21.0457 0.292 -0.438 0.850 81 83 98
-329.8811 -8.9571 21.1212 0.366 -0.425 0.828 75 79 93
-320.6324 -3.8503 21.3923 0.500 -0.712 0.493 73 74 95
-331.7085 23.0264 25.2025 0.818 -0.056 -0.572 78 83 112
-342.2885 25.5610 25.9422 0.984 0.141 0.109 73 77 106
-338.5137 33.4040 26.7745 0.363 -0.929 -0.070 66 71 102
-341.9568 42.9114 28.1034 0.928 0.353 0.120 79 84 117
-342.3429 43.8809 28.2403 0.928 0.353 0.120 83 87 121
-344.7356 73.4544 32.0420 0.683 -0.194 0.704 64 69 107
-336.6514 88.0046 33.5430 0.632 -0.450 -0.631 64 69 104
-332.1082 87.8831 33.3465 0.621 -0.428 -0.657 67 73 106
-379.2788 115.1248 38.6425 0.620 0.618 -0.483 183 170 169
-386.3219 121.4501 39.7162 0.826 -0.223 -0.517 139 128 127
-380.3529 123.0122 39.6738 0.846 0.062 -0.530 129 122 129
-381.3104 126.5697 40.1579 0.842 0.062 -0.537 82 75 82
-381.3034 127.6624 40.2945 0.842 0.062 -0.537 101 94 101
-106.5922 67.2990 21.7692 0.991 0.101 -0.086 126 124 129
-80.8198 78.1709 22.1035 0.823 -0.366 -0.434 136 135 140
-81.0379 78.6841 22.1765 0.773 -0.408 -0.485 142 139 146
-81.4725 79.3333 22.2752 0.757 -0.402 -0.516 103 100 109
-258.5302 253.7114 51.1931 0.863 -0.502 0.058 120 120 130
-249.3286 252.6349 50.6910 0.830 -0.557 -0.035 88 85 104
-244.4904 250.3716 50.2144 0.923 0.306 -0.232 101 98 117
-47.1489 -41.8881 5.5095 0.932 0.281 0.229 181 199 222
-47.4229 -41.8099 5.5296 0.872 0.420 0.251 185 202 221
-47.8224 -41.4058 5.5950 0.882 0.441 0.165 147 165 179
-47.9043 -41.2502 5.6175 0.882 0.441 0.165 157 175 189
-121.9483 -68.6085 4.9891 0.646 -0.213 0.733 153 170 186
-122.2612 -68.3984 5.0271 0.926 -0.059 0.374 148 166 180
-122.2566 -68.0682 5.0681 0.926 -0.059 0.374 136 154 168
-106.7614 -57.1578 5.8470 0.987 0.157 -0.012 186 202 218
-106.8069 -56.8693 5.8847 0.987 0.157 -0.012 177 193 208
-106.8525 -56.5804 5.9225 0.987 0.157 -0.012 167 183 196
-107.0275 -56.3344 5.9598 0.898 0.325 0.298 155 171 184
-337.2459 -124.4761 6.1181 0.947 -0.067 -0.314 116 129 145
-185.9282 -74.4904 6.6629 0.920 0.194 -0.340 184 197 213
-186.0004 -74.0475 6.7209 0.920 0.194 -0.340 137 153 168
-173.4642 -66.3288 7.2127 0.917 0.188 -0.351 137 149 165
-122.3472 -50.6082 7.2512 0.514 -0.847 0.135 128 140 156
-301.2544 -91.6840 8.8572 0.881 0.097 -0.463 136 147 165
-301.1756 -90.2525 9.0329 0.915 0.173 -0.365 100 112 129
-151.0496 -49.9329 8.4159 0.351 -0.936 -0.041 141 154 170
-225.3924 -64.2900 9.4217 0.891 0.382 0.246 158 169 188
-228.3805 -62.1061 9.8068 0.761 0.031 0.648 94 107 124
-136.6561 -38.5589 9.2940 0.995 -0.086 0.047 110 120 145
-216.2471 -48.5458 11.0430 0.417 -0.882 0.220 84 90 110
-220.0967 -42.9695 11.8840 0.718 0.542 0.436 80 83 102
-349.0385 -36.3304 17.5660 0.271 -0.955 -0.118 78 77 95
-338.9077 -32.9645 17.6049 0.364 -0.922 -0.131 77 76 90
-355.0677 -21.8174 19.6048 0.881 -0.468 -0.073 79 75 89
-355.0840 -20.9275 19.7165 0.875 -0.478 -0.081 87 83 97
-356.2249 -20.0834 19.8648 0.801 -0.392 -0.452 87 84 96
-356.8078 -19.2115 19.9956 0.886 -0.444 -0.131 87 84 96
-334.5169 -11.5288 20.1157 0.296 -0.433 0.852 85 85 95
-333.4359 -10.6533 20.1843 0.296 -0.433 0.852 78 78 88
-332.6543 3.0788 21.8692 0.190 -0.975 0.119 79 77 93
-358.2318 9.0383 23.5759 0.820 -0.015 -0.572 85 80 100
-358.1211 15.5423 24.3836 0.540 -0.623 0.567 79 76 94
-324.4226 23.4708 24.1051 0.757 0.190 0.625 79 80 98
-215.3104 17.5887 19.2639 0.554 -0.703 -0.446 76 76 100
-169.4446 19.6649 17.7968 0.537 -0.804 -0.257 81 83 110
-332.6305 40.1062 26.4908 0.731 0.453 0.509 80 83 110
-353.9423 47.2659 28.1867 0.523 -0.635 -0.568 73 76 103
-179.5176 43.8225 21.1917 0.708 -0.016 0.706 85 87 122
-337.3615 87.3247 32.5636 0.641 -0.422 -0.642 71 73 104
-336.9377 88.1827 32.6547 0.648 -0.398 -0.649 71 74 103
-337.8026 91.2681 33.0725 0.553 -0.462 0.693 71 74 103
-380.9859 123.3329 38.7008 0.846 0.062 -0.530 136 130 138
-380.3360 124.2325 38.7886 0.843 0.066 -0.534 78 73 80
-380.9753 125.5133 38.9726 0.846 0.062 -0.530 97 93 99
-380.6272 126.5023 39.0829 0.908 -0.109 -0.404 84 80 85
-350.4083 131.7729 38.6035 0.788 -0.471 0.396 113 112 117
-288.8874 161.4870 39.9974 0.193 -0.510 0.838 95 90 94
-27.5356 47.9913 15.9917 0.462 -0.778 -0.426 135 133 144
-178.2863 174.0099 37.3979 0.406 -0.536 0.740 146 149 156
-257.2475 254.7520 50.4497 0.859 0.241 -0.452 121 120 134
-251.0006 253.3004 50.0334 0.813 0.490 -0.314 62 59 80
-249.1618 253.6195 50.0040 0.843 -0.536 0.041 52 49 70
-47.2860 -41.9408 5.3033 0.908 -0.313 0.279 181 199 222
-57.3477 -40.7251 5.8104 0.967 -0.212 0.140 113 128 147
-57.3514 -40.5175 5.8363 0.998 -0.058 0.021 154 169 188
-57.3588 -40.3111 5.8623 0.978 -0.163 0.132 191 207 223
-106.7684 -56.8513 5.5534 0.992 0.123 -0.011 173 189 204
-106.8302 -56.5678 5.5909 0.988 0.153 0.009 155 171 184
-106.8014 -56.2534 5.6289 0.948 0.315 0.052 146 162 175
-337.5225 -124.5460 5.2989 0.947 -0.067 -0.314 116 129 145
-336.8313 -122.8181 5.4893 0.916 0.219 -0.335 116 129 145
-186.1045 -74.5322 6.1615 0.920 0.194 -0.340 192 205 221
-186.1769 -74.0888 6.2192 0.920 0.194 -0.340 125 141 156
-184.6891 -71.7919 6.4522 0.542 -0.834 -0.104 77 89 103
-172.3518 -66.0044 6.7354 0.972 0.023 -0.234 114 126 140
-122.0863 -50.5270 6.8818 0.510 -0.850 0.130 126 138 152
-225.2511 -64.2370 8.8267 0.891 0.382 0.246 151 162 180
-227.8752 -61.9765 9.2006 0.763 0.021 0.646 93 106 123
-136.6353 -38.5375 8.8875 0.995 -0.086 0.047 110 120 145
-216.1642 -48.5048 10.4616 0.415 -0.881 0.227 83 93 106
-194.6756 -41.2784 10.6000 0.295 -0.943 0.155 76 80 91
-347.0982 -35.2552 16.7414 0.220 -0.793 0.568 81 80 95
-332.3690 -11.4190 19.1845 0.769 -0.629 0.116 85 85 96
-330.9894 3.9823 21.0509 0.978 0.167 0.128 73 69 83
-367.2678 9.3860 23.0063 0.918 -0.117 -0.380 88 80 95
-359.3739 11.9428 23.0450 0.775 -0.023 -0.632 90 82 96
-341.7685 32.9663 25.0365 0.492 -0.855 0.165 90 86 105
-345.2268 73.7598 30.2317 0.503 0.376 0.778 103 102 125
-342.4654 87.6543 31.8619 0.655 -0.384 -0.651 79 76 97
-338.7553 87.7599 31.7438 0.646 -0.399 -0.651 80 76 98
-337.6717 93.2754 32.3913 0.555 -0.262 0.789 81 78 96
-339.0511 94.5852 32.6030 0.555 -0.271 0.786 202 199 216
-338.5771 95.4345 32.6918 0.563 -0.265 0.782 220 217 233
-381.6212 123.6548 37.7240 0.846 0.062 -0.530 93 90 97
-349.8838 129.6729 37.3496 0.784 -0.459 0.419 89 89 91
-349.9247 131.7455 37.6087 0.788 -0.471 0.396 108 108 110
-349.4505 132.6162 37.7002 0.788 -0.471 0.396 120 120 122
-258.0584 256.5813 49.8826 0.859 0.241 -0.452 116 115 131
-247.9050 251.7979 48.9286 0.835 -0.549 0.040 65 62 83
-47.2131 -41.9111 5.0996 0.908 -0.313 0.279 182 199 222
-57.3761 -41.1491 5.5305 0.950 -0.297 0.093 119 134 153
-57.2822 -40.9079 5.5573 0.955 -0.281 0.090 98 113 132
-57.2358 -40.6833 5.5836 0.972 -0.210 0.103 110 125 144
-57.3042 -40.4981 5.6088 1.000 -0.027 -0.001 149 164 183
-57.3528 -40.3056 5.6342 0.999 -0.042 0.018 192 208 224
-106.7725 -56.8477 5.2217 0.992 0.123 -0.011 180 196 211
-106.8281 -56.5620 5.2589 0.988 0.153 0.009 154 170 183
-106.7245 -56.2224 5.2976 0.988 0.151 0.022 138 154 167
-337.9788 -123.9136 4.5708 0.880 0.152 -0.451 117 130 146
-186.1784 -74.5432 5.6593 0.934 0.236 -0.269 197 210 226
-186.2723 -74.1059 5.7166 0.934 0.236 -0.269 139 155 170
-186.4037 -73.6789 5.7739 0.921 0.189 -0.341 51 64 80
-186.4993 -73.2404 5.8313 0.920 0.194 -0.340 72 85 101
-172.0849 -65.9173 6.2611 0.974 0.004 -0.228 80 92 106
-122.1115 -50.5238 6.5130 0.520 -0.854 -0.000 121 133 147
-224.8426 -64.1250 8.2302 0.899 0.375 0.225 153 161 180
-227.9255 -61.9637 8.6000 0.930 0.143 0.339 89 99 117
-136.3637 -38.4691 8.4782 0.943 -0.300 0.147 110 118 143
-331.8517 -30.6585 15.9194 0.150 -0.886 -0.438 93 93 106
-331.4591 4.9244 20.3140 0.968 0.239 -0.079 68 65 79
-365.9579 9.4254 22.0140 0.964 0.251 -0.088 86 81 96
-334.6660 36.8960 24.3805 0.617 -0.718 -0.321 94 86 102
-330.8815 40.0825 24.6499 0.419 -0.635 0.649 96 92 107
-329.5332 41.7186 24.8079 0.414 -0.637 0.650 88 80 97
-343.8524 90.0343 31.2670 0.688 -0.457 0.564 87 80 94
-336.6819 92.1818 31.2956 0.253 -0.594 0.764 101 95 108
-337.7385 94.3709 31.6017 0.555 -0.271 0.786 135 132 141
-337.4451 95.2630 31.7025 0.555 -0.271 0.786 152 149 158
-382.2591 123.9779 36.7435 0.846 0.062 -0.530 87 86 94
-341.9989 125.1803 35.5592 0.457 -0.659 0.598 135 135 137
-44.0774 55.4725 17.0586 0.786 0.351 -0.509 133 132 137
-253.4713 252.9218 48.4509 0.866 -0.498 0.034 140 139 157
-251.3119 252.0520 48.2716 0.852 -0.519 0.068 99 96 117
-245.1506 250.5662 47.8835 0.858 -0.503 -0.101 63 60 81
-47.0443 -41.8438 4.8977 0.928 -0.270 0.258 185 199 225
-47.0585 -41.6642 4.9203 0.987 -0.025 -0.157 186 201 223
-57.3501 -41.1369 5.3029 0.950 -0.297 0.093 122 137 156
-57.2575 -40.8962 5.3297 0.955 -0.281 0.090 98 113 132
-57.2091 -40.6709 5.3560 0.972 -0.210 0.103 106 121 140
-57.2466 -40.4751 5.3813 1.000 0.016 -0.012 144 159 178
-106.8726 -57.1811 4.8511 0.992 0.125 -0.021 187 203 219
-106.9086 -56.8888 4.8883 0.992 0.125 -0.021 191 207 222
-106.8260 -56.5561 4.9268 0.988 0.153 0.009 168 184 197
-106.7182 -56.2151 4.9655 0.988 0.151 0.022 148 164 177
-186.3159 -74.5734 5.1561 0.934 0.236 -0.269 198 211 227
-186.5044 -73.6972 5.2700 0.934 0.236 -0.269 42 55 71
-186.6770 -73.2810 5.3267 0.920 0.194 -0.340 74 87 103
-172.1962 -65.9362 5.7862 0.974 0.004 -0.228 67 79 93
-202.6138 -68.4117 6.4192 0.882 0.472 0.015 161 170 185
-60.6766 -30.4078 6.7293 0.670 0.740 0.065 173 185 199
-197.4967 -62.6051 6.9777 0.943 0.257 -0.210 148 160 174
-227.4597 -61.8425 7.9962 0.945 0.239 0.222 88 96 113
-136.2902 -38.4378 8.0713 0.943 -0.300 0.147 121 126 150
-187.9741 -39.6892 9.5114 0.297 -0.947 0.121 83 87 91
-147.0194 -27.5911 9.7406 0.179 -0.970 0.164 82 87 92
-336.3264 -30.9241 15.1698 0.350 -0.933 -0.084 88 87 101
-331.8108 3.2744 19.2500 0.956 0.281 -0.088 80 76 91
-333.9698 4.1791 19.4283 0.964 0.265 0.028 74 70 85
-362.4723 10.3363 21.0673 0.779 -0.013 -0.627 93 87 101
-362.3659 11.2716 21.1794 0.779 -0.013 -0.627 100 94 106
-362.2595 12.2072 21.2916 0.779 -0.013 -0.627 100 94 106
-362.1531 13.1433 21.4038 0.779 -0.013 -0.627 100 94 106
-28.9144 7.2888 10.4006 0.947 0.316 -0.052 90 82 98
-342.1205 88.7679 30.1167 0.677 -0.431 0.596 93 87 101
-340.9873 122.9735 34.3022 0.549 0.406 0.731 139 139 141
-350.8904 128.2129 35.2542 0.432 -0.629 0.647 134 134 134
-353.8749 136.4759 36.3658 0.812 -0.432 0.393 120 119 124
-43.9078 54.0520 16.6330 0.921 0.077 -0.381 136 136 138
-24.9943 46.2429 15.0860 0.462 -0.576 -0.674 130 127 134
-159.6474 155.5384 32.7256 0.626 0.687 0.368 107 105 118
-251.0488 252.0177 47.4495 0.767 -0.631 0.119 95 92 113
-246.2351 250.7482 47.1444 0.867 -0.496 -0.048 83 80 99
-268.3708 273.6288 50.6504 0.843 0.231 -0.485 57 54 73
-47.0138 -41.8308 4.6937 0.934 -0.248 0.259 186 200 226
-46.9638 -41.6261 4.7174 0.987 -0.033 -0.157 188 203 226
-47.1437 -41.5108 4.7367 0.946 0.291 0.140 193 208 228
-47.1500 -41.3276 4.7594 0.950 0.290 0.113 165 182 199
-210.5461 -102.4948 1.9128 0.739 0.478 0.474 137 154 170
-57.3707 -41.1411 5.0745 0.948 -0.299 0.109 126 141 160
-57.2727 -40.8984 5.1015 0.953 -0.286 0.102 101 116 135
-57.1932 -40.6623 5.1283 0.972 -0.213 0.101 103 118 137
-57.2492 -40.4727 5.1532 1.000 0.016 -0.012 138 153 172
-106.9555 -57.2045 4.5177 0.992 0.124 0.006 182 198 214
-106.9924 -56.9122 4.5547 0.992 0.124 0.006 195 211 226
-107.0209 -56.6167 4.5918 0.989 0.144 0.016 171 187 202
-333.3408 -121.6924 3.0635 0.865 0.191 -0.463 121 134 150
-186.3652 -74.5770 4.6526 0.981 -0.175 0.082 201 214 230
-125.7657 -55.6964 5.2408 0.623 0.723 0.297 38 51 67
-126.5275 -55.5725 5.2778 0.620 0.719 0.313 66 79 95
-202.8509 -68.4562 5.8761 0.872 0.479 0.102 162 171 186
-302.6936 -91.9504 5.8427 0.966 -0.014 0.260 134 143 158
-197.3153 -62.5439 6.4445 0.926 0.317 -0.204 150 162 176
-348.9647 -70.0393 9.8583 0.579 -0.810 -0.088 80 82 94
-160.9547 -31.5272 9.2170 0.288 -0.866 -0.409 82 85 90
-339.3513 -35.3128 13.8513 0.744 0.638 0.200 88 88 97
-340.2466 -34.5405 13.9718 0.929 0.350 -0.121 87 87 99
-342.4097 -33.0101 14.2218 0.943 0.311 -0.120 77 76 92
-321.0908 -25.7308 14.5070 0.768 -0.382 0.514 77 75 89
-327.1598 -13.6338 16.1672 0.302 0.397 0.867 88 84 98
-328.3693 -11.9865 16.4042 0.575 0.518 0.633 82 80 91
-333.1581 1.6356 18.2152 0.999 -0.036 0.010 77 73 87
-334.0257 2.5137 18.3479 0.807 0.085 -0.585 68 64 78
-333.6843 3.3761 18.4442 0.805 0.103 -0.584 70 66 81
-366.8668 8.6629 20.0424 0.967 0.236 -0.094 79 75 90
-343.9185 23.3575 21.1924 0.754 -0.472 -0.457 89 86 95
-331.0103 23.3729 20.8253 0.789 -0.334 -0.515 87 84 93
-341.5682 89.7210 29.2812 0.675 -0.372 0.638 98 92 106
-334.3186 100.4728 30.3954 0.387 -0.343 0.856 85 82 89
-334.0678 106.2100 31.0933 0.844 -0.359 0.398 71 66 73
-338.1283 122.1833 33.1725 0.547 0.401 0.735 103 103 105
-339.1146 124.4990 33.4853 0.264 -0.248 0.932 88 88 88
-336.4417 126.6107 33.6684 0.421 0.005 0.907 94 94 94
-335.8868 127.4207 33.7521 0.363 0.291 0.885 96 96 98
-339.5821 130.6792 34.2582 0.347 0.414 0.842 97 97 99
-159.7522 165.3745 33.3817 0.969 0.142 -0.204 158 161 168
-247.4678 251.9858 46.5335 0.874 -0.486 0.009 89 86 107
-245.7612 251.4608 46.4202 0.860 -0.507 -0.052 67 64 85
-251.2659 258.0734 47.3902 0.728 0.646 -0.230 62 59 80
-47.0295 -41.8358 4.4886 0.955 -0.183 0.233 186 200 226
-46.8870 -41.5950 4.5143 0.939 0.336 0.075 188 203 226
-46.9466 -41.4331 4.5357 0.939 0.336 0.075 191 206 227
-210.0117 -102.7819 1.3174 0.657 0.682 0.321 125 142 160
-194.8114 -89.0310 2.6006 0.786 -0.572 0.235 126 143 163
-57.2445 -40.8855 4.8738 0.953 -0.286 0.102 103 120 140
-57.1668 -40.6500 4.9006 0.972 -0.213 0.101 99 114 135
-106.9504 -57.5025 4.1478 0.993 0.116 -0.004 133 148 167
-106.9542 -57.1992 4.1850 0.992 0.124 0.006 178 194 212
-106.9911 -56.9068 4.2218 0.992 0.124 0.006 193 209 225
-106.9734 -56.5955 4.2594 0.974 0.154 -0.168 163 179 194
-107.0133 -56.3034 4.2962 0.974 0.154 -0.168 138 154 169
-332.7265 -121.4864 2.2573 0.877 0.142 -0.459 121 134 150
-186.4344 -74.5866 4.1483 0.970 -0.095 0.224 200 213 229
-186.2435 -74.0633 4.2074 0.919 0.209 -0.334 146 159 175
-125.6931 -55.6663 4.8658 0.622 0.721 0.304 41 54 70
-124.7643 -51.9153 5.3006 0.541 -0.841 0.003 94 106 120
-122.6370 -50.9821 5.3588 0.563 -0.825 -0.045 123 135 149
-202.8033 -68.4275 5.3331 0.872 0.479 0.102 157 166 181
-302.4890 -91.8754 5.0863 0.966 -0.014 0.260 133 142 157
-302.7290 -91.2255 5.1721 0.915 0.046 0.400 114 123 138
-196.8458 -62.4141 5.9124 0.947 0.270 -0.174 149 161 175
-349.8819 -70.1517 8.9928 0.734 -0.528 -0.426 73 73 85
-320.1701 -25.6202 13.6621 0.791 -0.358 0.497 70 68 82
-321.2264 -14.2330 15.0838 0.251 0.351 0.902 82 78 92
-323.6608 -13.4761 15.2406 0.249 0.352 0.902 83 79 93
-338.2224 -3.4761 16.8479 0.981 -0.076 0.177 80 76 90
-346.0757 -1.7023 17.2717 0.995 -0.089 -0.054 70 66 80
-335.7938 2.6100 17.5290 0.826 0.148 -0.544 68 64 79
-335.8786 3.4840 17.6382 0.826 0.148 -0.544 71 67 82
-335.9636 4.3592 17.7476 0.826 0.148 -0.544 76 72 87
-370.0706 11.7009 19.5440 0.971 0.226 -0.084 90 84 98
-318.9307 24.3208 19.7429 0.842 -0.025 -0.539 85 74 88
-28.7503 7.1155 9.9998 0.936 -0.150 0.317 88 82 96
-28.7424 7.3043 10.0227 0.938 0.268 0.220 78 72 86
-28.7924 7.5009 10.0481 0.938 0.251 0.238 70 64 76
-163.9908 37.2923 17.2531 0.751 0.310 0.584 99 93 105
-168.9495 39.2914 17.6283 0.932 0.135 0.335 112 105 121
-339.4982 85.4888 27.7720 0.684 -0.447 0.576 105 96 113
-340.0715 86.5825 27.9209 0.676 -0.451 0.583 97 91 105
-342.1816 88.0359 28.1544 0.542 -0.527 0.654 96 90 104
-341.9496 88.9526 28.2605 0.673 -0.359 0.646 96 90 104
-340.2693 90.4947 28.4050 0.569 -0.451 -0.687 100 94 108
-331.9507 91.3552 28.2915 0.622 -0.630 0.464 101 95 108
-332.6917 93.4454 28.5668 0.864 -0.188 0.467 110 107 116
-332.5508 94.3648 28.6757 0.864 -0.188 0.467 100 97 106
-332.4098 95.2845 28.7845 0.864 -0.188 0.467 105 102 111
-332.2688 96.2044 28.8934 0.864 -0.188 0.467 91 88 97
-336.1196 125.6375 32.5978 0.279 -0.218 0.935 69 67 70
-209.4464 214.0158 40.0826 0.693 0.338 0.636 170 170 180
-211.8306 216.8178 40.4884 0.732 0.582 0.355 164 163 176
-247.3918 252.1081 45.7443 0.874 -0.486 0.009 101 97 120
-244.4260 254.2227 45.9251 0.723 0.656 -0.218 59 56 77
-46.8730 -41.5884 4.3100 0.939 0.336 0.075 188 202 227
-46.9326 -41.4264 4.3311 0.939 0.336 0.075 189 204 226
-46.9410 -41.2442 4.3536 0.934 0.346 0.083 167 184 202
-47.0028 -41.0824 4.3748 0.934 0.346 0.083 133 150 168
-194.9545 -89.0740 2.0814 0.795 -0.558 0.238 123 140 160
-57.2908 -40.8984 4.6446 0.921 -0.336 0.197 107 124 144
-57.1404 -40.6377 4.6728 0.972 -0.213 0.101 94 111 131
-106.9304 -57.4909 3.8153 0.992 0.122 0.034 135 150 171
-106.7723 -57.1323 3.8552 0.992 0.121 0.031 178 193 212
-106.8090 -56.8400 3.8918 0.992 0.121 0.031 189 205 221
-106.8349 -56.5438 3.9285 0.980 0.188 0.067 166 182 198
-106.9237 -56.2682 3.9642 0.988 0.058 -0.145 121 137 152
-333.1373 -121.5960 1.4392 0.877 0.142 -0.459 121 134 150
-186.3139 -74.5392 3.6457 0.970 -0.095 0.224 196 209 225
-186.3508 -74.0839 3.7021 0.993 -0.082 0.090 158 171 187
-125.5643 -55.6195 4.4916 0.622 0.721 0.304 51 64 80
-122.8772 -51.0381 4.9856 0.572 -0.819 -0.052 118 130 144
-203.3041 -68.0299 4.8480 0.867 0.486 0.111 157 167 179
-302.2845 -91.8005 4.3301 0.966 -0.014 0.260 132 141 156
-302.4035 -91.1206 4.4158 0.915 0.046 0.400 111 120 135
-300.3797 -89.9114 4.5146 0.916 -0.202 0.346 102 114 128
-196.9883 -62.4302 5.3789 0.859 0.484 0.170 142 154 168
-164.4481 -32.8549 8.2023 0.385 -0.848 -0.364 59 54 67
-163.5684 -32.2803 8.2512 0.352 -0.867 -0.352 58 55 66
-373.0827 -33.3726 13.1566 0.105 -0.900 -0.422 69 67 80
-324.0915 -12.5957 14.5117 0.256 0.367 0.894 77 73 87
-333.8736 -11.1331 14.9252 0.251 0.370 0.895 82 80 91
-338.3928 -4.2803 15.8695 0.985 -0.064 0.163 78 74 88
-338.0584 -3.4080 15.9678 0.981 -0.076 0.177 74 70 84
-337.2276 -2.5372 16.0540 1.000 0.025 0.008 69 63 77
-337.2090 0.9520 16.4790 1.000 -0.004 -0.025 66 62 76
-334.8362 1.7960 16.5248 0.968 -0.013 -0.252 66 62 76
-337.8580 2.7115 16.7091 0.879 -0.051 -0.474 67 63 78
-337.7510 3.5872 16.8133 0.879 -0.051 -0.474 70 66 81
-337.6440 4.4632 16.9175 0.879 -0.051 -0.474 76 72 87
-338.7041 5.3652 17.0530 0.897 -0.068 -0.436 81 77 92
-337.4682 6.2174 17.1272 0.900 -0.054 -0.432 82 78 93
-368.7697 9.8271 18.3201 0.955 0.132 0.264 79 75 90
-370.8184 10.8487 18.4939 0.957 0.141 0.252 79 75 89
-370.9922 11.8141 18.6158 0.957 0.141 0.252 84 78 92
-371.1665 12.7811 18.7379 0.957 0.141 0.252 84 78 90
-366.7055 13.5646 18.7261 0.915 -0.134 -0.380 84 78 90
-331.1837 42.2641 21.3711 0.745 0.566 -0.354 91 84 100
-28.7186 7.1302 9.8135 0.942 -0.137 0.306 92 85 101
-28.6891 7.3162 9.8354 0.938 0.251 0.238 76 69 84
-28.7484 7.7044 9.8842 0.927 0.259 0.270 70 62 75
-28.4147 7.8490 9.8938 0.980 -0.173 -0.100 69 61 74
-163.5765 37.2712 16.7316 0.751 0.310 0.584 105 99 111
-339.9085 83.7673 26.6413 0.847 0.314 -0.430 112 103 120
-338.9112 84.5054 26.7073 0.860 0.094 -0.502 112 103 120
-340.5313 85.8335 26.9082 0.697 -0.523 0.490 112 103 120
-341.1283 87.9037 27.1749 0.542 -0.527 0.654 100 94 108
-340.7921 88.7937 27.2754 0.657 -0.380 0.651 101 95 109
-344.1107 91.5267 27.6884 0.608 -0.433 -0.666 105 99 113
-330.9629 93.1234 27.5669 0.872 -0.182 0.453 109 106 115
-331.3730 94.1790 27.7055 0.872 -0.194 0.450 95 92 101
-331.0746 99.8334 28.3877 0.275 -0.403 0.873 80 77 84
-327.3141 108.3551 29.3363 0.794 -0.311 0.522 114 113 119
-327.0372 109.2317 29.4365 0.794 -0.311 0.522 76 77 82
-322.9967 128.1620 31.6475 0.704 0.042 0.709 102 100 105
-18.6590 38.8303 13.4366 0.139 -0.857 0.497 133 127 137
-159.6758 166.2128 32.3592 0.931 -0.171 -0.321 198 201 210
-159.5526 166.7632 32.4234 0.931 -0.171 -0.321 186 186 196
-123.4948 141.5337 28.4801 0.796 0.114 0.595 134 134 144
-123.5603 142.6753 28.6208 0.760 -0.008 0.650 167 167 177
-247.2918 251.2742 44.8375 0.866 -0.497 -0.061 145 142 163
-55.8349 -46.4934 3.7045 0.459 -0.888 -0.014 174 188 214
-47.3349 -41.9534 4.0707 0.985 -0.054 0.161 185 199 225
-46.8131 -41.3788 4.1291 0.937 0.333 0.102 187 202 224
-46.8731 -41.2167 4.1501 0.937 0.333 0.102 167 184 202
-46.9465 -40.8735 4.1934 0.927 0.359 0.108 112 129 147
-46.9860 -40.7026 4.2150 0.912 0.384 0.142 114 131 151
-196.7619 -90.6481 1.4114 0.810 -0.542 0.226 108 125 145
-195.6193 -89.7724 1.4929 0.787 -0.573 0.229 113 130 150
-195.2242 -89.1611 1.5585 0.782 -0.578 0.233 123 140 160
-194.7802 -88.5339 1.6250 0.782 -0.578 0.233 110 127 147
-57.1466 -40.4277 4.4697 0.960 -0.230 0.160 129 146 166
-106.6974 -57.1019 3.5239 0.980 0.183 0.073 176 191 210
-106.7534 -56.8162 3.5598 0.980 0.183 0.073 185 200 219
-106.8145 -56.5317 3.5957 0.980 0.188 0.067 162 178 194
-106.9326 -56.2659 3.6305 0.988 0.150 0.038 112 128 144
-333.0729 -121.5593 0.6261 0.887 0.113 -0.448 122 135 151
-329.1946 -118.1316 0.9579 0.852 0.183 0.491 152 165 181
-186.1933 -74.4919 3.1433 0.970 -0.095 0.224 191 204 220
-185.7378 -73.8899 3.2065 0.992 -0.093 0.080 170 183 199
-125.4356 -55.5728 4.1176 0.622 0.721 0.304 60 73 89
-125.8523 -54.2999 4.2813 0.758 0.626 -0.181 73 86 102
-203.4694 -68.0553 4.3012 0.873 0.487 0.018 157 166 181
-302.0800 -91.7256 3.5741 0.966 -0.014 0.260 134 143 158
-303.1267 -91.2762 3.6515 0.906 0.037 0.423 113 122 137
-303.1951 -90.5809 3.7374 0.906 0.037 0.423 101 113 127
-196.9041 -62.3922 4.8459 0.859 0.484 0.170 141 153 167
-163.5703 -32.7097 7.7246 0.453 -0.857 -0.247 62 59 70
-337.4918 -34.1575 11.3364 0.760 0.434 0.484 71 68 79
-324.2337 -11.7050 13.7743 0.395 0.547 0.738 82 78 92
-332.1611 -8.4759 14.3391 0.570 0.521 0.635 75 73 84
-343.3650 -5.1087 14.9920 0.735 0.570 0.367 88 85 96
-336.0532 -4.2063 14.9423 0.995 0.103 0.013 72 69 80
-336.1442 -3.3391 15.0496 0.995 0.103 0.013 71 65 77
-335.8935 -2.4713 15.1495 0.995 0.103 -0.006 65 59 71
-337.0599 -0.7262 15.3869 0.877 0.401 -0.266 63 57 69
-337.7936 1.0282 15.6159 0.877 0.401 -0.266 63 57 69
-339.3393 1.9244 15.7584 0.874 0.402 -0.272 64 58 72
-340.6106 4.5934 16.1102 0.894 -0.009 -0.447 75 71 86
-340.5492 5.4779 16.2163 0.894 -0.009 -0.447 84 78 92
-337.8800 6.2997 16.2580 0.900 -0.054 -0.432 82 78 93
-355.7897 8.5794 16.9248 0.942 0.123 0.311 79 75 90
-372.9320 21.6598 18.8866 0.686 -0.535 -0.494 76 75 83
-339.5798 26.9201 18.7991 0.993 0.103 -0.065 79 68 82
-333.9279 28.2706 18.8400 0.985 0.132 0.109 90 79 93
-331.1321 42.3459 20.4885 0.890 0.432 -0.145 98 91 107
-28.9265 6.9855 9.6130 0.972 -0.235 -0.020 98 91 107
-28.6706 7.1429 9.6265 0.941 -0.322 0.100 98 91 107
-28.6928 7.3356 9.6504 0.940 0.284 0.187 79 73 88
-28.7046 7.5273 9.6739 0.938 0.251 0.238 69 61 75
-341.4224 72.6952 24.3982 0.708 -0.702 -0.079 109 102 118
-333.0424 78.5779 24.9301 0.764 0.112 -0.635 103 94 111
-337.6014 81.4534 25.3786 0.786 0.201 -0.585 103 94 111
-337.9625 82.4876 25.5120 0.759 0.053 -0.649 108 99 116
-327.6110 83.0084 25.3498 0.860 0.315 -0.402 109 100 117
-337.8746 86.2998 25.9731 0.592 -0.386 0.707 104 98 112
-336.1001 88.7629 26.2335 0.714 -0.319 0.623 103 97 111
-335.8192 90.6135 26.4521 0.720 -0.337 0.606 103 97 111
-331.5464 90.5288 26.3488 0.517 -0.854 0.064 102 96 110
-331.0582 92.3089 26.5543 0.842 -0.229 0.489 111 108 118
-331.8873 93.4689 26.7133 0.834 -0.244 0.495 104 101 110
-331.1456 94.2343 26.7901 0.871 -0.179 0.457 81 78 87
-329.6617 94.8064 26.8272 0.471 -0.491 0.733 61 58 67
-324.0737 99.0045 27.2154 0.485 -0.507 0.713 91 88 95
-327.6596 108.5766 28.4559 0.796 -0.312 0.519 160 159 165
-328.2280 162.1098 34.9693 0.670 -0.732 -0.121 61 56 62
-316.4533 159.9456 34.4501 0.855 0.281 -0.435 95 93 96
-20.0766 39.9160 13.4193 0.211 -0.903 0.374 133 127 137
-161.5835 168.5248 32.1192 0.834 0.419 -0.358 181 181 191
-122.9695 140.6648 27.8950 0.736 0.393 0.552 135 135 145
-123.0705 141.2896 27.9731 0.801 0.117 0.587 139 137 148
-247.8543 251.0032 44.0142 0.851 -0.498 -0.170 176 173 192
-245.2253 251.5612 44.0247 0.869 -0.489 0.074 95 92 109
-116.0971 -77.6249 0.8914 0.512 -0.851 -0.117 145 159 170
-47.1112 -41.6790 3.8936 0.770 -0.511 0.382 184 198 224
-46.8258 -41.3825 3.9239 0.709 -0.551 0.440 183 198 220
-46.6790 -41.1404 3.9503 0.692 -0.548 0.470 165 182 201
-46.4979 -40.8855 3.9776 0.700 -0.543 0.464 133 150 168
-195.9355 -90.3504 0.9094 0.731 -0.562 0.386 98 115 135
-195.4084 -88.7445 1.0934 0.872 -0.415 -0.258 113 130 150
-106.7777 -57.4290 3.1523 0.983 0.180 0.021 120 137 157
-106.8118 -57.1360 3.1885 0.987 0.160 0.027 173 190 208
-106.8124 -56.8312 3.2253 0.986 0.165 0.021 182 197 216
-106.7940 -56.5197 3.2626 0.980 0.188 0.067 145 161 177
-329.3502 -118.1609 0.1479 0.848 0.193 0.494 148 161 178
-185.6793 -74.3266 2.6475 0.822 -0.541 0.178 187 200 217
-185.4814 -73.8021 2.7071 0.991 -0.105 0.085 156 169 185
-125.3070 -55.5262 3.7439 0.622 0.721 0.304 55 68 84
-125.9048 -54.3058 3.9032 0.762 0.617 -0.196 71 84 101
-172.6458 -66.0008 3.4003 0.882 0.146 -0.447 71 82 100
-172.6905 -65.5694 3.4534 0.882 0.146 -0.447 74 85 102
-121.6926 -50.3492 4.2996 0.535 -0.843 -0.058 121 133 149
-203.2322 -67.9783 3.7577 0.887 0.462 0.001 157 166 181
-302.6587 -91.8467 2.8101 0.909 0.037 0.415 137 146 161
-302.7780 -91.1655 2.8948 0.906 0.037 0.423 115 124 139
-302.8460 -90.4706 2.9802 0.906 0.037 0.423 101 113 127
-196.4563 -62.2676 4.3163 0.886 0.454 0.098 142 154 168
-100.8468 -36.7088 5.5428 0.488 0.868 0.091 140 147 165
-135.7890 -36.3189 6.2715 0.585 0.785 0.203 69 71 83
-326.2519 -63.7297 6.6711 0.583 -0.640 -0.500 75 75 87
-318.5742 -61.7257 6.7637 0.339 -0.930 -0.140 74 74 86
-165.4455 -32.9424 7.2584 0.406 -0.816 -0.412 78 75 86
-339.7717 -32.5893 10.7013 0.729 0.499 0.469 61 58 69
-356.3045 -29.4007 11.4094 0.913 0.370 -0.174 61 58 69
-324.9481 -13.3279 12.7419 0.628 -0.770 -0.113 67 60 76
-342.9721 -5.0386 14.0961 0.735 0.570 0.367 65 59 71
-334.8791 -4.1360 14.0474 0.993 0.113 -0.029 47 41 52
-335.0386 -3.2710 14.1551 0.990 0.138 -0.025 52 44 55
-335.9058 -2.4032 14.2770 0.995 0.103 -0.006 58 50 61
-337.4588 -1.5278 14.4132 0.901 0.427 0.074 63 55 66
-338.3240 -0.6489 14.5363 0.928 0.371 0.020 62 54 65
-339.0636 0.2335 14.6575 0.922 0.387 0.025 63 55 66
-339.4980 1.1168 14.7728 0.967 0.252 -0.031 64 56 67
-338.9832 5.5157 15.2948 0.467 -0.882 0.062 68 62 76
-338.1801 7.2619 15.4904 0.900 0.434 -0.035 79 73 87
-335.5868 26.6944 17.7902 0.992 0.079 -0.094 75 64 78
-333.8922 27.4563 17.8493 0.994 -0.047 -0.101 81 70 84
-331.7019 29.0597 18.0005 0.960 0.270 0.078 94 82 96
-28.6455 7.1585 9.4404 0.941 -0.322 0.100 104 95 112
-28.6724 7.3519 9.4643 0.943 0.289 0.167 81 74 89
-28.7377 7.5507 9.4897 0.943 0.289 0.167 69 62 75
-349.7892 72.4688 23.6038 0.713 -0.701 -0.017 105 99 111
-342.4062 72.0333 23.4071 0.698 -0.714 -0.060 111 102 118
-341.2640 72.7690 23.4738 0.688 -0.269 0.674 106 97 114
-329.4668 87.2998 25.0012 0.858 0.307 -0.411 89 83 97
-331.3329 89.6387 25.3205 0.642 -0.588 0.491 81 75 89
-329.3364 91.9911 25.5661 0.830 -0.215 0.515 87 83 93
-329.1678 92.8959 25.6723 0.830 -0.215 0.515 84 81 90
-328.9991 93.8008 25.7784 0.830 -0.215 0.515 71 68 77
-327.3913 94.3356 25.8117 0.833 -0.221 0.507 61 58 67
-326.8458 95.1393 25.8983 0.900 -0.183 0.396 65 62 71
-325.9935 96.8046 26.0831 0.899 -0.185 0.398 69 66 75
-327.6578 113.5086 28.1360 0.981 -0.113 0.160 81 78 85
-323.2445 129.4784 29.9815 0.956 -0.275 0.098 105 98 106
-328.2321 162.2593 34.0437 0.670 -0.732 -0.121 64 59 63
-327.4720 162.9436 34.1116 0.670 -0.732 -0.121 65 60 64
-324.3774 163.6049 34.1313 0.907 0.367 -0.208 68 66 69
-326.0461 186.9169 36.9835 0.415 0.592 0.691 86 81 85
-22.0915 38.2393 13.0719 0.502 -0.501 0.705 129 126 133
-157.0068 154.7757 29.7988 0.724 0.663 0.192 124 122 135
-263.2732 273.1982 46.1951 0.801 -0.586 -0.123 52 48 63
-253.4625 266.5189 45.1958 0.880 -0.152 -0.449 53 49 66
-69.5320 110.9114 22.7871 0.122 -0.889 0.441 42 39 46
-110.2317 -75.6152 0.6872 0.576 -0.817 -0.030 128 142 153
-112.8383 -76.1794 0.6642 0.804 0.111 -0.585 131 145 156
-46.9308 -41.6075 3.6933 0.971 -0.157 0.182 181 195 221
-46.8167 -41.3777 3.7190 0.745 -0.549 0.378 177 192 214
-193.6233 -89.9989 0.3914 0.813 -0.568 0.128 135 152 172
-194.9415 -89.9938 0.4147 0.734 -0.562 0.382 131 148 168
-195.5896 -88.8002 0.5697 0.872 -0.415 -0.258 116 133 153
-195.6506 -88.3464 0.6254 0.915 -0.353 -0.194 92 110 130
-106.7717 -57.4222 2.8193 0.983 0.180 0.021 113 130 150
-106.8250 -57.1355 2.8547 0.983 0.180 0.021 167 184 202
-106.9398 -56.8693 2.8888 0.982 0.190 0.011 187 202 221
-106.8683 -56.5396 2.9272 0.985 0.169 0.030 168 184 200
-107.1397 -56.3247 2.9578 0.989 0.144 0.021 134 147 164
-107.1712 -56.0287 2.9940 0.987 0.159 0.012 133 146 163
-106.9348 -55.6435 3.0363 0.803 0.464 0.374 145 156 174
-328.9177 -118.0127 -0.6521 0.848 0.193 0.494 146 159 176
-185.5348 -74.2721 2.1466 0.822 -0.541 0.178 185 198 215
-125.1785 -55.4795 3.3704 0.622 0.721 0.304 60 73 89
-172.7552 -66.0191 2.9205 0.844 -0.279 -0.458 68 81 102
-172.3468 -65.4613 2.9807 0.847 -0.250 -0.469 77 90 111
-302.4141 -91.7617 2.0535 0.936 -0.136 0.324 138 147 164
-303.0091 -91.1988 2.1316 0.914 -0.133 0.383 117 126 143
-303.1441 -90.5196 2.2158 0.640 0.397 0.657 102 114 130
-196.3237 -62.7181 3.7243 0.969 0.037 -0.243 167 179 195
-196.4664 -62.2522 3.7829 0.889 0.455 0.055 143 155 171
-227.2024 -62.2179 4.3166 0.935 0.280 0.218 92 99 117
-135.6510 -36.2762 5.8642 0.595 0.751 0.288 73 73 85
-337.9256 -66.3735 5.7238 0.418 -0.572 -0.706 75 75 87
-167.0052 -33.1313 6.7833 0.396 -0.819 -0.416 75 72 83
-332.7563 -36.1655 9.2738 0.761 0.437 0.480 100 97 107
-333.2738 -35.3788 9.3775 0.761 0.437 0.480 112 109 120
-336.8346 -34.8372 9.5041 0.768 0.435 0.470 97 94 105
-337.0867 -34.0168 9.6072 0.770 0.455 0.447 72 69 80
-343.1085 -28.4941 10.3763 0.936 0.313 -0.162 61 58 69
-331.4900 -23.5647 10.7699 0.987 -0.037 -0.157 59 55 69
-334.2389 -3.2033 13.2701 0.995 0.095 -0.027 58 48 58
-334.8583 -2.3373 13.3851 0.992 0.122 -0.032 65 55 64
-337.4191 -1.4591 13.5350 0.901 0.427 0.074 69 59 68
-346.9169 3.0655 14.2437 0.802 -0.113 0.586 65 57 70
-346.4096 3.9556 14.3422 0.817 -0.092 0.570 63 55 68
-335.1850 24.9557 16.6786 0.798 0.585 -0.147 78 70 83
-335.0089 25.8367 16.7817 0.995 0.046 -0.091 86 75 89
-334.9614 26.7276 16.8882 0.995 0.062 -0.082 80 68 82
-328.7602 29.7773 17.1487 0.914 -0.407 0.002 95 83 97
-328.9699 31.5663 17.3679 0.709 -0.699 -0.089 86 75 89
-329.9238 32.5422 17.5019 0.924 -0.383 0.023 86 75 89
-333.0432 38.2296 18.2407 0.925 0.284 -0.252 119 109 121
-337.2209 39.5913 18.4768 0.841 0.540 0.037 94 84 96
-339.1552 43.4797 18.9785 0.831 0.544 0.116 106 98 110
-341.3711 44.6706 19.1602 0.877 0.475 -0.075 104 96 108
-28.8484 7.0132 9.2388 0.970 -0.241 -0.038 108 100 113
-28.6762 7.1813 9.2561 0.948 -0.157 -0.276 98 90 103
-24.0774 9.4767 9.4534 0.182 -0.929 0.321 137 132 139
-161.5740 36.0304 15.0213 0.750 0.383 0.539 98 92 100
-343.9191 72.4267 22.5477 0.722 -0.691 -0.043 101 93 105
-326.7640 83.9627 23.6418 0.903 0.236 -0.359 64 56 69
-331.9536 91.8042 24.6758 0.616 -0.625 0.480 78 70 83
-328.5237 97.5889 25.3136 0.818 -0.143 0.558 69 64 71
-327.5001 113.5825 27.2226 0.981 -0.113 0.160 77 74 82
-328.4259 162.4917 33.1305 0.678 -0.724 -0.123 61 56 60
-327.6764 163.1813 33.2006 0.678 -0.724 -0.123 61 57 58
-327.0897 163.9399 33.2819 0.870 0.492 0.036 59 55 56
-327.7153 166.2543 33.5715 0.808 0.579 0.108 78 76 77
-357.4225 206.2627 38.9030 0.389 0.561 0.731 63 58 64
-21.9152 39.2108 12.9981 0.393 0.073 0.917 89 87 90
-22.1038 39.5280 13.0395 0.392 0.076 0.917 89 87 90
-20.5565 39.2460 12.9789 0.062 -0.764 0.642 90 88 91
-14.1923 37.9533 12.7135 0.327 -0.943 -0.061 99 92 100
-24.8624 50.2024 14.3729 0.287 -0.808 0.515 115 111 125
-125.8065 121.6868 24.7237 0.746 -0.444 0.496 97 93 107
-125.0635 121.6884 24.7111 0.762 -0.441 0.474 76 72 87
-154.7410 152.5536 28.9406 0.731 0.659 0.178 124 122 133
-121.6207 139.7646 26.8293 0.726 0.418 0.546 172 171 177
-261.0280 269.4528 44.8543 0.861 0.421 -0.285 90 88 101
-112.7625 -76.1471 0.3282 0.819 0.120 -0.562 124 138 149
-111.2657 -75.1836 0.4215 0.624 -0.443 -0.644 121 135 148
-46.9508 -41.6141 3.4872 0.971 -0.160 0.180 181 195 221
-45.8084 -40.6177 3.5897 0.554 -0.696 0.457 136 153 171
-195.9695 -88.4490 0.0966 0.920 -0.349 -0.181 96 114 134
-106.7658 -57.4153 2.4859 0.983 0.180 0.021 114 131 151
-106.7582 -57.1079 2.5227 0.985 0.169 0.030 165 182 200
-106.8088 -56.8199 2.5580 0.985 0.169 0.030 187 202 221
-106.8594 -56.5315 2.5934 0.985 0.169 0.030 166 182 198
-107.1513 -56.3233 2.6227 0.991 0.073 0.115 138 151 168
-107.1774 -56.0253 2.6589 0.991 0.073 0.115 146 159 176
-106.8079 -55.5960 2.7049 0.803 0.464 0.374 173 184 202
-184.5916 -73.5144 1.7183 0.960 0.256 0.118 189 202 217
-124.8826 -55.3834 3.0007 0.627 0.711 0.317 68 81 97
-173.4157 -66.6372 2.3762 0.949 0.020 -0.316 69 81 106
-173.0398 -66.0865 2.4367 0.844 -0.279 -0.458 68 80 105
-187.6848 -66.3843 2.6200 0.695 0.607 0.385 128 139 157
-204.1999 -68.1909 2.6502 0.891 0.454 -0.015 160 171 189
-302.1390 -91.6691 1.2979 0.936 -0.136 0.324 126 137 153
-302.3348 -91.0073 1.3803 0.934 -0.130 0.333 112 123 139
-302.4870 -90.3334 1.4634 0.640 0.397 0.657 113 125 141
-196.4575 -62.7326 3.1893 0.969 0.037 -0.243 160 172 188
-196.1134 -62.1502 3.2540 0.967 0.044 -0.252 144 156 172
-135.5086 -36.2327 5.4572 0.595 0.751 0.288 81 79 92
-339.7227 -66.6245 4.8648 0.418 -0.572 -0.706 73 71 84
-301.3013 -58.1800 5.3033 0.361 -0.930 0.069 74 72 85
-288.7956 -55.5173 5.4358 0.342 -0.937 0.072 74 72 85
-347.6444 -31.3342 9.2173 0.377 -0.918 -0.120 61 58 69
-334.1155 -3.1358 12.3981 0.992 0.117 -0.042 65 53 63
-334.8944 -2.2692 12.5137 0.992 0.122 -0.032 71 60 68
-337.2145 -1.3912 12.6538 0.914 0.398 0.075 76 64 74
-338.3428 1.2446 12.9869 0.961 0.276 -0.013 85 75 84
-346.6824 2.2361 13.2306 0.794 -0.105 0.598 78 68 77
-348.2442 3.1590 13.3646 0.805 -0.089 0.587 69 59 70
-348.2230 4.0612 13.4726 0.805 -0.089 0.587 63 55 68
-342.2859 4.8440 13.4777 0.573 -0.807 0.144 63 55 68
-331.3141 7.2218 13.5989 0.469 -0.883 0.024 70 62 75
-331.4982 27.4283 16.0260 0.981 0.120 -0.151 76 64 78
-339.3823 35.3380 17.0929 0.955 -0.295 -0.045 101 89 99
-28.9369 7.0432 9.0556 0.973 -0.164 -0.165 107 99 108
-28.6464 7.1963 9.0697 0.941 -0.166 -0.295 90 83 92
-28.6098 7.3815 9.0913 0.806 -0.152 -0.573 71 64 74
-161.4612 36.0654 14.5195 0.761 0.376 0.529 103 98 102
-346.9437 72.1429 21.6217 0.607 -0.794 0.040 92 87 92
-345.9363 72.9176 21.6996 0.607 -0.794 0.040 97 88 96
-327.3008 84.1940 22.7738 0.788 0.290 -0.543 73 65 77
-327.9984 85.2921 22.9160 0.754 0.445 -0.484 61 53 66
-330.2836 89.6060 23.4677 0.710 -0.405 0.577 83 75 88
-332.7566 92.1155 23.8058 0.665 -0.611 0.429 66 58 70
-331.4476 92.7436 23.8616 0.899 -0.192 0.394 74 69 74
-331.7797 93.7811 23.9910 0.896 -0.200 0.395 73 68 72
-330.4354 94.3932 24.0444 0.897 -0.190 0.400 65 60 65
-330.2895 95.3085 24.1520 0.897 -0.190 0.400 52 47 52
-328.5083 110.1511 25.9061 0.875 0.141 -0.463 32 26 36
-327.7306 118.6193 26.9105 0.781 -0.234 0.579 149 145 142
-327.7566 119.5993 27.0285 0.776 -0.232 0.587 128 124 123
-323.1302 129.6978 28.1709 0.949 -0.291 0.118 113 103 112
-324.4027 133.0802 28.5957 0.901 -0.329 0.282 66 54 64
-95.1307 55.7834 15.8932 0.781 0.321 0.536 108 104 104
-95.3265 56.2507 15.9522 0.875 0.394 0.282 145 141 138
-324.7766 162.0568 32.0779 0.875 0.484 0.026 55 51 52
-327.6900 166.3929 32.6417 0.808 0.579 0.108 84 82 83
-329.4335 168.1982 32.8843 0.814 0.569 0.118 89 89 89
-24.6955 50.1267 14.1613 0.287 -0.808 0.515 108 104 118
-152.8414 151.2364 28.2085 0.813 0.093 0.575 113 109 120
-121.1998 139.5227 26.3299 0.739 0.443 0.508 168 167 173
-225.3840 234.1886 39.2457 0.818 0.351 0.456 127 126 134
-214.0966 233.7516 39.0245 0.917 -0.384 -0.112 49 45 62
-222.9230 243.3690 40.3103 0.980 0.108 0.167 46 42 59
-111.9473 -76.3865 -0.0495 0.593 -0.805 0.017 161 173 187
-113.3696 -76.7208 -0.0714 0.743 0.071 -0.666 158 170 184
-113.3662 -76.4166 -0.0351 0.743 0.071 -0.666 154 166 180
-46.9101 -41.5971 3.2830 0.971 -0.160 0.180 180 196 221
-106.3198 -57.5616 2.1285 0.987 0.162 0.010 111 128 146
-106.6757 -57.3797 2.1548 0.982 0.187 0.003 135 152 172
-106.7305 -57.0935 2.1897 0.982 0.187 0.003 186 203 223
-106.7567 -56.7972 2.2254 0.983 0.184 -0.008 197 214 232
-106.7404 -56.4862 2.2624 0.984 0.180 -0.006 163 178 197
-107.2895 -56.3643 2.2839 0.988 0.151 0.020 148 161 178
-107.2072 -56.0298 2.3228 0.993 0.086 0.079 147 160 177
-184.5372 -73.4869 1.2171 0.960 0.256 0.118 202 216 228
-124.7491 -55.3352 2.6282 0.627 0.711 0.317 77 91 104
-172.9867 -66.0593 1.9582 0.915 0.103 -0.390 68 80 104
-301.8641 -91.5766 0.5429 0.936 -0.136 0.324 125 139 156
-302.0523 -90.9132 0.6246 0.934 -0.130 0.333 110 123 140
-302.0958 -90.2128 0.7088 0.640 0.397 0.658 116 129 146
-196.2449 -62.6638 2.6588 0.967 0.044 -0.252 156 167 185
-196.1759 -62.1472 2.7196 0.954 0.101 -0.281 143 154 172
-226.3689 -61.9952 3.1206 0.987 0.161 0.025 90 98 117
-167.3153 -32.1979 5.9324 0.595 -0.768 0.235 98 92 104
-343.1721 -30.1029 8.4120 0.874 0.085 0.478 75 72 83
-336.0966 -3.9367 11.4489 0.993 0.112 -0.031 63 55 68
-335.9243 -2.1985 11.6544 0.921 0.333 -0.202 75 65 74
-338.3752 1.3152 12.1053 0.961 0.276 -0.013 94 84 93
-345.9880 2.2988 12.3193 0.794 -0.105 0.598 83 73 82
-337.5629 15.4433 13.7832 0.929 0.314 -0.193 71 59 71
-339.4104 16.4268 13.9241 0.933 0.313 -0.176 71 59 71
-340.8423 17.3978 14.0583 0.920 0.233 -0.315 69 60 71
-335.6187 37.7726 16.4266 0.473 -0.862 -0.184 67 55 65
-28.7947 7.2343 8.8882 0.945 -0.157 -0.286 85 77 88
-26.7131 8.8292 9.0524 0.139 -0.975 0.171 135 134 140
-336.9341 70.3542 20.3365 0.454 -0.614 0.645 96 90 94
-343.0954 72.4786 20.6684 0.710 -0.704 -0.033 109 99 107
-330.5811 89.7893 22.5782 0.881 0.263 -0.394 96 88 101
-330.3417 90.6795 22.6815 0.878 0.267 -0.397 109 101 114
-331.5262 92.8760 22.9590 0.896 -0.200 0.395 121 116 123
-331.3696 93.7906 23.0663 0.896 -0.200 0.395 96 91 97
-330.7688 94.5917 23.1544 0.617 -0.667 0.418 63 58 62
-330.4023 95.4514 23.2525 0.610 -0.596 0.522 48 43 47
-328.2900 97.7561 23.5011 0.597 -0.647 0.474 50 45 49
-328.3620 106.3791 24.5324 0.933 -0.304 -0.192 97 91 96
-322.9920 129.7788 27.2603 0.949 -0.291 0.118 95 85 96
-335.8846 139.3966 28.5730 0.754 -0.156 0.638 68 58 67
-326.5824 149.8913 29.7090 0.610 -0.530 0.589 127 123 120
-327.1295 162.2219 31.1894 0.657 -0.725 -0.207 50 46 47
-154.0368 99.4766 21.4978 0.364 -0.930 0.061 70 65 69
-32.0978 54.8447 14.6190 0.917 0.268 -0.294 131 127 141
-24.5728 50.0818 13.9545 0.289 -0.803 0.521 102 98 112
-162.7548 169.9811 30.0328 0.825 0.425 -0.373 137 136 142
-268.0461 274.9710 43.9127 0.810 0.529 -0.251 113 111 122
-262.2369 270.9077 43.3535 0.861 0.421 -0.285 107 103 117
-228.3697 244.8803 39.8142 0.871 0.291 -0.396 67 63 80
-214.6559 234.4234 38.3909 0.914 -0.383 -0.131 51 47 64
-47.2381 -41.7239 3.0655 0.705 -0.575 0.416 181 197 222
-45.0587 -40.3268 3.2091 0.465 -0.784 0.410 152 169 187
-195.3759 -88.7049 -0.9851 0.912 -0.368 0.183 127 144 164
-195.3412 -88.2180 -0.9275 0.910 -0.142 0.390 112 129 149
-195.2892 -87.7249 -0.8694 0.910 -0.142 0.390 129 146 166
-106.6234 -56.7470 1.8952 0.933 0.242 -0.265 196 213 231
-325.5377 -119.8948 -3.3435 0.839 0.309 0.447 122 135 152
-326.0262 -118.5681 -3.1805 0.713 0.408 0.570 123 136 153
-184.1867 -73.3712 0.7233 0.960 0.250 0.126 206 220 232
-124.4916 -55.2505 2.2590 0.645 0.721 0.252 89 103 116
-301.8952 -90.1390 -0.0483 0.575 0.419 0.703 117 130 147
-196.8279 -63.2872 2.0547 0.945 0.326 -0.024 179 190 208
-196.2489 -62.6471 2.1249 0.952 0.306 0.009 160 171 189
-196.2260 -62.1413 2.1848 0.959 0.283 -0.030 142 153 171
-196.1600 -61.6249 2.2456 0.917 0.251 -0.310 152 163 181
-144.5809 -47.4667 3.3942 0.526 -0.799 -0.292 137 148 166
-133.8873 -37.0637 4.5210 0.875 0.023 0.483 113 117 140
-157.1676 -25.0463 6.1931 0.955 -0.288 -0.072 60 58 72
-331.9942 -33.4517 7.0105 0.940 0.332 0.075 64 61 72
-331.7348 -32.5999 7.1091 0.934 0.349 0.082 65 62 73
-340.9279 -16.9785 9.0637 0.929 -0.211 0.304 77 70 86
-335.1522 -3.0002 10.6670 0.922 0.330 -0.203 75 65 74
-337.1307 -1.2537 10.8954 0.914 0.398 0.075 79 69 80
-338.7476 1.3899 11.2268 0.956 0.293 0.004 109 99 108
-345.8027 2.3684 11.4166 0.825 -0.154 0.544 95 85 94
-330.9416 9.9633 12.1659 0.925 0.334 -0.184 70 62 73
-338.6529 12.8962 12.5951 0.806 0.568 0.167 71 63 74
-341.1709 17.4932 13.1683 0.920 0.233 -0.315 65 57 68
-338.2521 24.5211 13.9743 0.795 -0.169 0.583 56 48 61
-338.1226 26.3154 14.1865 0.860 0.131 -0.492 69 58 72
-330.7002 27.5267 14.2535 0.976 0.050 -0.211 83 71 85
-328.3889 29.1065 14.4174 0.977 0.050 -0.209 85 73 87
-339.5280 32.7847 14.9710 0.852 0.512 -0.114 70 58 70
-339.8487 35.5568 15.3042 0.852 -0.501 -0.153 95 83 93
-334.4601 38.6427 15.6154 0.475 -0.860 -0.188 143 131 141
-332.2123 40.2036 15.7778 0.921 0.359 0.153 137 125 135
-331.0436 90.0131 21.6930 0.881 0.263 -0.394 90 82 95
-330.6828 91.8256 21.9049 0.878 0.272 -0.393 99 91 103
-330.0112 93.5595 22.1043 0.880 0.261 -0.396 104 99 103
-330.1790 94.5544 22.2244 0.617 -0.667 0.418 66 61 65
-328.9719 95.1957 22.2882 0.867 -0.459 0.194 65 60 64
-329.1368 106.7218 23.6615 0.924 -0.325 -0.202 104 98 102
-329.5967 107.8190 23.7968 0.915 0.075 -0.396 119 114 121
