ply
format ascii 1.0
element vertex 865
property float x
property float y
property float z
property float nx
property float ny
property float nz
property uchar diffuse_red
property uchar diffuse_green
property uchar diffuse_blue
end_header
94.0272 46.8453 -45.6162 -0.685 0.288 0.669 106 106 96
94.0209 46.6180 -45.5682 -0.685 0.284 0.671 99 99 87
94.0364 46.4096 -45.5387 -0.742 0.176 0.646 94 95 80
95.0406 44.8038 -45.9120 -0.141 -0.158 0.977 107 104 96
94.8227 44.4165 -45.6896 -0.925 0.275 0.260 112 109 104
94.7914 43.9606 -45.5808 -0.984 0.010 0.180 119 116 111
94.8138 43.7629 -45.5580 -0.991 0.133 0.028 123 119 116
94.7412 43.4934 -45.4569 -0.189 -0.126 0.974 124 120 117
94.6983 43.2476 -45.3805 -0.173 -0.124 0.977 124 121 116
94.6868 43.0264 -45.3301 -0.152 -0.177 0.972 124 121 116
94.7685 42.8757 -45.3567 -0.149 -0.176 0.973 122 119 114
95.6645 40.7960 -45.5655 -0.146 -0.052 0.988 96 91 95
95.7271 40.6319 -45.5764 -0.155 -0.040 0.987 99 97 103
95.8253 40.4925 -45.6164 -0.100 -0.225 0.969 108 105 113
95.9071 40.3416 -45.6429 -0.100 -0.225 0.969 117 110 117
95.9744 40.1809 -45.6577 -0.038 -0.313 0.949 118 109 113
96.0712 40.0401 -45.6964 -0.039 -0.315 0.948 119 109 111
96.2324 39.7363 -45.7475 -0.090 -0.236 0.968 119 109 110
96.3186 39.5881 -45.7775 -0.117 0.034 0.993 115 105 106
96.3786 39.4225 -45.7864 -0.057 0.058 0.997 114 104 105
96.4384 39.2570 -45.7953 -0.114 0.029 0.993 115 105 106
96.5566 39.1296 -45.8511 -0.249 0.262 0.932 113 104 105
96.5363 38.9121 -45.7954 -0.249 0.262 0.932 110 102 103
96.6341 38.7714 -45.8349 -0.228 0.236 0.945 107 102 101
96.6113 38.5534 -45.7775 -0.055 0.055 0.997 106 102 101
96.2156 38.0990 -45.4214 -0.185 -0.021 0.982 106 102 101
95.6515 37.5418 -44.9313 -0.155 -0.085 0.984 105 101 100
96.6306 37.1577 -45.5223 0.223 -0.394 0.892 113 104 107
96.9113 37.1298 -45.7076 0.068 -0.229 0.971 112 103 106
97.8421 36.4877 -46.2163 -0.254 0.176 0.951 114 105 108
97.8273 36.2796 -46.1662 -0.261 0.345 0.902 106 101 99
97.7050 35.0257 -45.8422 -0.041 -0.232 0.972 107 102 99
97.7925 34.8792 -45.8734 -0.041 -0.232 0.972 100 96 90
97.8289 34.7044 -45.8646 0.069 -0.495 0.866 93 94 72
101.3653 27.3100 -46.8450 -0.083 -0.972 0.219 92 83 88
101.9623 23.7669 -46.5696 -0.469 -0.105 0.877 105 100 104
101.9731 23.5955 -46.5440 -0.468 -0.179 0.865 105 100 104
102.1223 23.4686 -46.6208 -0.110 -0.542 0.833 102 97 101
102.2257 23.3268 -46.6639 -0.107 -0.540 0.835 88 83 87
102.3138 23.1801 -46.6955 -0.113 -0.518 0.848 76 71 75
102.4357 23.0437 -46.7521 -0.119 -0.514 0.849 80 75 79
103.1736 23.0959 -47.2631 -0.581 -0.487 0.652 93 88 92
102.3558 22.6716 -46.6263 -0.495 -0.605 0.623 95 89 91
102.3497 22.4968 -46.5886 -0.463 -0.693 0.552 95 89 91
102.7750 22.4510 -46.8685 -0.507 -0.649 0.568 95 89 91
103.1010 18.6449 -46.3585 -0.005 -0.201 0.980 99 90 95
103.1138 18.4831 -46.3361 -0.024 -0.451 0.892 108 97 103
103.3891 18.3809 -46.5034 -0.016 -0.441 0.897 109 98 104
105.1496 15.6230 -47.1689 -0.287 -0.942 0.173 91 85 85
105.4302 15.5089 -47.3375 -0.301 -0.942 0.149 89 83 83
105.6148 15.3776 -47.4376 -0.340 -0.924 0.177 86 80 80
105.7169 15.2319 -47.4790 -0.796 -0.576 -0.185 101 95 95
105.8414 15.0898 -47.5362 -0.892 -0.445 -0.080 106 100 100
105.9198 14.9399 -47.5607 -0.877 -0.475 -0.075 107 101 101
105.3048 14.6801 -47.0931 -0.825 0.063 -0.561 106 100 100
108.2906 10.2737 -48.2738 -0.891 -0.351 -0.288 117 112 118
109.9375 8.3444 -49.0215 -0.065 -0.984 0.165 113 111 114
111.2052 8.0907 -49.8335 -0.075 -0.983 0.170 112 110 113
109.8212 5.4308 -48.3826 -0.795 -0.336 -0.504 97 95 96
111.2843 5.1350 -49.3193 -0.889 -0.317 -0.331 95 93 94
113.3606 4.8258 -50.6698 -0.524 -0.282 0.804 95 93 94
113.4246 4.6691 -50.6831 -0.524 -0.282 0.804 96 94 95
113.4931 4.5125 -50.6995 -0.529 -0.299 0.794 100 98 99
113.5593 4.3558 -50.7143 -0.529 -0.299 0.794 104 102 103
113.6254 4.1993 -50.7292 -0.529 -0.299 0.794 109 107 108
114.1081 4.0371 -51.0258 -0.461 -0.383 0.800 113 111 112
108.2185 1.4474 -46.5287 0.198 -0.843 0.500 81 74 81
110.2367 1.0525 -47.8233 0.148 -0.816 0.558 90 83 90
113.5856 -1.4845 -49.6099 -0.277 -0.748 0.604 105 103 106
86.8691 88.9247 -49.0890 -0.306 -0.839 -0.451 43 46 35
88.2477 90.5082 -50.3358 -0.553 0.437 0.710 41 47 35
88.2954 90.2286 -50.3142 -0.563 0.278 0.778 41 47 35
82.8415 66.3146 -41.9647 -0.952 0.100 0.288 82 88 84
83.0668 66.3988 -42.1347 -0.986 0.048 0.163 94 99 95
83.0781 66.1446 -42.0931 -0.961 -0.052 0.273 103 108 104
83.3044 66.2276 -42.2636 -0.744 -0.269 0.611 122 126 123
83.4314 66.1539 -42.3359 -0.479 -0.541 0.691 125 129 123
83.5635 66.0873 -42.4131 -0.483 -0.527 0.699 125 128 123
83.6889 65.4685 -42.3788 0.109 -0.554 0.825 130 129 125
84.9054 65.1398 -43.1449 -0.019 -0.536 0.844 126 125 121
85.2320 64.8111 -43.3041 0.059 -0.188 0.980 119 116 111
85.4405 64.8450 -43.4528 0.043 -0.161 0.986 116 113 108
85.5255 64.6989 -43.4825 -0.033 0.044 0.998 112 109 104
85.5685 64.4926 -43.4719 -0.033 0.044 0.998 107 104 99
85.8386 63.8096 -43.5239 -0.036 0.045 0.998 92 89 84
85.8812 63.6041 -43.5132 -0.036 0.045 0.998 90 87 82
85.9280 63.4049 -43.5065 0.082 -0.479 0.874 88 84 81
86.0740 63.3441 -43.5943 0.082 -0.479 0.874 95 91 88
86.1639 63.2048 -43.6287 0.128 -0.287 0.949 97 93 90
86.3375 63.1806 -43.7424 0.125 -0.286 0.950 97 93 90
86.4094 63.0157 -43.7595 0.221 -0.428 0.876 99 95 92
86.7417 62.9424 -43.9719 0.217 -0.441 0.871 101 97 94
86.8752 62.8598 -44.0470 0.217 -0.441 0.871 102 98 95
86.9791 62.7366 -44.0940 0.043 -0.327 0.944 104 100 97
87.1399 62.6895 -44.1945 0.001 -0.204 0.979 106 102 99
87.2030 62.5109 -44.2030 0.015 -0.187 0.982 102 98 95
87.2932 62.3684 -44.2370 0.013 -0.220 0.975 91 90 85
87.3998 62.2476 -44.2863 0.055 -0.349 0.936 90 89 84
87.4445 62.0446 -44.2774 0.105 -0.396 0.912 92 91 86
87.5291 61.8945 -44.3061 0.087 -0.400 0.913 91 90 85
87.5562 61.6693 -44.2810 -0.532 -0.115 0.839 83 82 77
87.6054 61.4733 -44.2766 -0.532 -0.115 0.839 76 76 68
87.6694 61.2968 -44.2861 -0.529 0.326 0.783 86 85 80
87.7125 61.0936 -44.2761 -0.575 0.346 0.741 88 87 82
87.6666 60.7767 -44.1835 -0.588 0.303 0.750 82 82 73
87.6370 60.4821 -44.1063 -0.570 0.191 0.799 66 68 56
87.6811 60.2821 -44.0976 -0.720 0.103 0.686 59 63 48
87.8587 60.2514 -44.2128 -0.750 0.078 0.656 62 66 51
87.8853 60.0296 -44.1880 -0.322 -0.172 0.931 65 72 56
87.9295 59.8304 -44.1796 -0.233 -0.299 0.926 68 72 57
88.0127 59.6800 -44.2072 -0.233 -0.299 0.926 75 79 64
88.1172 59.5561 -44.2545 -0.222 -0.336 0.915 77 81 66
88.6296 59.1722 -44.5297 -0.194 -0.001 0.981 56 58 44
88.8504 59.1871 -44.6831 -0.118 -0.412 0.904 63 65 51
89.1350 59.2774 -44.8947 -0.127 -0.383 0.915 76 78 64
89.2658 59.1805 -44.9651 -0.127 -0.395 0.910 87 89 75
89.0890 57.7131 -44.5605 -0.071 -0.954 0.292 64 67 50
90.0721 57.8558 -45.2587 -0.219 -0.565 0.796 67 72 50
90.2577 57.8179 -45.3779 -0.453 -0.183 0.873 66 71 49
90.5188 57.8650 -45.5651 -0.174 -0.565 0.806 56 61 39
90.6887 57.8065 -45.6696 -0.186 -0.556 0.810 56 61 39
89.7380 51.4960 -43.7995 -0.020 -0.766 0.643 61 62 45
93.7173 52.1413 -46.6385 -0.553 -0.248 0.795 81 79 66
93.4185 51.3845 -46.2882 -0.567 0.607 0.557 81 79 65
92.1214 48.5758 -44.8598 -0.263 -0.679 0.686 77 78 60
92.2343 48.4539 -44.9131 -0.196 -0.800 0.567 81 80 64
93.7254 46.4144 -45.5353 -0.692 0.318 0.648 100 104 76
93.7666 46.2284 -45.5274 -0.817 0.146 0.558 92 98 63
94.6734 44.7737 -45.8642 -0.077 -0.084 0.993 105 103 91
94.7281 44.5993 -45.8678 -0.141 -0.152 0.978 116 113 105
94.6590 44.3287 -45.7682 -0.139 -0.166 0.976 116 113 108
94.6847 43.9175 -45.7062 -0.985 0.031 0.169 116 113 108
93.8930 42.8857 -44.9664 -0.167 -0.252 0.953 122 119 114
94.1718 42.8868 -45.1568 -0.148 -0.196 0.969 122 119 114
94.3202 42.7880 -45.2389 -0.161 -0.178 0.971 123 120 115
94.5232 42.7295 -45.3660 -0.146 -0.156 0.977 117 114 107
94.5913 42.5694 -45.3815 -0.146 -0.156 0.977 109 106 99
95.4663 40.6925 -45.6149 -0.155 -0.040 0.987 80 76 75
95.5147 40.5192 -45.6143 -0.155 -0.040 0.987 80 78 79
95.5630 40.3461 -45.6138 -0.155 -0.040 0.987 86 82 83
95.6636 40.2089 -45.6558 -0.161 -0.173 0.972 91 85 84
95.7174 40.0397 -45.6597 -0.137 -0.221 0.966 101 93 90
95.8098 39.8967 -45.6951 -0.037 -0.294 0.955 103 93 94
95.8559 39.7225 -45.6928 -0.161 -0.169 0.972 103 93 94
95.9243 39.5634 -45.7087 -0.148 -0.161 0.976 103 93 94
96.0230 39.4245 -45.7491 -0.114 0.034 0.993 104 94 95
96.1022 39.2726 -45.7737 -0.055 0.056 0.997 106 96 97
96.1361 39.0908 -45.7616 -0.055 0.056 0.997 106 96 97
96.1699 38.9094 -45.7496 -0.055 0.056 0.997 104 95 96
96.2193 38.7383 -45.7502 -0.053 0.053 0.997 104 96 97
96.2874 38.5795 -45.7659 -0.049 0.050 0.998 102 97 97
96.3226 38.3996 -45.7550 -0.049 0.050 0.998 102 98 97
96.3107 38.1901 -45.7063 -0.185 0.019 0.983 102 98 97
95.5192 37.4881 -45.0306 -0.164 -0.073 0.984 103 99 98
95.5658 37.3197 -45.0297 0.021 -0.158 0.987 94 90 89
95.9087 37.3366 -45.2669 0.237 -0.403 0.884 84 80 79
96.0659 37.2362 -45.3547 0.237 -0.403 0.884 91 87 86
98.3174 36.5934 -46.7658 -0.366 0.366 0.856 107 100 99
97.6548 35.6128 -46.1241 -0.180 0.196 0.964 106 101 98
97.4840 34.9279 -45.8750 -0.041 -0.232 0.972 108 103 100
121.0899 41.6462 -63.2759 -0.598 0.567 0.567 96 90 92
99.9616 30.0676 -46.6239 -0.133 -0.020 0.991 81 75 77
100.3508 29.3068 -46.7420 0.025 -0.867 0.498 97 90 98
101.4575 23.6153 -46.3950 -0.074 -0.475 0.877 103 98 102
101.5332 23.4662 -46.4177 -0.120 -0.465 0.877 103 99 100
101.6066 23.3163 -46.4388 -0.126 -0.461 0.879 101 97 98
101.7159 23.1778 -46.4865 -0.112 -0.484 0.868 90 85 89
101.9254 23.0703 -46.6086 -0.120 -0.484 0.867 79 74 78
102.1209 22.9577 -46.7201 -0.111 -0.527 0.843 80 75 79
102.0989 22.6048 -46.6368 -0.848 -0.174 0.501 94 88 92
101.8507 22.3577 -46.4197 -0.363 -0.913 0.188 95 89 93
102.1348 22.2712 -46.5967 -0.383 -0.892 0.241 95 89 93
105.2294 15.6408 -47.4237 -0.446 -0.748 0.492 94 88 88
105.0510 15.4476 -47.2646 -0.352 -0.913 0.205 95 89 89
105.2480 15.3192 -47.3741 -0.351 -0.913 0.207 95 89 89
105.5150 15.2018 -47.5335 -0.377 -0.883 0.281 110 104 104
105.7254 15.0741 -47.6523 -0.377 -0.883 0.281 118 112 112
105.9483 14.9477 -47.7799 -0.347 -0.902 0.257 117 111 111
105.8294 14.7663 -47.6637 -0.874 -0.344 -0.344 116 110 110
101.1412 13.1308 -44.1494 -0.717 -0.242 -0.654 121 116 122
109.6167 9.7425 -49.2741 -0.851 0.518 -0.080 112 107 111
107.4163 9.1230 -47.6534 -0.633 -0.693 -0.345 100 95 99
109.6214 8.3253 -49.0030 -0.065 -0.975 0.211 104 102 103
109.9761 8.1868 -49.2181 -0.042 -0.979 0.199 112 110 111
110.7535 8.0665 -49.7250 -0.050 -0.981 0.187 111 109 110
109.3758 4.9770 -48.1872 -0.770 -0.569 -0.287 94 92 93
112.0593 4.6691 -49.9579 -0.412 -0.534 0.738 97 95 96
109.1462 1.5275 -47.3628 -0.458 -0.869 0.189 89 82 89
109.5423 1.3657 -47.6016 -0.426 -0.903 0.053 83 76 83
109.7982 1.2105 -47.7461 -0.445 -0.895 0.015 82 75 82
109.7381 1.0733 -47.6786 -0.485 -0.861 0.155 89 82 89
110.0164 0.9159 -47.8379 -0.947 -0.322 -0.013 98 91 98
110.1351 0.7677 -47.8902 -0.927 -0.327 0.184 105 98 105
193.3961 -10.7863 -102.4410 -0.942 0.332 -0.042 103 101 104
86.8781 89.0734 -49.3717 -0.306 -0.839 -0.451 50 53 42
87.9768 89.7445 -50.2553 -0.549 0.251 0.797 48 54 42
88.0705 89.1880 -50.2110 -0.734 0.322 0.598 51 57 45
82.7918 68.2517 -42.5116 -0.750 0.428 0.505 73 84 64
81.9975 65.8650 -41.5021 -0.064 -0.912 0.404 72 77 65
82.1287 65.8059 -41.5804 -0.232 -0.697 0.678 82 86 78
83.0598 66.4733 -42.3484 -0.985 0.042 0.167 117 118 113
83.1541 66.0771 -42.3357 -0.453 -0.444 0.773 127 127 125
83.3706 66.1436 -42.4970 -0.445 -0.413 0.794 129 129 124
83.4529 66.0000 -42.5254 -0.445 -0.413 0.794 128 128 124
84.3791 67.1600 -43.3861 -0.243 -0.210 0.947 127 128 123
84.7746 65.0275 -43.2411 -0.022 -0.499 0.866 120 119 115
84.8395 64.8542 -43.2518 -0.046 -0.480 0.876 114 113 109
84.9380 64.7303 -43.2951 -0.045 -0.475 0.879 117 114 109
84.9251 64.4437 -43.2304 -0.011 -0.157 0.987 116 113 108
85.1190 63.9252 -43.2621 0.023 -0.192 0.981 100 97 92
85.1853 63.7550 -43.2743 0.013 -0.187 0.982 92 89 84
85.2329 63.5583 -43.2685 0.024 -0.194 0.981 82 79 74
85.4602 63.3525 -43.3841 0.050 -0.249 0.967 85 82 77
85.5633 63.2342 -43.4317 0.097 -0.515 0.851 85 82 77
85.8519 63.1111 -43.6054 0.086 -0.484 0.871 107 103 100
85.9733 63.0163 -43.6700 0.086 -0.484 0.871 107 103 100
86.1207 62.9571 -43.7594 0.055 -0.321 0.945 109 105 102
86.3787 62.7855 -43.9027 0.216 -0.441 0.871 113 109 106
86.5109 62.7030 -43.9772 0.216 -0.441 0.871 116 112 109
86.6434 62.6203 -44.0518 0.216 -0.441 0.871 117 113 110
86.7737 62.5339 -44.1243 0.050 -0.331 0.942 118 114 111
86.9054 62.4487 -44.1978 -0.004 -0.201 0.980 119 115 112
86.9793 62.2855 -44.2166 -0.004 -0.197 0.980 121 117 114
87.0882 62.1690 -44.2685 0.006 -0.221 0.975 115 114 109
87.1602 62.0032 -44.2855 0.104 -0.422 0.901 108 107 102
87.2181 61.8188 -44.2892 0.203 -0.473 0.857 94 93 88
87.3483 61.7296 -44.3610 0.087 -0.400 0.913 82 81 76
87.3946 61.5301 -44.3538 -0.534 -0.142 0.833 88 87 82
87.4473 61.3391 -44.3526 -0.534 -0.142 0.833 100 100 92
87.4579 61.0941 -44.3121 -0.670 0.014 0.742 100 99 94
87.5512 60.9564 -44.3491 -0.577 0.341 0.742 100 99 94
87.5822 60.7386 -44.3279 -0.508 0.354 0.785 100 100 91
87.5074 60.3861 -44.2079 -0.564 0.199 0.801 82 84 72
87.5626 60.2008 -44.2096 -0.720 0.103 0.686 72 76 61
87.5690 59.9539 -44.1658 -0.720 0.103 0.686 72 76 61
87.6568 59.8104 -44.1980 -0.163 -0.383 0.909 71 78 62
88.4481 59.2705 -44.6348 -0.373 -0.168 0.913 64 66 52
88.6274 59.2361 -44.7509 -0.410 -0.278 0.869 62 64 50
88.8097 59.2041 -44.8695 -0.197 -0.192 0.962 67 69 55
88.9558 59.1273 -44.9546 -0.194 -0.371 0.908 75 77 63
89.0762 59.0187 -45.0159 -0.197 -0.571 0.797 81 83 69
89.1712 58.1236 -44.9065 -0.264 -0.057 0.963 67 69 55
88.9626 57.6284 -44.6670 -0.066 -0.933 0.355 63 66 49
89.3917 57.6320 -44.9616 -0.043 -0.922 0.385 67 72 51
90.1261 57.9814 -45.5328 -0.198 -0.461 0.865 67 72 50
90.2689 57.8939 -45.6136 -0.189 -0.450 0.873 65 70 48
90.7022 53.0039 -44.9567 -0.737 -0.606 -0.298 56 57 39
89.6086 51.4166 -43.8980 -0.020 -0.766 0.643 66 64 52
92.9418 51.4547 -46.1888 -0.632 -0.403 0.662 86 84 72
92.2725 49.4395 -45.3372 -0.711 -0.690 0.136 73 71 58
92.1302 49.0816 -45.1699 -0.544 0.394 0.741 72 72 59
91.9802 48.4943 -44.9526 -0.260 -0.683 0.682 84 82 68
94.1857 47.7401 -46.3164 -0.648 0.373 0.664 110 111 106
94.1317 45.0365 -45.7521 -0.230 -0.063 0.971 88 88 77
94.0574 44.7602 -45.6474 -0.140 -0.160 0.977 92 92 80
94.1271 44.5992 -45.6637 -0.140 -0.160 0.977 101 99 87
94.1659 44.4140 -45.6541 -0.134 -0.176 0.975 105 103 91
94.2658 44.2770 -45.6958 -0.123 -0.208 0.970 111 108 101
94.5479 43.8511 -45.8061 -0.125 -0.208 0.970 112 109 104
94.5024 43.6019 -45.7263 -0.121 -0.217 0.969 116 113 108
93.7910 42.8459 -45.0915 -0.141 -0.189 0.972 117 114 109
93.9079 42.7246 -45.1479 -0.172 -0.077 0.982 117 114 109
94.1263 42.2599 -45.2069 -0.128 -0.168 0.977 103 100 93
94.1967 42.1033 -45.2246 -0.128 -0.168 0.977 97 95 84
94.3602 41.8067 -45.2787 -0.274 -0.258 0.927 87 84 77
95.2536 40.5787 -45.6512 -0.198 -0.018 0.980 101 97 94
95.2961 40.4020 -45.6459 -0.198 -0.018 0.980 100 96 95
95.3664 40.2446 -45.6633 -0.219 0.026 0.975 98 94 93
95.4001 40.0622 -45.6509 -0.219 0.026 0.975 98 93 91
95.4513 39.8921 -45.6528 -0.161 -0.059 0.985 95 85 84
95.5232 39.7361 -45.6716 -0.211 -0.007 0.977 94 84 85
95.6443 39.6132 -45.7306 -0.026 0.023 0.999 94 84 85
95.6867 39.4374 -45.7253 -0.026 0.023 0.999 94 84 85
95.7478 39.2742 -45.7354 -0.024 0.033 0.999 94 84 85
95.7881 39.0973 -45.7285 -0.024 0.033 0.999 94 84 85
95.8428 38.9302 -45.7333 -0.027 0.037 0.999 94 84 85
95.8725 38.7470 -45.7179 -0.025 0.036 0.999 93 84 85
95.9121 38.5705 -45.7107 -0.025 0.036 0.999 95 88 88
95.9611 38.4003 -45.7110 -0.027 0.036 0.999 96 91 91
96.0004 38.2242 -45.7036 -0.027 0.036 0.999 95 91 90
95.8167 37.9062 -45.5158 -0.190 0.057 0.980 95 91 90
95.3391 37.4041 -45.0907 -0.160 -0.051 0.986 99 95 94
95.3482 37.2125 -45.0595 -0.163 0.172 0.971 94 90 89
95.4109 37.0551 -45.0718 -0.124 0.135 0.983 84 80 79
95.4544 36.8857 -45.0686 -0.108 0.116 0.987 91 87 86
95.4888 36.7109 -45.0580 0.012 -0.149 0.989 104 99 99
95.5653 36.5622 -45.0814 0.012 -0.149 0.989 113 103 108
95.9913 36.6268 -45.3859 0.016 -0.199 0.980 113 102 108
97.4204 35.5057 -46.1461 -0.180 0.196 0.964 106 101 98
97.2642 34.8307 -45.9075 -0.041 -0.232 0.972 110 105 102
99.6763 30.1458 -46.6462 -0.107 0.007 0.994 87 81 83
99.7432 29.9893 -46.6614 -0.135 -0.028 0.990 93 87 89
99.7646 29.8125 -46.6417 -0.169 -0.027 0.985 98 92 94
101.4694 23.6316 -46.6040 -0.051 -0.465 0.884 107 101 103
101.5387 23.4802 -46.6220 -0.057 -0.470 0.881 108 102 104
101.6674 23.3478 -46.6843 -0.057 -0.470 0.881 104 98 100
101.7013 23.1851 -46.6758 -0.109 -0.529 0.841 94 88 90
101.8343 23.0536 -46.7412 -0.109 -0.529 0.841 88 82 84
101.9676 22.9218 -46.8068 -0.109 -0.529 0.841 82 76 80
102.0167 22.5911 -46.7760 -0.847 -0.174 0.502 88 83 87
101.5691 22.2840 -46.4095 -0.424 -0.868 0.256 94 89 95
104.9445 15.4331 -47.3856 -0.351 -0.913 0.207 107 101 101
105.1803 15.3114 -47.5234 -0.351 -0.913 0.207 110 104 104
105.4061 15.1872 -47.6539 -0.382 -0.891 0.244 124 118 118
105.6226 15.0607 -47.7775 -0.382 -0.891 0.244 133 127 127
105.8401 14.9335 -47.9017 -0.382 -0.891 0.244 132 126 126
105.9645 14.7908 -47.9590 -0.873 -0.346 -0.344 131 125 125
106.1671 14.6600 -48.0724 -0.829 -0.378 -0.413 130 124 126
108.3462 8.5640 -48.3762 -0.177 -0.971 0.158 100 98 99
108.6641 8.4275 -48.5673 -0.260 -0.953 0.152 86 84 85
109.0378 8.2925 -48.7970 -0.093 -0.990 0.109 89 87 88
109.6920 8.1698 -49.2212 -0.096 -0.989 0.114 116 114 115
110.4710 8.0501 -49.7315 -0.102 -0.989 0.105 115 113 114
111.3218 7.9302 -50.2909 -0.050 -0.981 0.187 108 106 107
111.2488 4.5152 -49.5748 -0.403 -0.222 0.888 100 95 99
111.3080 4.3634 -49.5858 -0.403 -0.222 0.888 104 99 103
111.3888 4.2115 -49.6116 -0.405 -0.216 0.888 108 103 107
108.9408 1.6699 -47.4389 -0.190 -0.944 0.271 93 86 93
109.5549 1.2158 -47.7710 -0.775 -0.068 -0.629 87 80 87
82.8701 68.7510 -42.8698 -0.754 0.413 0.512 60 66 53
82.4357 67.4808 -42.3214 -0.262 -0.314 0.913 59 64 51
82.7385 66.8690 -42.4096 -0.295 -0.518 0.803 110 111 105
82.8346 66.7486 -42.4520 -0.295 -0.518 0.803 118 117 113
83.0490 66.8157 -42.6127 -0.696 -0.566 0.443 127 125 120
83.9355 67.3872 -43.3349 -0.429 -0.203 0.880 130 126 125
84.1138 67.3885 -43.4578 -0.236 -0.344 0.909 129 126 122
84.2003 67.2458 -43.4893 -0.236 -0.344 0.909 128 127 123
84.6465 64.3831 -43.2339 -0.010 -0.160 0.987 109 106 101
85.7288 63.0154 -43.7098 0.058 -0.590 0.805 123 119 116
85.8262 62.8879 -43.7518 0.082 -0.492 0.867 124 120 117
85.9418 62.7853 -43.8112 0.041 -0.313 0.949 126 122 119
85.9955 62.5972 -43.8112 0.101 -0.523 0.847 126 122 119
86.4721 62.2006 -44.0612 0.045 -0.306 0.951 125 121 118
87.2193 61.3725 -44.4126 -0.540 -0.140 0.830 90 89 84
87.3165 61.2402 -44.4534 -0.534 -0.142 0.833 101 100 94
87.3509 61.0264 -44.4351 -0.671 0.005 0.741 100 99 94
87.4796 60.9348 -44.5057 -0.499 0.345 0.795 100 99 95
87.4190 60.5992 -44.3980 -0.499 0.345 0.795 100 100 91
87.3523 60.2575 -44.2850 -0.564 0.199 0.801 86 88 76
87.4015 60.0651 -44.2811 -0.763 0.032 0.646 83 87 73
87.4284 59.8446 -44.2562 -0.742 0.068 0.667 82 88 72
87.4570 59.6269 -44.2332 -0.193 -0.403 0.895 84 89 74
87.5560 59.4981 -44.2759 -0.382 -0.750 0.539 85 88 74
87.6747 59.3937 -44.3371 -0.382 -0.750 0.539 63 65 51
87.7936 59.2891 -44.3984 -0.382 -0.750 0.539 61 65 50
87.9128 59.1843 -44.4598 -0.382 -0.750 0.539 61 65 50
88.0322 59.0793 -44.5213 -0.382 -0.750 0.539 62 64 50
88.2070 59.0417 -44.6342 -0.355 -0.766 0.536 64 66 52
88.5578 59.2179 -44.9101 -0.686 -0.720 0.101 69 71 57
88.6855 59.1199 -44.9788 -0.601 -0.424 0.677 72 74 60
88.7922 58.9957 -45.0278 -0.198 -0.357 0.913 74 76 62
88.8945 58.8661 -45.0727 -0.071 -0.901 0.429 76 78 64
90.5942 52.7117 -45.0330 -0.864 -0.499 0.066 66 67 53
90.6248 51.1144 -44.7403 -0.516 -0.687 -0.512 83 78 75
90.6707 50.7008 -44.6905 -0.839 -0.504 -0.203 85 80 73
92.1492 49.3738 -45.4471 -0.292 -0.094 0.952 79 75 65
91.9927 48.5527 -45.1781 -0.266 -0.209 0.941 89 87 75
93.2995 46.5843 -45.6905 -0.090 0.075 0.993 103 107 89
93.1711 46.2558 -45.5376 -0.069 0.028 0.997 87 92 69
93.2504 46.1030 -45.5622 -0.174 0.064 0.983 79 85 57
93.2276 45.8652 -45.4997 -0.094 -0.127 0.987 82 88 57
93.6250 44.4558 -45.4962 -0.039 -0.196 0.980 92 92 82
93.7066 44.3060 -45.5229 -0.039 -0.196 0.980 100 98 86
93.8699 44.0062 -45.5764 -0.039 -0.196 0.980 106 103 96
93.8962 43.8130 -45.5565 -0.135 -0.119 0.984 105 102 98
93.6142 43.3810 -45.2777 -0.699 0.211 0.684 105 102 97
93.6552 42.7801 -45.1878 -0.172 -0.077 0.982 112 109 104
93.7058 42.3996 -45.1479 -0.169 -0.085 0.982 111 108 101
93.7608 42.2323 -45.1529 -0.169 -0.085 0.982 105 102 95
93.8396 41.8749 -45.1369 -0.144 -0.196 0.970 92 90 78
93.8814 41.6985 -45.1310 -0.148 -0.187 0.971 86 83 74
93.9859 41.5682 -45.1772 -0.144 -0.196 0.970 80 77 69
95.1003 40.5062 -45.7353 -0.569 0.200 0.798 123 119 116
95.1557 40.3388 -45.7406 -0.580 0.222 0.784 119 115 114
95.1622 40.1378 -45.7056 -0.234 0.045 0.971 112 108 109
95.1991 39.9581 -45.6956 -0.225 0.033 0.974 108 101 103
95.2448 39.7848 -45.6930 -0.161 -0.059 0.985 101 91 92
95.3216 39.6327 -45.7160 -0.211 -0.007 0.977 99 89 90
95.3889 39.4742 -45.7312 -0.106 0.010 0.994 100 90 91
95.4347 39.3014 -45.7287 -0.026 0.023 0.999 99 89 90
95.4635 39.1175 -45.7124 0.013 0.061 0.998 88 78 79
95.5338 38.9614 -45.7301 -0.024 0.033 0.999 84 74 75
95.5885 38.7951 -45.7351 -0.027 0.037 0.999 84 74 75
95.6034 38.6029 -45.7075 -0.025 0.033 0.999 83 74 75
95.6436 38.4276 -45.7007 -0.025 0.033 0.999 88 80 81
95.7071 38.2676 -45.7130 -0.027 0.036 0.999 92 87 87
95.7465 38.0922 -45.7057 -0.027 0.036 0.999 91 87 86
95.5705 37.7797 -45.5232 -0.174 0.012 0.985 92 88 87
95.4494 37.5040 -45.3857 -0.176 0.084 0.981 96 92 91
95.0455 37.0516 -45.0189 -0.193 0.233 0.953 94 90 89
95.0344 36.8489 -44.9715 -0.193 0.233 0.953 84 80 79
95.0152 36.6416 -44.9175 -0.184 0.219 0.958 91 87 86
95.0136 36.4460 -44.8780 -0.168 0.186 0.968 104 99 99
94.9271 36.1988 -44.7699 0.021 -0.158 0.987 113 103 108
95.0698 36.0928 -44.8473 0.022 -0.152 0.988 113 102 108
97.1049 35.1564 -46.0635 -0.197 0.193 0.961 101 96 93
97.0837 34.9496 -46.0083 -0.198 0.192 0.961 104 99 96
97.1444 34.7895 -46.0186 -0.200 0.198 0.960 111 106 103
97.1929 34.6227 -46.0192 -0.166 0.150 0.975 118 113 108
97.3708 34.5279 -46.1229 -0.301 -0.826 0.477 111 111 97
97.5275 34.4207 -46.2097 -0.301 -0.826 0.477 104 105 87
97.6404 34.2888 -46.2614 -0.308 -0.821 0.481 99 100 81
97.6371 34.0935 -46.2208 0.069 -0.631 0.773 93 95 74
99.2355 29.9660 -46.5097 -0.111 -0.171 0.979 95 89 91
99.3065 29.8126 -46.5284 -0.111 -0.171 0.979 104 98 100
99.3775 29.6593 -46.5471 -0.111 -0.171 0.979 109 103 105
99.4485 29.5059 -46.5658 -0.111 -0.171 0.979 114 110 110
99.5366 29.3601 -46.5978 0.051 -0.831 0.554 107 102 106
99.7504 29.2691 -46.7270 0.051 -0.834 0.549 96 91 97
101.1586 23.5429 -46.5708 -0.098 -0.545 0.833 100 94 96
101.2444 23.3976 -46.6014 -0.109 -0.529 0.841 102 93 96
101.3763 23.2669 -46.6664 -0.109 -0.529 0.841 102 93 96
101.5085 23.1360 -46.7317 -0.109 -0.529 0.841 93 87 89
101.6409 23.0048 -46.7970 -0.109 -0.529 0.841 89 83 85
101.7737 22.8733 -46.8625 -0.109 -0.529 0.841 83 77 80
101.5052 22.2757 -46.5604 -0.427 -0.871 0.245 94 89 95
103.8341 16.6920 -47.0657 -0.726 0.326 0.605 111 106 112
105.3478 16.4912 -48.0677 -0.721 0.368 0.587 82 77 83
105.2418 15.8142 -47.8618 -0.854 0.270 0.444 102 96 98
106.2578 11.6457 -47.7418 -0.797 0.307 -0.520 96 91 95
106.2074 11.4845 -47.6755 -0.822 0.231 -0.520 98 93 97
107.0064 9.8561 -47.9053 -0.751 0.004 -0.660 102 97 101
106.7686 9.3799 -47.6481 -0.749 0.000 -0.663 99 94 98
106.6372 9.2191 -47.5261 -0.723 -0.041 -0.689 99 94 98
109.5225 8.7837 -49.4257 -0.648 -0.520 -0.557 99 97 98
109.6998 8.6367 -49.5188 -0.616 -0.558 -0.556 99 97 98
109.9734 8.4944 -49.6791 -0.616 -0.558 -0.556 76 74 75
110.2486 8.3512 -49.8403 -0.616 -0.558 -0.556 73 71 72
110.4738 8.2046 -49.9665 -0.621 -0.552 -0.556 117 115 116
110.5686 8.0513 -50.0015 -0.617 -0.548 -0.565 121 119 120
110.6648 7.8979 -50.0376 -0.602 -0.600 -0.527 104 102 103
109.3905 6.9207 -48.9689 -0.971 -0.224 -0.081 117 115 118
109.4634 6.7703 -48.9895 -0.964 -0.038 -0.264 116 114 117
109.2796 6.6134 -48.8322 -0.980 -0.014 -0.201 115 113 116
109.8255 6.0182 -49.0908 -0.545 -0.455 0.704 111 109 112
109.5587 5.8632 -48.8768 -0.421 -0.445 0.790 111 109 112
108.3964 5.1119 -47.9296 -0.454 -0.742 -0.493 97 92 96
110.1099 4.5170 -48.9916 -0.391 -0.310 0.867 99 94 98
110.1290 4.3680 -48.9755 -0.388 -0.304 0.870 103 98 102
110.1533 4.2193 -48.9630 -0.307 -0.545 0.780 106 101 105
111.3847 4.0540 -49.7777 -0.847 -0.123 -0.516 112 107 111
112.1338 2.2370 -49.9361 -0.141 -0.989 -0.034 116 110 114
109.8750 1.1886 -48.1761 -0.767 -0.065 -0.639 91 84 91
109.1670 0.8116 -47.6149 -0.739 -0.135 -0.660 113 106 113
107.6882 -1.2286 -46.1966 -0.593 0.384 0.708 95 93 94
118.2953 -10.6427 -51.6450 -0.771 -0.636 -0.035 93 92 97
118.2176 -11.0333 -51.5147 -0.951 0.304 0.049 102 101 106
86.7197 90.5041 -50.0425 -0.401 0.443 0.802 46 49 38
82.0277 67.7299 -42.2932 -0.756 0.425 0.498 66 72 60
83.6181 67.5294 -43.3525 -0.282 -0.346 0.895 134 134 128
83.8563 67.3497 -43.4815 -0.267 -0.338 0.903 130 126 125
84.3761 67.0498 -43.7814 -0.847 0.285 0.449 128 127 123
84.1678 64.8254 -43.1972 0.138 -0.825 0.548 118 117 113
84.3417 64.5484 -43.2626 0.168 -0.812 0.559 105 104 100
84.4798 64.4851 -43.3454 0.167 -0.816 0.553 100 99 95
84.5854 64.3733 -43.3963 0.166 -0.816 0.554 99 96 91
84.7456 64.3409 -43.5006 0.154 -0.769 0.621 97 94 89
85.2274 63.1771 -43.6032 0.066 -0.898 0.434 88 85 80
85.3870 63.1392 -43.7060 0.066 -0.898 0.434 86 83 78
85.7046 62.7948 -43.8573 0.049 -0.323 0.945 126 122 119
85.7653 62.6166 -43.8640 0.055 -0.317 0.947 126 122 119
85.6951 62.2582 -43.7445 0.127 -0.613 0.780 126 122 119
87.2973 61.0278 -44.6082 -0.616 -0.067 0.785 100 99 95
87.2004 60.6446 -44.4654 -0.554 0.326 0.766 100 99 94
87.1277 60.2947 -44.3459 -0.723 0.440 0.533 100 100 92
87.0760 59.9733 -44.2466 -0.703 0.388 0.597 95 97 85
87.1481 59.8113 -44.2644 -0.719 0.047 0.693 94 96 83
87.2580 59.6972 -44.3177 -0.702 0.054 0.710 94 97 83
87.2477 59.4309 -44.2579 -0.176 -0.409 0.895 96 99 85
87.3840 59.3500 -44.3361 -0.153 -0.443 0.883 93 98 81
87.5813 59.3447 -44.4714 -0.382 -0.750 0.539 68 73 58
87.7641 59.3199 -44.5928 -0.281 -0.822 0.496 71 75 61
87.8958 59.2305 -44.6661 -0.281 -0.822 0.496 72 74 62
88.0279 59.1410 -44.7397 -0.281 -0.822 0.496 73 75 62
88.3535 59.2884 -44.9938 -0.684 -0.715 0.142 74 76 63
88.5451 59.2692 -45.1224 -0.696 -0.707 0.121 74 76 61
88.6562 59.1508 -45.1757 -0.696 -0.707 0.121 73 76 59
88.8575 59.1412 -45.3130 -0.690 -0.717 0.095 72 74 60
89.0591 59.1305 -45.4501 -0.728 -0.394 0.560 71 73 59
89.0092 58.8167 -45.3536 -0.160 -0.909 0.385 76 78 64
89.1523 58.7348 -45.4363 -0.162 -0.908 0.386 76 79 62
90.2997 52.4633 -44.9880 -0.877 -0.462 0.135 74 72 62
90.3989 52.3310 -45.0303 -0.159 -0.828 0.538 79 74 70
90.6503 52.1198 -45.1623 -0.155 -0.930 0.334 80 74 74
90.8297 52.0674 -45.2758 -0.167 -0.939 0.301 82 76 76
90.9988 52.0038 -45.3802 -0.167 -0.939 0.301 87 82 80
89.8495 49.9442 -44.1784 -0.730 -0.452 -0.512 90 86 78
91.7591 49.0611 -45.3232 -0.554 0.423 0.717 84 82 69
91.6790 48.7619 -45.2086 -0.554 0.423 0.717 86 83 74
91.9363 48.5484 -45.3441 -0.468 -0.876 0.113 95 93 81
92.0454 48.4233 -45.3948 -0.246 -0.698 0.673 100 98 88
91.9659 48.1276 -45.2813 0.035 -0.526 0.850 110 105 101
92.0339 47.9657 -45.2963 0.006 -0.606 0.796 115 109 110
92.1725 47.8670 -45.3725 0.006 -0.606 0.796 116 110 114
93.1671 46.7366 -45.8361 -0.130 -0.219 0.967 98 102 88
92.8517 46.2485 -45.5215 -0.105 -0.027 0.994 99 102 84
92.9017 46.0719 -45.5211 -0.105 -0.027 0.994 77 82 59
92.8524 45.8124 -45.4357 -0.102 -0.077 0.992 70 76 51
92.9005 45.6350 -45.4339 -0.102 -0.084 0.991 77 82 57
93.1642 42.6514 -45.0256 -0.012 -0.262 0.965 106 103 98
93.6538 41.3604 -45.1085 -0.115 -0.143 0.983 80 77 68
93.7205 41.2034 -45.1235 -0.115 -0.143 0.983 75 73 62
94.9087 40.4068 -45.7869 -0.200 0.002 0.980 121 120 118
94.9608 40.2376 -45.7894 -0.015 0.026 1.000 119 115 114
95.0103 40.0668 -45.7898 0.014 0.060 0.998 116 110 110
95.0468 39.8872 -45.7795 0.014 0.060 0.998 115 106 107
95.0832 39.7078 -45.7691 0.014 0.060 0.998 106 97 98
95.1195 39.5288 -45.7588 0.014 0.060 0.998 106 96 97
95.1558 39.3499 -45.7484 0.014 0.060 0.998 105 95 96
95.1920 39.1714 -45.7381 0.014 0.060 0.998 106 96 97
95.1940 38.9704 -45.6997 0.013 0.061 0.998 91 81 82
95.2612 38.8130 -45.7151 -0.027 0.036 0.999 87 77 78
95.3362 38.6609 -45.7368 -0.027 0.037 0.999 88 78 79
95.3755 38.4854 -45.7292 -0.027 0.037 0.999 88 78 79
95.4157 38.3107 -45.7224 -0.027 0.036 0.999 91 83 84
95.4551 38.1359 -45.7150 -0.027 0.036 0.999 92 87 86
95.4945 37.9612 -45.7077 -0.027 0.036 0.999 92 88 87
95.2209 37.5871 -45.4446 -0.020 0.087 0.996 92 88 87
95.1484 37.3432 -45.3462 -0.176 0.004 0.984 94 90 89
95.2274 37.1959 -45.3717 -0.714 0.520 0.469 95 91 90
95.1182 36.9307 -45.2437 -0.714 0.520 0.469 92 88 87
94.8058 36.5403 -44.9506 -0.171 0.189 0.967 94 90 89
94.8063 36.3466 -44.9126 -0.171 0.189 0.967 103 97 99
94.6995 36.0874 -44.7875 0.009 -0.141 0.990 117 106 112
98.9194 29.6580 -46.4311 -0.094 -0.133 0.987 105 99 101
99.0571 29.5356 -46.5021 -0.105 -0.198 0.975 112 106 108
99.1326 29.3851 -46.5245 -0.105 -0.198 0.975 117 111 113
99.2082 29.2347 -46.5469 -0.105 -0.198 0.975 110 104 108
99.5713 29.2098 -46.7929 0.047 -0.832 0.553 94 88 95
100.3876 28.8218 -47.2802 -0.040 -0.888 0.459 99 94 98
100.9019 23.4717 -46.5768 -0.271 0.182 0.945 88 82 82
100.8441 23.2807 -46.4990 -0.312 0.226 0.923 87 81 83
100.9037 23.1280 -46.5100 -0.271 0.182 0.945 88 82 84
101.0815 23.0128 -46.6101 -0.225 -0.452 0.863 94 88 92
101.0941 22.8451 -46.5856 -0.211 -0.438 0.874 89 83 85
101.2691 22.7282 -46.6834 -0.215 -0.441 0.872 83 77 78
102.6331 22.8014 -47.6404 -0.484 -0.679 0.552 87 82 88
102.7132 16.3179 -46.4127 -0.498 0.313 0.809 112 107 111
105.1395 16.4567 -48.1168 -0.723 0.377 0.579 89 84 88
104.8656 15.7516 -47.7880 -0.813 0.230 0.535 102 96 98
107.3130 13.5289 -49.0393 -0.255 -0.508 0.822 109 107 112
107.4326 13.3820 -49.0929 -0.255 -0.508 0.822 105 100 106
109.4114 5.7059 -48.9412 -0.426 -0.345 0.836 111 109 112
109.2163 5.5543 -48.7763 -0.484 -0.298 0.823 111 109 112
108.9867 5.4037 -48.5879 -0.501 -0.819 0.279 110 108 111
109.1434 5.2561 -48.6669 -0.307 -0.467 0.829 107 102 106
109.1401 5.1077 -48.6353 -0.577 -0.792 0.201 103 98 102
109.4103 4.9597 -48.7927 -0.283 -0.481 0.830 98 93 97
109.4808 4.8112 -48.8120 -0.303 -0.548 0.780 92 87 91
109.5871 4.6626 -48.8560 -0.326 -0.602 0.729 90 85 89
109.8549 4.5126 -49.0114 -0.462 -0.456 0.761 98 93 97
109.8536 4.3643 -48.9812 -0.312 -0.546 0.778 103 98 102
109.9757 4.2149 -49.0360 -0.307 -0.545 0.780 106 101 105
112.3253 2.2210 -50.2651 -0.141 -0.989 -0.034 113 106 113
110.1571 1.1634 -48.5575 -0.765 -0.084 -0.639 93 88 94
109.9248 1.0356 -48.3716 -0.756 -0.135 -0.641 99 94 100
109.4848 0.7821 -48.0174 -0.671 -0.285 -0.684 115 110 116
109.4734 0.5042 -47.9546 -0.709 -0.194 -0.678 122 117 121
109.5085 0.3629 -47.9509 -0.709 -0.194 -0.678 114 109 113
108.9784 0.2628 -47.5647 -0.722 -0.087 -0.686 114 110 111
108.7519 0.1425 -47.3844 -0.742 -0.104 -0.662 114 110 111
109.4380 -0.0468 -47.8210 -0.793 -0.023 -0.608 114 110 111
117.1641 -10.0180 -51.1866 -0.903 -0.374 0.209 93 93 95
117.4538 -10.2129 -51.3482 -0.836 -0.487 0.254 93 93 95
118.2444 -10.6498 -51.8081 -0.770 -0.637 -0.036 93 92 97
117.0837 -10.8059 -50.9751 -0.503 -0.857 0.114 102 101 106
81.3623 67.2643 -41.9425 -0.668 0.365 0.648 71 77 65
80.6196 64.4224 -40.8605 -0.315 -0.334 0.888 108 114 102
83.3252 67.4293 -43.3376 -0.338 -0.750 0.568 129 128 124
83.5645 67.5319 -43.5242 -0.551 -0.655 0.518 125 126 120
83.6497 67.3887 -43.5547 -0.581 -0.642 0.499 126 125 121
83.8189 67.3777 -43.6700 -0.445 -0.687 0.575 129 125 124
84.0830 66.1338 -43.6053 -0.821 0.479 0.312 126 125 121
83.7672 64.5737 -43.0752 -0.706 0.151 0.692 112 111 107
83.7641 64.3024 -43.0190 -0.706 0.151 0.692 106 105 101
84.6068 63.4216 -43.4282 0.043 -0.702 0.711 96 93 88
85.1053 63.0811 -43.7063 0.057 -0.900 0.433 99 96 91
85.2638 63.0420 -43.8085 0.057 -0.900 0.433 102 99 94
85.3509 62.9018 -43.8410 0.014 -0.676 0.737 116 112 109
85.4707 62.8070 -43.9053 0.011 -0.675 0.738 126 122 119
85.5510 62.6567 -43.9310 0.036 -0.656 0.754 127 123 120
85.5511 62.3951 -43.8789 0.057 -0.329 0.942 126 122 119
85.2259 61.6856 -43.5118 0.133 -0.431 0.893 126 122 119
86.2162 61.7417 -44.2103 0.050 -0.645 0.763 122 121 116
86.3373 61.6452 -44.2751 0.033 -0.611 0.791 126 125 120
86.4663 61.5585 -44.3474 0.033 -0.611 0.791 122 121 116
86.5872 61.4604 -44.4117 0.016 -0.603 0.798 108 107 102
86.7405 61.4046 -44.5069 0.009 -0.571 0.821 91 90 85
86.9491 61.4209 -44.6550 -0.583 -0.306 0.753 80 79 74
87.0905 61.3473 -44.7384 -0.564 -0.331 0.757 94 93 88
87.1727 60.9371 -44.7137 -0.616 -0.067 0.785 101 100 96
87.1190 60.6098 -44.6112 -0.690 0.502 0.521 100 99 94
86.9260 60.1048 -44.3766 -0.690 0.498 0.526 101 101 93
86.9791 59.9184 -44.3763 -0.714 0.416 0.564 103 103 93
87.1402 59.6163 -44.4279 -0.702 0.054 0.710 102 104 92
87.1484 59.3736 -44.3852 -0.155 -0.420 0.894 101 103 90
87.3896 59.4251 -44.5629 -0.333 -0.731 0.596 98 101 87
87.8326 59.2195 -44.8293 -0.343 -0.767 0.543 83 85 74
87.8960 59.0451 -44.8386 -0.338 -0.753 0.564 84 86 75
88.1492 59.1044 -45.0261 -0.366 -0.737 0.568 80 82 69
88.8913 57.7358 -45.2683 -0.454 -0.441 0.774 62 65 48
88.9014 53.8602 -44.5028 -0.134 -0.601 0.788 63 65 44
90.4936 52.0143 -45.2398 -0.182 -0.954 0.238 86 80 80
90.6892 51.9789 -45.3685 -0.192 -0.938 0.289 89 83 83
91.0442 48.4467 -44.9108 -0.201 -0.659 0.725 88 86 74
91.1558 48.3273 -44.9645 -0.195 -0.634 0.748 89 86 77
91.2982 48.2356 -45.0450 -0.194 -0.639 0.745 93 91 79
91.4206 48.1251 -45.1079 -0.194 -0.639 0.745 100 98 85
92.4757 46.4097 -45.4982 -0.141 -0.086 0.986 97 100 80
92.4701 46.1863 -45.4498 -0.131 -0.087 0.988 94 99 78
92.5395 45.8095 -45.4229 -0.013 -0.232 0.973 72 77 55
92.6279 45.6667 -45.4558 -0.013 -0.232 0.973 67 72 50
92.7408 45.5442 -45.5097 -0.101 -0.089 0.991 71 76 55
93.0249 44.0570 -45.4104 -0.253 -0.275 0.928 91 91 79
92.8136 42.6275 -44.9788 -0.725 -0.461 0.512 94 91 86
92.8745 42.4664 -44.9889 -0.706 -0.653 0.276 104 101 96
93.0138 42.3654 -45.0655 -0.696 -0.663 0.277 106 103 98
93.2567 41.7207 -45.1055 -0.907 -0.353 -0.230 97 94 85
93.3424 41.5784 -45.1367 -0.969 -0.179 0.168 93 90 83
93.3709 41.3936 -45.1196 -0.958 -0.200 0.203 85 82 73
93.3421 41.1671 -45.0545 -0.191 -0.456 0.869 88 86 75
93.4448 41.0376 -45.0999 -0.191 -0.456 0.869 76 74 62
94.0775 40.2669 -45.3854 0.006 -0.583 0.812 119 115 114
94.1007 40.0797 -45.3642 -0.027 -0.571 0.820 120 116 115
94.4747 40.1379 -45.6353 -0.324 -0.027 0.946 121 120 118
94.6571 40.0607 -45.7466 -0.010 0.019 1.000 123 119 118
94.7015 39.8873 -45.7428 -0.010 0.019 1.000 124 118 118
94.6960 39.6799 -45.6976 -0.191 0.344 0.919 126 117 118
94.7379 39.5055 -45.6919 0.039 0.044 0.998 110 101 102
94.7792 39.3310 -45.6858 0.039 0.044 0.998 109 99 100
94.8121 39.1510 -45.6728 0.011 0.063 0.998 109 99 100
94.8475 38.9730 -45.6619 0.011 0.063 0.998 109 99 100
94.8828 38.7952 -45.6510 0.011 0.063 0.998 104 94 95
94.8582 38.5781 -45.5905 0.013 0.049 0.999 102 92 93
94.9120 38.4134 -45.5951 0.018 0.037 0.999 103 93 94
94.9535 38.2407 -45.5895 0.018 0.037 0.999 103 93 94
94.9949 38.0683 -45.5838 0.018 0.037 0.999 99 89 90
94.9975 37.8709 -45.5463 0.003 0.052 0.999 94 89 89
95.0354 37.4989 -45.4985 -0.001 0.051 0.999 94 90 89
95.3556 37.5048 -45.7218 -0.724 0.514 0.461 95 91 90
94.7944 36.7571 -45.1833 -0.696 0.520 0.496 99 95 94
94.6125 36.2553 -44.9571 -0.706 0.514 0.487 103 97 99
94.1898 35.8020 -44.5733 0.009 -0.109 0.994 118 107 113
94.0807 35.5443 -44.4462 -0.001 -0.096 0.995 118 107 113
98.3704 30.7204 -46.4617 -0.982 -0.175 0.063 94 88 92
98.4327 30.5639 -46.4738 -0.983 -0.177 0.051 94 88 90
98.4404 30.3820 -46.4429 -0.995 -0.062 0.076 95 89 91
98.7532 29.4191 -46.4680 -0.103 -0.123 0.987 94 88 90
98.8162 29.2639 -46.4808 -0.103 -0.123 0.987 100 94 96
99.3025 28.7447 -46.7148 -0.259 -0.202 0.945 105 100 107
99.4152 28.6103 -46.7663 -0.222 -0.276 0.935 111 106 112
100.0839 28.1603 -47.1406 0.078 -0.611 0.788 83 78 84
100.2355 26.2333 -46.8617 -0.415 0.025 0.910 92 86 96
100.4810 25.9690 -46.9794 0.106 -0.993 -0.047 102 96 106
100.7014 23.4188 -46.6240 -0.271 0.182 0.945 113 107 107
100.7026 23.2472 -46.5906 -0.271 0.182 0.945 112 106 108
100.7037 23.0760 -46.5573 -0.271 0.182 0.945 108 102 104
100.9081 22.9697 -46.6779 -0.225 -0.452 0.863 94 88 92
100.9707 22.8180 -46.6911 -0.221 -0.442 0.869 90 84 86
101.0267 22.6644 -46.6994 -0.221 -0.434 0.873 84 78 78
104.2286 16.4529 -47.6834 -0.368 -0.018 0.930 108 103 107
103.1961 15.3015 -46.7373 -0.925 0.378 0.045 99 93 95
106.0908 13.3654 -48.3603 -0.350 -0.258 0.901 112 107 113
106.6534 12.9589 -48.6697 -0.755 0.637 0.156 105 100 104
106.6068 11.5264 -48.3518 -0.791 0.611 0.046 112 107 111
105.4397 11.0970 -47.4562 -0.609 0.675 0.417 108 106 111
109.0364 5.6966 -48.8759 -0.430 -0.361 0.828 111 109 112
108.9864 5.5470 -48.8114 -0.434 -0.235 0.870 111 109 112
108.8422 5.3974 -48.6815 -0.313 -0.517 0.797 112 110 113
108.9311 5.2497 -48.7138 -0.310 -0.520 0.796 113 108 112
109.0789 5.1020 -48.7869 -0.283 -0.547 0.788 110 105 109
109.2254 4.9540 -48.8590 -0.283 -0.481 0.830 104 99 103
109.3046 4.8058 -48.8844 -0.303 -0.548 0.780 98 93 97
109.4322 4.6573 -48.9434 -0.326 -0.612 0.721 95 90 94
109.7070 4.5075 -49.1043 -0.462 -0.456 0.761 98 93 97
109.7497 4.3590 -49.1043 -0.288 -0.573 0.767 103 98 102
109.7353 4.2113 -49.0648 -0.479 -0.480 0.735 105 100 104
109.7370 1.4619 -48.5180 0.024 -0.851 0.525 84 79 85
110.0564 1.3025 -48.7079 -0.398 -0.803 0.444 92 87 93
110.1961 1.1523 -48.7749 -0.413 -0.807 0.421 106 101 107
110.0034 0.5989 -48.5309 -0.849 -0.149 -0.508 118 113 119
110.0109 0.4580 -48.5080 -0.832 -0.176 -0.527 120 115 119
109.0690 0.1092 -47.7848 -0.719 -0.138 -0.681 114 110 111
109.5412 -0.2024 -48.0503 -0.803 -0.046 -0.594 114 110 111
111.9311 -0.8192 -49.5860 0.162 -0.788 0.594 112 107 111
117.7894 -10.7068 -51.6808 -0.835 -0.448 0.318 91 91 93
86.1559 91.1322 -50.2775 -0.616 -0.505 0.605 25 28 17
80.7569 65.2629 -41.3203 -0.639 0.332 0.694 91 97 85
80.3529 64.3343 -40.8523 -0.288 -0.395 0.872 103 109 97
81.6520 65.9203 -42.0762 -0.323 -0.905 0.279 119 124 113
82.4443 66.6571 -42.7763 -0.067 -0.751 0.656 122 121 117
83.0287 67.3204 -43.3169 -0.363 -0.813 0.455 122 118 117
83.5337 65.3759 -43.2784 -0.794 0.500 0.344 120 119 115
83.7552 65.4443 -43.4465 -0.788 0.484 0.381 119 118 114
83.1437 64.2451 -42.7796 -0.552 0.252 0.795 118 117 113
83.1495 63.9889 -42.7322 -0.563 0.255 0.786 115 114 110
82.9674 63.4506 -42.4971 -0.796 -0.605 0.002 102 101 97
82.9714 63.1949 -42.4486 -0.639 -0.746 -0.184 97 96 92
83.1712 63.2322 -42.5954 -0.676 -0.736 -0.043 91 90 86
84.4799 63.3163 -43.5244 0.043 -0.702 0.711 109 106 101
84.5625 63.1722 -43.5531 0.035 -0.702 0.712 121 118 113
85.0009 63.0098 -43.8260 0.059 -0.934 0.354 132 129 124
85.1820 63.0033 -43.9510 0.067 -0.924 0.378 133 130 125
85.9498 61.7145 -44.2274 -0.002 -0.413 0.911 124 120 117
86.8239 61.3279 -44.7590 -0.614 -0.667 0.421 83 80 75
86.9414 61.2234 -44.8200 -0.622 -0.655 0.430 100 97 92
86.8535 60.8498 -44.6837 -0.624 -0.309 0.718 105 101 98
86.8148 60.5423 -44.5950 -0.594 -0.085 0.800 106 102 99
86.8542 60.3373 -44.5813 -0.749 0.360 0.556 107 104 99
86.7411 59.9360 -44.4218 -0.712 0.394 0.581 105 104 98
86.6006 59.5018 -44.2367 -0.726 0.057 0.685 98 97 90
86.6025 59.2522 -44.1879 -0.690 0.033 0.723 97 97 89
86.7837 59.2315 -44.3101 -0.131 -0.402 0.906 95 95 87
86.8734 59.0937 -44.3450 -0.095 -0.416 0.904 95 95 85
88.3059 57.8531 -45.0943 -0.249 -0.521 0.816 62 65 48
88.6791 58.0489 -45.3938 -0.498 -0.719 0.485 62 65 46
88.6098 53.8346 -44.4994 -0.654 -0.722 0.225 69 71 50
88.6791 53.6745 -44.5155 -0.137 -0.606 0.783 69 71 50
88.9123 53.6930 -44.6818 -0.121 -0.585 0.802 69 71 50
88.9695 53.5191 -44.6867 -0.137 -0.602 0.786 70 72 51
89.7798 51.8040 -44.9072 -0.460 -0.772 -0.438 89 84 82
90.8466 51.7237 -45.6346 -0.483 -0.765 -0.427 97 91 92
91.2661 46.9293 -44.9644 -0.592 0.555 0.584 124 118 118
91.1180 46.5800 -44.7910 -0.671 0.449 0.590 124 118 120
91.1530 46.3939 -44.7780 -0.029 -0.418 0.908 117 111 111
91.1388 46.1651 -44.7222 -0.007 -0.417 0.909 113 107 109
91.4451 46.2164 -44.9460 -0.052 -0.665 0.745 106 100 103
91.7915 46.3004 -45.2043 -0.095 -0.393 0.915 101 98 92
92.1342 46.1606 -45.4151 -0.101 -0.105 0.989 96 102 73
92.1971 45.9967 -45.4261 -0.101 -0.105 0.989 90 96 68
92.1415 45.7324 -45.3342 -0.049 -0.189 0.981 84 89 65
92.2769 45.6305 -45.4081 -0.073 -0.170 0.983 74 79 57
92.3513 45.4769 -45.4292 -0.073 -0.170 0.983 71 75 58
92.4257 45.3232 -45.4502 -0.073 -0.170 0.983 71 74 61
92.6572 44.0148 -45.3489 -0.301 -0.317 0.899 64 64 52
93.3165 41.5955 -45.3227 -0.956 -0.189 0.224 99 96 87
93.2664 41.3523 -45.2389 -0.967 -0.125 0.222 94 91 82
93.1640 41.0717 -45.1112 -0.203 -0.193 0.960 89 87 75
93.8290 40.5326 -45.4665 -0.130 -0.426 0.896 119 115 112
93.8927 40.3741 -45.4790 -0.130 -0.415 0.900 120 114 114
93.7064 40.0387 -45.2819 -0.010 -0.582 0.813 119 115 114
93.9209 39.9873 -45.4210 -0.025 -0.577 0.817 119 115 114
94.0558 39.8791 -45.4933 -0.025 -0.577 0.817 123 119 118
94.2954 39.8431 -45.6531 -0.342 -0.008 0.940 123 119 118
94.3447 39.6744 -45.6536 -0.202 0.269 0.942 124 120 119
94.4115 39.5178 -45.6688 -0.193 0.345 0.919 124 118 118
94.4337 39.3308 -45.6466 -0.196 0.346 0.918 114 105 106
94.6038 39.2446 -45.7479 -0.017 0.051 0.999 114 104 105
94.7294 39.1277 -45.8119 -0.255 0.126 0.959 114 104 105
94.6269 38.8573 -45.6862 -0.331 -0.105 0.938 114 104 105
94.6768 38.6898 -45.6874 -0.331 -0.105 0.938 116 106 107
94.7285 38.5239 -45.6901 -0.379 -0.042 0.924 117 107 108
94.9015 38.4379 -45.7934 -0.374 -0.042 0.926 117 107 108
94.9405 38.2635 -45.7856 -0.374 -0.042 0.926 118 108 109
94.8494 38.0045 -45.6701 -0.391 -0.024 0.920 104 94 95
94.5974 37.6428 -45.4219 -0.198 0.082 0.977 94 89 88
94.6495 37.4792 -45.4253 -0.192 0.037 0.981 93 89 88
95.1460 37.2042 -45.7161 -0.764 0.514 0.389 104 100 99
94.8320 36.8101 -45.4182 -0.780 0.506 0.369 104 100 99
93.9085 36.0386 -44.6196 -0.613 0.587 0.528 104 100 99
93.7802 35.7679 -44.4758 -0.620 0.586 0.522 108 102 104
98.3697 30.5550 -46.6281 -0.983 -0.179 0.025 94 88 90
98.3716 30.3704 -46.5924 -0.989 -0.149 0.008 98 92 94
98.2264 29.9339 -46.4036 -0.996 -0.076 0.046 99 93 95
98.1099 29.6970 -46.2748 -0.267 -0.604 0.751 99 93 95
98.6670 29.3999 -46.6035 -0.095 -0.201 0.975 95 89 91
98.6981 29.0479 -46.5545 -0.317 -0.139 0.938 102 96 100
99.0761 29.0311 -46.8146 -0.098 -0.660 0.745 100 95 101
99.1219 28.6854 -46.7771 -0.259 -0.202 0.945 106 101 108
99.4223 28.6316 -46.9756 0.200 -0.402 0.893 109 104 111
99.2902 28.3929 -46.8357 0.098 -0.720 0.688 108 103 109
99.4156 26.2908 -46.5010 -0.822 0.418 0.388 82 77 83
99.3516 26.0897 -46.4160 -0.818 0.257 0.514 87 82 89
99.9919 25.9790 -46.8401 -0.238 -0.296 0.925 98 92 102
100.5020 23.3661 -46.6710 -0.271 0.182 0.945 112 106 106
100.4503 23.1778 -46.5971 -0.267 0.177 0.947 109 103 105
100.4527 23.0077 -46.5647 -0.267 0.177 0.947 104 98 102
100.4551 22.8379 -46.5323 -0.267 0.177 0.947 89 83 87
100.4131 22.6546 -46.4662 -0.268 0.176 0.947 88 82 84
102.3922 18.3592 -46.9833 -0.007 -0.072 0.997 109 100 105
103.7250 16.6860 -47.5763 -0.648 0.445 0.618 112 107 111
103.0198 15.2746 -46.8013 -0.929 0.369 -0.007 91 82 85
102.8411 13.2316 -46.2666 -0.043 -0.813 0.581 123 116 123
108.6236 5.6870 -48.7823 -0.420 -0.577 0.701 113 111 114
108.5095 5.5377 -48.6728 -0.507 -0.500 0.702 106 104 107
108.4335 5.3894 -48.5901 -0.569 -0.444 0.692 102 100 103
108.5118 5.2425 -48.6152 0.013 -0.694 0.720 105 100 104
108.8991 5.0960 -48.8557 -0.283 -0.547 0.788 107 102 106
109.0175 4.9483 -48.9086 -0.308 -0.519 0.797 106 101 105
109.1342 4.8003 -48.9602 -0.309 -0.555 0.772 103 98 102
109.2666 4.6521 -49.0227 -0.326 -0.612 0.721 98 93 97
109.4022 4.5036 -49.0874 -0.326 -0.612 0.721 99 94 98
109.5381 4.3547 -49.1523 -0.326 -0.612 0.721 101 96 100
109.4750 4.2079 -49.0788 -0.913 -0.406 0.022 104 99 103
109.3083 1.4764 -48.4142 -0.188 -0.783 0.593 82 77 81
109.5405 1.1816 -48.5168 -0.170 -0.779 0.604 98 93 97
109.9124 1.0185 -48.7433 -0.173 -0.777 0.605 101 96 100
109.9157 0.8771 -48.7173 -0.654 -0.745 0.133 102 97 101
110.3945 0.7052 -49.0165 -0.843 -0.149 -0.517 103 98 102
110.3874 0.5640 -48.9831 -0.192 -0.763 0.618 105 100 104
110.4999 0.4150 -49.0316 -0.179 -0.794 0.581 104 102 105
109.8612 -0.0989 -48.4832 -0.794 -0.083 -0.602 107 105 106
109.7121 -0.2258 -48.3538 -0.802 -0.056 -0.595 108 106 107
111.4308 -0.9276 -49.4110 0.163 -0.744 0.648 112 108 109
117.4427 -10.6507 -51.6492 -0.318 -0.085 0.944 91 89 90
117.3862 -10.7731 -51.5852 -0.326 -0.065 0.943 98 96 97
86.0509 91.0547 -50.4391 -0.620 -0.506 0.599 24 28 14
80.8271 67.9215 -42.1043 -0.174 -0.936 -0.305 59 78 46
83.3262 66.2262 -43.5109 -0.184 0.015 0.983 120 119 115
83.4065 66.0782 -43.5372 -0.192 -0.326 0.926 120 119 115
83.1849 64.9237 -43.1486 -0.734 0.485 0.476 114 113 109
82.8340 63.8553 -42.6869 -0.739 0.469 0.484 102 101 97
82.8808 63.4001 -42.6276 -0.635 -0.751 -0.181 89 88 84
82.9991 63.3158 -42.6934 -0.635 -0.751 -0.181 85 84 80
83.1430 63.2693 -42.7847 -0.676 -0.736 -0.043 79 78 74
84.4076 63.2898 -43.6741 -0.138 -0.306 0.942 123 120 115
84.4939 63.1511 -43.7065 -0.138 -0.306 0.942 133 130 125
84.5352 62.9477 -43.6942 0.045 -0.626 0.779 135 132 127
84.9940 62.8140 -43.9884 0.071 -0.728 0.681 132 129 124
86.2180 61.6311 -44.6060 -0.072 -0.576 0.814 122 118 115
86.3355 61.5292 -44.6677 -0.072 -0.576 0.814 107 103 100
86.2203 61.1164 -44.5036 0.060 -0.461 0.885 92 88 85
86.3378 61.0150 -44.5653 0.057 -0.457 0.888 90 86 83
86.6462 60.3933 -44.6555 -0.601 -0.078 0.796 109 105 102
86.3532 59.7576 -44.3218 -0.671 0.468 0.575 110 106 103
86.9010 58.6943 -44.4902 -0.801 0.348 0.487 89 86 81
86.7910 58.3069 -44.3349 -0.795 0.348 0.496 89 86 81
87.0522 58.3836 -44.5333 0.037 -0.474 0.880 89 86 81
88.5521 53.5929 -44.6145 -0.141 -0.587 0.797 73 75 54
89.4563 52.2192 -44.9696 -0.814 -0.509 0.282 75 79 55
89.5563 52.0908 -45.0137 -0.810 -0.550 0.205 76 78 59
89.8421 51.9215 -45.1796 -0.460 -0.772 -0.438 95 89 88
90.2793 51.9033 -45.4818 -0.343 -0.935 -0.085 105 99 99
90.5665 51.9615 -45.6947 -0.493 -0.869 0.054 111 105 105
90.7114 51.8741 -45.7785 -0.493 -0.869 0.054 114 108 108
90.9028 51.8328 -45.9041 -0.490 -0.869 0.073 110 105 103
91.0954 51.7915 -46.0306 -0.488 -0.872 0.043 104 99 96
91.4102 51.6359 -46.2195 -0.510 -0.756 -0.411 98 94 84
90.9806 47.5958 -45.1018 -0.699 0.078 0.711 113 108 100
90.9469 47.3453 -45.0275 -0.629 0.180 0.757 108 103 99
91.0214 46.7563 -44.9605 -0.602 0.546 0.583 119 113 115
90.8426 46.3804 -44.7593 -0.022 -0.324 0.946 123 114 117
90.8962 46.2118 -44.7628 -0.009 -0.418 0.909 119 110 113
90.9602 46.0524 -44.7753 -0.007 -0.417 0.909 112 106 110
91.1543 46.0066 -44.9020 0.000 -0.448 0.894 105 99 102
91.7165 45.8453 -45.2629 -0.257 0.010 0.966 91 97 63
91.7856 45.6885 -45.2796 -0.088 -0.161 0.983 82 92 58
91.8573 45.5338 -45.2985 -0.088 -0.161 0.983 79 85 59
92.0356 45.4693 -45.4103 -0.098 -0.174 0.980 76 81 60
92.1097 45.3162 -45.4312 -0.093 -0.181 0.979 76 80 66
92.2266 45.1989 -45.4893 -0.079 -0.176 0.981 77 80 71
92.5100 43.9364 -45.4324 -0.284 -0.375 0.883 75 75 63
92.5794 43.7803 -45.4494 -0.287 -0.370 0.883 75 75 63
92.6988 43.6642 -45.5095 -0.749 -0.357 0.558 75 75 65
92.6957 43.4505 -45.4641 -0.994 -0.062 0.086 73 73 63
92.7105 43.2518 -45.4343 -0.994 -0.062 0.086 75 72 65
92.6818 43.0193 -45.3671 -0.995 -0.073 0.062 75 72 67
92.7187 42.8388 -45.3565 -0.878 -0.267 0.397 75 72 67
92.7696 42.6696 -45.3579 -0.878 -0.267 0.397 74 71 66
93.2861 41.6093 -45.5051 -0.957 -0.183 0.224 93 90 82
92.9876 41.1818 -45.2096 -0.893 -0.153 -0.424 88 85 76
92.9229 40.9298 -45.1134 -0.313 -0.110 0.943 83 81 70
93.7743 40.3243 -45.5870 -0.128 -0.408 0.904 119 115 114
94.0112 39.4771 -45.5815 -0.188 -0.006 0.982 123 119 118
94.0516 39.3036 -45.5747 -0.188 -0.006 0.982 124 118 118
