ply
format ascii 1.0
element vertex 849
property float x
property float y
property float z
property float nx
property float ny
property float nz
property uchar diffuse_red
property uchar diffuse_green
property uchar diffuse_blue
end_header
-18.3517 223.1558 -37.3982 -0.477 -0.810 0.340 72 60 65
-17.8051 222.8271 -37.4151 -0.477 -0.810 0.340 75 59 69
-4.7782 235.8115 -40.5027 -0.073 -0.013 0.997 119 98 114
2.0947 205.2506 -37.3068 -0.791 -0.006 0.612 86 96 69
-144.4792 238.7251 -26.3267 0.247 -0.464 0.851 43 34 36
-142.4308 247.3943 -27.6889 0.496 -0.783 0.376 48 36 38
-116.6305 237.4684 -29.1961 -0.385 -0.916 0.116 80 61 62
-116.5371 241.5546 -29.7431 0.342 -0.933 -0.115 79 61 60
-96.2932 183.9082 -24.3753 -0.335 -0.608 0.720 81 72 77
-94.8288 182.7568 -24.3836 -0.032 -0.994 -0.106 72 63 69
-92.5018 183.3682 -24.7175 -0.270 -0.824 0.498 84 75 89
-90.5855 182.4157 -24.8012 -0.192 -0.686 0.702 62 56 65
-74.4908 221.3686 -31.6726 -0.687 -0.515 0.512 52 52 47
-69.2914 221.0263 -32.1942 0.122 -0.883 0.452 60 55 53
-68.7061 221.0713 -32.2638 0.122 -0.883 0.452 55 49 48
-23.7284 212.5175 -36.0410 -0.038 -0.479 0.877 72 58 66
-17.6614 218.9463 -37.5467 -0.695 -0.244 0.676 83 63 75
-7.2959 232.1677 -40.4132 0.102 -0.043 0.994 130 111 118
1.7714 199.7807 -37.1461 -0.785 -0.005 0.619 103 107 79
-265.4903 358.1967 -29.6682 -0.668 -0.678 -0.308 36 38 37
-225.4612 279.6641 -23.5422 0.315 -0.671 0.671 28 30 29
-142.3264 249.2124 -28.5676 0.522 -0.680 0.515 48 36 38
-124.2408 210.8244 -25.4110 -0.363 -0.925 0.110 72 57 54
-123.5315 212.7033 -25.7400 -0.459 -0.828 -0.320 74 54 55
-116.7386 242.5778 -30.4807 0.449 -0.887 -0.105 74 56 56
-93.0236 183.1602 -25.1266 -0.270 -0.829 0.490 79 71 84
-91.6123 183.3199 -25.3024 -0.138 -0.989 -0.050 76 68 79
-91.1323 183.0775 -25.3225 -0.155 -0.986 -0.057 78 70 83
-90.6486 182.6703 -25.3210 -0.132 -0.989 -0.072 66 61 71
-90.1902 183.2800 -25.4527 -0.135 -0.982 -0.136 64 65 61
-70.8636 259.2901 -37.7382 -0.936 -0.325 0.135 53 52 48
-71.9238 227.1758 -33.3253 -0.487 -0.873 0.028 55 51 48
-22.6109 210.0547 -36.4323 -0.062 -0.465 0.883 69 53 63
-17.6790 223.5973 -38.7841 -0.679 -0.414 0.606 82 62 74
-18.3349 216.6923 -37.7884 -0.703 -0.242 0.668 83 63 75
-4.3254 226.9657 -40.6964 -0.150 -0.198 0.969 124 105 111
1.0047 202.5709 -38.0159 -0.789 -0.003 0.615 112 114 95
1.2638 200.1020 -37.7139 -0.874 -0.237 0.424 99 101 75
3.4465 201.0285 -38.0768 -0.856 -0.195 0.478 96 99 71
-266.1416 359.2494 -30.5716 -0.668 -0.678 -0.308 25 27 26
-257.4219 343.7745 -29.4224 -0.546 -0.535 0.645 25 27 26
-256.7317 343.7889 -29.5002 -0.518 -0.595 0.614 25 27 26
-257.8117 347.6041 -29.9012 -0.437 -0.634 0.638 22 24 23
-257.4479 348.3403 -30.0415 -0.448 -0.643 0.622 21 23 22
-150.7743 250.4550 -28.4370 0.446 -0.802 0.397 24 18 20
-141.7790 251.7526 -29.6028 0.538 -0.822 0.188 48 36 36
-141.1757 251.6683 -29.6577 0.544 -0.821 0.177 51 41 40
-140.3139 250.3015 -29.5662 0.563 -0.807 0.175 55 45 43
-115.2101 243.9693 -31.4639 0.400 -0.776 -0.487 69 51 51
-90.2767 184.5399 -26.1102 -0.189 -0.981 -0.046 65 65 61
-72.6740 225.3472 -33.6043 -0.521 -0.833 0.186 53 52 48
-71.9856 227.1907 -33.9311 -0.487 -0.873 0.028 52 48 45
-71.4290 216.3522 -32.5159 0.557 -0.825 0.097 50 44 44
-24.4379 207.8571 -36.5256 -0.349 -0.587 0.731 59 43 53
-3.9278 226.2809 -41.2904 -0.168 -0.185 0.968 127 108 114
-3.7613 220.8687 -40.5715 -0.237 -0.181 0.955 114 95 101
0.5418 213.0413 -39.9784 -0.783 -0.002 0.622 34 27 35
7.3185 186.3066 -37.0818 0.153 -0.740 0.655 88 91 82
10.5389 189.5838 -37.8823 0.200 -0.438 0.876 84 95 68
-256.9700 342.5010 -30.0972 -0.546 -0.535 0.645 21 23 22
-257.0693 344.1967 -30.3213 -0.410 -0.629 0.660 21 23 22
-256.5461 344.5727 -30.4312 -0.431 -0.640 0.636 18 20 19
-180.9255 256.1519 -26.5250 0.360 -0.739 -0.569 13 13 13
-146.7389 260.7330 -30.9360 0.533 -0.452 0.716 59 47 51
-129.3399 237.0580 -29.5755 -0.734 -0.679 -0.012 72 57 52
-124.4259 214.1162 -26.9376 -0.422 -0.832 -0.359 69 51 49
-95.3696 180.6814 -25.5115 -0.432 -0.797 0.422 83 74 79
-91.7968 185.5909 -26.5868 -0.432 -0.847 0.310 93 85 96
-91.3085 185.2577 -26.5945 -0.439 -0.850 0.290 96 88 101
-90.8233 185.0009 -26.6125 -0.439 -0.850 0.290 75 71 80
-72.9834 220.5034 -33.5049 0.428 -0.901 -0.072 53 52 48
-27.1226 202.2542 -36.0402 -0.415 -0.498 0.761 57 41 51
-24.6150 207.3432 -37.0227 -0.349 -0.587 0.731 49 33 43
-5.5964 221.3004 -41.0583 -0.250 -0.175 0.952 130 111 117
-6.3755 216.9776 -40.3729 -0.133 -0.277 0.952 130 111 117
-5.4148 217.9540 -40.6144 -0.167 -0.292 0.942 124 105 111
-3.0631 217.3442 -40.7896 -0.254 -0.169 0.952 105 89 100
-0.1490 209.5260 -40.0275 -0.122 -0.181 0.976 44 37 45
0.2111 191.5586 -37.5763 -0.846 -0.217 0.487 96 96 83
0.4834 190.7847 -37.4991 -0.852 -0.224 0.473 95 98 82
6.6098 186.0646 -37.5214 0.122 -0.750 0.650 83 86 75
6.9609 185.5538 -37.4894 0.142 -0.735 0.663 84 87 78
7.3080 185.0391 -37.4563 0.158 -0.735 0.659 87 89 80
22.3242 211.3795 -42.7666 0.174 -0.366 0.914 79 95 59
24.0914 212.3690 -43.0990 0.187 -0.390 0.902 81 97 61
-126.1826 211.9696 -26.9938 -0.225 -0.849 -0.478 69 54 49
-126.0356 217.0972 -27.7334 -0.499 -0.857 -0.129 68 53 48
-125.6930 218.1588 -27.9212 -0.382 -0.919 0.095 62 47 44
-125.0344 217.3399 -27.8788 -0.280 -0.939 -0.200 60 42 40
-96.6195 185.5912 -26.5528 -0.065 -0.785 0.616 66 57 62
-62.2699 205.7905 -33.2130 -0.707 -0.707 0.035 72 63 66
-48.5834 193.7589 -33.0343 -0.570 -0.704 0.423 58 43 50
-45.5172 198.7742 -34.0819 -0.455 -0.675 0.581 63 43 55
-45.0477 198.3079 -34.0683 -0.470 -0.660 0.586 71 51 63
-26.0820 204.1662 -36.9988 -0.723 -0.328 0.608 54 38 48
-25.0314 205.9228 -37.3631 -0.357 -0.588 0.726 61 45 55
-13.4112 214.7639 -39.8995 0.385 -0.081 0.919 138 119 125
-10.3977 218.4260 -40.7504 0.268 -0.062 0.962 138 119 125
-5.8239 216.8348 -41.0334 -0.167 -0.292 0.942 126 107 113
-5.0623 217.2082 -41.1705 -0.496 -0.219 0.840 126 107 113
-4.3610 215.5170 -41.0098 -0.259 -0.185 0.948 115 99 109
0.3034 202.5700 -39.7010 -0.860 -0.206 0.466 61 56 59
6.5597 184.7023 -37.8746 0.150 -0.791 0.593 66 69 60
21.7131 210.1060 -43.1393 0.171 -0.368 0.914 68 84 48
24.8581 212.6550 -43.8478 0.151 -0.372 0.916 79 95 59
-145.7379 235.1437 -28.6880 0.241 -0.350 0.905 33 27 29
-143.9556 234.4991 -28.7942 0.456 -0.446 0.770 48 39 40
-126.3219 212.3359 -27.5792 -0.225 -0.849 -0.478 67 52 47
-125.5541 216.8726 -28.3157 -0.475 -0.871 -0.124 56 41 38
-125.1361 217.4919 -28.4512 -0.280 -0.939 -0.200 54 36 34
-94.0730 180.2652 -26.5714 -0.457 -0.558 0.693 87 79 90
-93.3377 185.3400 -27.3815 0.242 -0.849 0.470 98 90 103
-63.7087 208.7353 -34.0403 -0.863 -0.505 -0.026 54 45 48
-63.2547 207.6297 -33.9323 -0.860 -0.510 -0.024 59 50 53
-62.3813 205.2203 -33.6839 -0.860 -0.509 -0.021 68 59 62
-37.5971 199.4638 -35.6199 0.525 -0.391 0.756 48 37 43
-5.3068 214.7016 -41.4048 -0.271 -0.188 0.944 122 105 115
-0.0927 201.6098 -40.1074 -0.849 -0.169 0.501 54 49 55
0.1562 200.6746 -40.0009 -0.849 -0.169 0.501 69 65 64
0.3725 190.6450 -38.5859 -0.837 -0.212 0.505 96 96 94
4.6080 184.2271 -38.1371 0.276 -0.757 0.592 45 48 37
6.2477 184.0512 -38.2946 0.129 -0.802 0.583 57 60 49
6.8040 184.0133 -38.3511 0.137 -0.799 0.585 67 69 60
21.4575 208.2044 -43.4552 0.213 -0.336 0.917 70 86 50
-147.3799 228.2535 -28.0942 0.303 -0.428 0.852 29 25 26
-147.1412 250.6110 -31.3832 0.481 -0.751 -0.452 50 40 41
-126.8257 217.7708 -28.8654 -0.324 -0.945 0.048 60 45 40
-111.7828 215.5113 -30.2196 -0.051 -0.945 0.322 68 50 50
-111.2943 215.8973 -30.3306 -0.179 -0.944 0.279 67 49 49
-110.6952 225.6756 -31.8245 -0.455 -0.883 -0.120 70 61 53
-106.8207 232.5889 -33.2669 -0.168 -0.919 -0.357 69 66 54
-94.5373 179.0040 -26.8232 -0.302 -0.949 0.092 87 77 85
-94.1155 179.9243 -27.0047 -0.272 -0.657 0.703 94 86 97
-74.0042 215.0974 -34.3881 0.375 -0.913 0.162 47 46 42
-50.3929 193.1427 -33.8277 -0.722 -0.415 0.554 56 41 48
-37.9273 198.1317 -35.9510 0.527 -0.390 0.755 48 37 43
0.1621 190.1897 -39.0559 -0.836 -0.214 0.505 109 109 111
18.1268 202.4197 -42.8514 0.193 -0.324 0.926 57 73 37
20.9928 205.8732 -43.6761 0.199 -0.295 0.935 68 84 48
-148.8104 229.4090 -28.6830 -0.247 -0.859 0.449 21 18 19
-148.3528 229.6945 -28.7769 -0.233 -0.881 0.412 21 18 18
-147.4644 228.2473 -28.6621 -0.204 -0.952 0.227 32 28 28
-144.4731 233.6301 -29.7969 0.550 -0.396 0.735 47 38 38
-143.7062 232.6494 -29.7376 0.439 -0.440 0.783 50 40 40
-149.6378 263.9122 -33.7083 0.430 -0.566 0.703 55 42 42
-126.8686 188.5568 -25.0900 -0.815 -0.473 0.334 58 46 45
-126.4231 188.5994 -25.1464 -0.810 -0.463 0.359 59 44 44
-126.9027 217.7692 -29.4196 -0.324 -0.945 0.048 56 41 37
-111.8569 215.5287 -30.7789 -0.050 -0.745 0.666 64 47 47
-111.3338 215.5975 -30.8480 -0.040 -0.747 0.664 65 48 48
-110.7947 215.5247 -30.8978 -0.040 -0.747 0.664 66 49 49
-106.9184 232.8546 -33.9043 -0.168 -0.919 -0.357 68 65 53
-94.6043 179.2213 -27.3328 -0.255 -0.967 -0.027 91 81 89
-91.5244 184.7516 -28.4995 -0.432 -0.847 0.310 144 136 149
-90.5707 184.8571 -28.6224 -0.166 -0.984 -0.068 68 68 64
-76.5852 240.8915 -38.5071 0.599 -0.717 0.356 52 54 44
-63.5952 205.2135 -34.6751 0.463 -0.878 0.120 48 39 43
-62.5604 204.5070 -34.6867 -0.589 -0.764 0.265 58 49 53
-54.5566 173.7567 -31.0250 -0.466 -0.549 0.694 54 43 49
-51.3683 190.6842 -33.8946 -0.735 -0.463 0.495 54 43 49
-14.8755 206.3354 -40.3194 0.399 -0.092 0.912 138 120 126
-157.7529 244.5958 -30.5438 0.156 -0.908 0.389 24 17 18
-142.4267 205.6490 -26.4025 -0.315 -0.772 0.552 28 22 19
-145.8731 225.6972 -29.0360 -0.839 -0.513 -0.183 45 37 33
-126.9371 217.5216 -29.9419 -0.331 -0.941 0.074 53 37 38
-111.8569 214.8814 -31.2469 -0.121 -0.834 0.539 52 37 39
-111.4129 215.6615 -31.4146 -0.242 -0.759 0.604 58 43 45
-110.8912 215.7542 -31.4875 -0.132 -0.829 0.544 63 48 49
-109.6651 224.9850 -33.0177 0.344 -0.907 -0.242 76 63 61
-108.9117 234.9721 -34.6086 -0.427 -0.823 -0.375 60 47 45
-108.2164 233.6683 -34.4905 -0.421 -0.823 -0.382 62 47 45
-107.0229 233.1982 -34.5545 -0.301 -0.847 -0.439 61 52 48
-94.6474 178.9174 -27.7680 -0.280 -0.960 -0.008 78 67 76
-94.1799 178.7811 -27.8002 -0.280 -0.960 -0.008 89 79 88
-91.5745 184.5001 -28.9567 -0.298 -0.827 0.478 115 106 116
-90.1304 184.0550 -29.0527 -0.442 -0.827 0.347 71 74 61
-84.1824 221.6753 -35.3966 0.472 -0.858 -0.202 61 62 54
-51.3724 190.9482 -34.4691 -0.773 -0.404 0.488 59 57 62
-49.8820 190.3135 -34.5418 -0.590 -0.400 0.701 49 47 52
-49.0334 192.1866 -34.9200 0.491 -0.620 0.612 47 44 49
-48.4189 192.6398 -35.0577 0.491 -0.628 0.604 54 50 56
-45.9133 194.5582 -35.6299 0.418 -0.608 0.675 57 54 59
-38.9367 196.4271 -36.6996 0.638 -0.752 -0.169 55 45 47
-16.1375 202.3583 -40.1687 0.399 -0.092 0.912 125 112 116
-2.2998 192.9679 -40.3156 -0.873 -0.227 0.432 50 39 47
-0.5390 177.6432 -38.2039 -0.002 -0.438 0.899 64 64 44
-158.6735 237.6801 -29.9937 0.634 -0.636 -0.441 20 11 14
-158.3692 238.5222 -30.1572 0.591 -0.673 -0.444 18 9 12
-158.4871 240.8995 -30.5081 0.693 -0.667 -0.274 18 9 12
-157.2919 238.5482 -30.2834 0.448 -0.894 0.001 18 9 12
-157.0972 239.8219 -30.5006 0.435 -0.900 -0.003 18 9 10
-151.4520 237.0257 -30.7126 -0.270 -0.869 0.414 34 26 24
-144.8139 218.9260 -28.6926 -0.571 -0.772 0.281 40 33 27
-145.7815 224.9740 -29.5094 -0.767 -0.637 0.074 45 38 32
-145.3451 225.3268 -29.6130 -0.372 -0.871 0.321 49 42 36
-129.7915 200.2442 -27.5344 -0.652 -0.666 0.361 57 36 41
-127.7796 192.4717 -26.5718 -0.001 -0.763 -0.646 57 36 41
-111.8129 213.8434 -31.6573 -0.210 -0.798 0.565 52 37 40
-110.9278 215.4240 -31.9998 -0.132 -0.829 0.544 63 49 49
-110.2201 224.2517 -33.4326 0.419 -0.821 -0.387 72 58 57
-107.0345 232.4452 -35.0492 -0.392 -0.828 -0.400 61 52 49
-94.7198 179.2471 -28.2958 -0.021 -0.966 0.258 65 53 63
-93.9975 184.1114 -29.1230 0.271 -0.873 0.405 86 76 85
-93.4444 182.1190 -28.8805 -0.144 -0.965 0.219 105 95 106
-77.6187 213.5793 -35.4955 0.559 -0.762 0.328 48 44 44
-77.0482 213.9055 -35.6102 0.457 -0.620 0.638 43 41 45
-73.1889 223.7930 -37.5628 0.665 -0.732 0.146 35 33 38
-72.1181 211.5699 -35.8116 0.225 -0.939 -0.258 34 33 38
-71.5200 212.2206 -35.9791 0.255 -0.943 -0.213 34 33 38
-70.9475 212.3961 -36.0710 0.255 -0.943 -0.213 40 40 42
-69.5649 200.1252 -34.3478 0.355 -0.932 0.072 51 48 55
-57.8342 203.2211 -36.1528 -0.588 -0.777 -0.227 54 44 52
-57.5484 196.7382 -35.1920 0.642 -0.759 -0.111 54 44 52
-55.2614 179.4073 -32.7962 0.628 -0.704 -0.332 55 53 56
-46.0098 194.2761 -36.1236 0.410 -0.630 0.660 55 54 59
-33.1837 192.6240 -37.3254 0.538 -0.777 -0.327 56 43 52
-0.9773 190.4544 -40.6462 -0.875 -0.227 0.427 46 35 43
-1.4922 182.0914 -39.3066 -0.841 -0.116 0.528 86 84 86
-1.2619 178.6095 -38.7992 -0.860 -0.127 0.494 87 85 70
-0.3749 178.0875 -38.8199 0.029 -0.421 0.907 76 75 52
1.3236 179.4639 -39.2234 0.420 -0.419 0.805 72 76 53
-159.4948 232.7712 -29.7332 0.425 -0.887 -0.182 26 17 20
-158.5750 238.9287 -30.7963 0.592 -0.676 -0.438 27 18 21
-156.7370 238.1703 -30.8877 0.409 -0.881 -0.239 27 18 19
-147.6518 219.7751 -29.0597 0.515 -0.856 -0.038 40 32 30
-144.0659 217.6083 -29.1310 -0.589 -0.756 0.286 45 38 32
-111.3061 213.3767 -32.2048 -0.088 -0.819 0.567 57 42 45
-110.8886 214.3911 -32.4102 -0.147 -0.818 0.556 63 49 49
-110.5643 216.3372 -32.7501 0.166 -0.681 0.713 66 52 52
-109.8564 225.4193 -34.2443 0.314 -0.940 -0.135 66 52 51
-103.3443 220.4930 -34.2195 -0.273 -0.800 -0.535 68 63 59
-98.5179 187.4732 -29.6301 -0.902 -0.359 0.238 71 58 67
-93.4725 181.3754 -29.2558 -0.066 -0.923 0.379 130 120 131
-83.1528 223.4761 -36.9842 -0.421 -0.874 -0.244 50 49 45
-80.8601 222.4519 -37.0860 -0.616 -0.770 -0.168 54 50 49
-79.8794 214.9502 -36.0301 0.579 -0.813 -0.060 52 48 47
-70.5169 211.2376 -36.5190 0.160 -0.509 0.846 46 45 50
-57.8624 203.4150 -36.7432 -0.588 -0.777 -0.227 61 51 59
-57.4051 178.6911 -32.9472 -0.648 -0.761 0.029 51 49 52
-45.5603 191.0802 -36.2250 -0.268 -0.068 0.961 56 54 59
-39.7470 190.4505 -36.7893 0.342 -0.820 -0.459 56 44 46
-32.9739 191.3834 -37.7062 -0.795 -0.485 -0.365 74 61 70
-7.0466 197.8062 -41.6597 -0.063 -0.025 0.998 137 120 126
-1.8963 183.9302 -40.0868 -0.777 -0.137 0.614 31 24 32
-1.8822 181.2027 -39.6639 -0.672 -0.198 0.714 77 75 76
-0.7021 177.3720 -39.2021 0.026 -0.418 0.908 91 90 66
0.1246 178.0169 -39.3967 0.174 -0.371 0.912 78 80 55
0.8329 178.3761 -39.5333 0.420 -0.419 0.805 72 77 51
6.8791 180.6313 -40.5732 0.159 -0.389 0.907 65 79 44
-159.7165 233.2218 -30.3643 0.413 -0.899 -0.146 26 17 20
-156.8579 238.2777 -31.4906 0.409 -0.881 -0.239 44 35 36
-150.3642 222.0314 -29.6655 -0.410 -0.600 0.687 43 35 33
-146.4397 218.6739 -29.5838 0.267 -0.958 0.106 44 36 34
-110.8666 213.5239 -32.8403 -0.140 -0.822 0.552 63 49 49
-110.5535 215.5528 -33.1969 0.138 -0.678 0.722 64 50 50
-103.0244 222.7175 -35.1910 -0.123 -0.841 -0.527 68 63 59
-98.5667 187.2841 -30.0999 -0.902 -0.359 0.238 71 58 67
-93.9901 181.1767 -29.6581 -0.076 -0.917 0.392 97 87 96
-93.5392 181.6062 -29.7776 -0.432 -0.816 0.385 103 93 104
-93.0643 181.4636 -29.8094 -0.423 -0.820 0.386 109 99 108
-90.2808 183.1722 -30.3980 -0.334 -0.664 0.669 71 74 61
-86.6875 226.7694 -37.7010 -0.733 -0.679 -0.026 57 58 53
-84.9424 225.9588 -37.7725 -0.685 -0.712 -0.155 58 57 53
-57.5438 178.0161 -33.3290 -0.675 -0.731 0.102 51 49 52
-56.9710 178.5602 -33.4806 -0.629 -0.776 0.051 59 57 60
-56.2811 179.8966 -33.7708 0.436 -0.661 -0.610 59 57 60
-27.1367 190.5768 -38.7941 -0.702 -0.253 0.665 49 44 47
-6.0709 198.9654 -42.5307 -0.156 -0.177 0.972 134 117 125
-4.4237 184.7494 -40.4720 0.085 -0.156 0.984 51 40 48
-3.5713 185.4794 -40.6849 0.085 -0.153 0.985 47 36 44
-1.6981 185.8976 -40.9653 -0.032 -0.144 0.989 27 16 25
-1.5006 183.5768 -40.6211 -0.845 -0.180 0.503 43 38 43
-1.4934 178.1735 -39.7677 -0.848 -0.117 0.517 111 110 91
-0.1021 176.2522 -39.6232 0.413 -0.418 0.809 72 77 52
0.6349 176.6852 -39.7760 0.413 -0.418 0.809 63 71 47
1.3758 177.1205 -39.9296 0.413 -0.418 0.809 60 65 42
2.4307 178.2668 -40.2315 0.411 -0.422 0.808 59 63 40
3.9827 179.2529 -40.5650 0.417 -0.419 0.807 67 72 49
2.8664 175.4890 -39.8423 -0.097 -0.451 0.887 67 72 50
10.1604 184.0897 -42.0365 -0.216 -0.428 0.878 70 84 49
10.6198 183.8328 -42.0485 -0.216 -0.428 0.878 69 83 47
-159.2112 229.3844 -30.3931 -0.084 -0.831 -0.550 29 23 25
-159.0670 232.4902 -30.9082 0.427 -0.900 0.091 38 29 32
-159.3183 235.2062 -31.3153 0.756 -0.606 -0.247 44 35 38
-157.0483 236.6717 -31.8114 0.433 -0.890 -0.141 59 50 53
-156.9790 238.3852 -32.0945 0.409 -0.881 -0.239 69 60 61
-148.6053 218.8969 -29.9286 -0.695 -0.356 0.624 55 47 45
-141.6103 203.0403 -28.1872 0.184 -0.883 0.433 60 52 49
-111.9118 203.8584 -31.7318 -0.079 -0.426 0.901 51 36 39
-103.1339 215.7632 -34.6516 0.004 -0.998 0.070 46 41 37
-102.5748 215.5047 -34.6743 -0.263 -0.957 0.124 51 46 42
-101.9918 214.8972 -34.6438 -0.527 -0.797 0.294 57 52 48
-101.4263 214.5133 -34.6472 -0.516 -0.804 0.295 63 55 53
-98.6113 187.0297 -30.5591 -0.882 -0.424 0.204 71 58 67
-93.5748 181.0597 -30.1796 -0.312 -0.823 0.475 105 95 106
-93.0990 180.8657 -30.2032 -0.312 -0.823 0.475 98 88 97
-90.8110 183.0701 -30.8200 -0.335 -0.666 0.666 69 67 64
-90.3291 182.8139 -30.8342 -0.335 -0.666 0.666 73 76 63
-86.7324 222.6664 -37.6447 -0.663 -0.749 -0.022 67 68 63
-83.3273 91.8747 -17.0415 -0.661 -0.724 0.195 50 46 45
-83.0624 91.6467 -17.0354 -0.718 -0.696 0.015 50 46 45
-57.5920 177.9915 -33.8226 -0.675 -0.731 0.102 44 42 45
-57.0393 178.3930 -33.9506 -0.627 -0.778 0.046 53 51 54
-21.1154 181.3708 -38.5573 0.311 -0.078 0.947 130 114 117
-2.6240 178.1704 -40.1688 -0.008 -0.141 0.990 39 36 31
-1.9051 178.5723 -40.3159 -0.850 -0.115 0.514 53 49 38
-1.7003 177.7373 -40.2054 -0.848 -0.117 0.517 70 69 50
-1.6129 175.3345 -39.8298 -0.940 -0.206 0.270 109 108 83
-1.4510 174.4319 -39.7035 -0.940 -0.207 0.272 112 114 90
-0.4128 174.3124 -39.8036 0.083 -0.401 0.912 94 102 78
7.6354 181.1410 -41.8247 -0.059 -0.574 0.817 67 83 47
8.6331 182.0724 -42.0889 0.082 -0.488 0.869 68 82 47
-157.1516 236.7156 -32.4036 0.433 -0.890 -0.141 58 49 52
-156.9653 238.0020 -32.6348 0.314 -0.931 -0.185 65 56 57
-148.0392 218.3430 -30.4615 0.568 -0.767 -0.298 61 53 51
-140.5257 198.3851 -28.0764 0.275 -0.812 0.515 61 53 50
-131.0307 200.1847 -29.4657 -0.503 -0.783 0.367 58 37 42
-130.3092 198.9858 -29.3536 -0.511 -0.766 0.391 47 26 31
-124.5616 174.8390 -26.0821 0.462 -0.692 -0.555 59 38 43
-124.2362 175.3463 -26.2023 0.452 -0.692 -0.563 64 43 48
-103.7123 215.3536 -35.0910 -0.224 -0.970 -0.094 54 49 45
-103.2006 215.7215 -35.2100 0.012 -0.999 0.053 46 41 37
-101.6199 208.6214 -34.2354 -0.119 -0.989 -0.087 57 52 48
-101.5207 214.8879 -35.2680 -0.540 -0.806 0.241 63 55 53
-96.0415 182.4686 -30.6174 -0.141 -0.806 0.575 93 80 90
-95.5759 182.5477 -30.6841 -0.010 -0.956 0.292 112 99 109
-94.5155 179.8986 -30.3748 0.188 -0.853 0.486 121 111 120
-92.6452 179.6814 -30.5553 -0.409 -0.795 0.447 93 83 91
-90.8599 182.7619 -31.2633 -0.380 -0.671 0.637 66 65 61
-90.3441 181.0964 -31.0515 -0.386 -0.655 0.650 73 76 63
-88.2462 201.8310 -34.6726 0.484 -0.527 0.698 79 82 71
-85.0832 220.0183 -38.0015 0.257 -0.757 0.600 68 67 63
-84.5149 220.1431 -38.0874 0.257 -0.757 0.600 70 69 65
-83.9411 221.0107 -38.2950 -0.113 -0.590 0.800 69 68 64
-75.0973 212.7050 -37.9623 0.443 -0.826 0.348 61 59 64
-70.1712 202.3256 -36.8395 0.295 -0.898 0.327 46 45 51
-66.8335 203.3571 -37.3929 0.006 -0.882 0.471 50 42 53
-58.1801 177.6420 -34.2012 -0.713 -0.701 0.009 44 42 45
-57.6548 177.8624 -34.2978 -0.675 -0.733 0.088 44 42 45
-57.1177 178.1546 -34.4074 -0.631 -0.773 0.065 53 51 54
-35.5748 187.8829 -38.4794 0.529 -0.710 -0.464 56 43 52
-27.0715 185.1307 -39.0124 -0.428 -0.298 0.853 64 60 61
-2.0896 176.8642 -40.5490 -0.854 -0.119 0.507 33 30 14
-1.9647 175.8536 -40.3987 -0.940 -0.207 0.272 49 48 27
-1.8614 174.8038 -40.2395 -0.933 -0.194 0.303 63 62 39
-1.5509 174.2527 -40.1856 -0.940 -0.207 0.272 77 79 55
-1.2170 173.7620 -40.1441 -0.598 -0.116 0.793 90 95 70
-0.6290 168.9382 -39.4259 -0.580 -0.165 0.798 81 86 63
0.6560 168.2385 -39.4602 -0.588 -0.173 0.790 75 86 55
5.9980 177.6031 -41.6029 0.050 -0.564 0.824 72 88 52
15.6939 163.0256 -40.3465 -0.359 -0.828 0.431 68 89 50
-158.9766 227.9745 -31.3438 -0.172 -0.862 -0.476 29 23 25
-159.5822 233.6427 -32.2112 0.563 -0.750 0.347 39 30 33
-159.9922 236.9131 -32.7046 0.454 -0.883 0.115 44 35 38
-159.2708 238.1652 -32.9953 0.475 -0.878 0.051 48 39 42
-158.7157 238.1168 -33.0517 0.432 -0.902 -0.013 49 40 43
-157.2655 236.7972 -33.0015 0.314 -0.928 -0.200 54 45 48
-157.0793 238.0831 -33.2358 0.314 -0.931 -0.185 58 49 50
-103.7879 215.4270 -35.6664 -0.224 -0.970 -0.094 54 49 45
-103.2682 215.6911 -35.7704 0.012 -0.999 0.053 46 41 37
-101.6483 215.7445 -35.9670 -0.550 -0.804 0.227 63 55 53
-96.0979 182.4265 -31.0995 -0.010 -0.956 0.292 81 68 78
-95.6273 182.4060 -31.1507 -0.010 -0.956 0.292 112 99 109
-95.0779 180.7425 -30.9392 0.016 -0.898 0.439 128 116 126
-88.3743 206.9273 -36.0474 0.500 -0.548 0.670 79 83 69
-85.1536 214.6176 -37.6928 0.347 -0.713 0.609 68 67 63
-84.5955 215.4438 -37.8942 -0.020 -0.655 0.756 57 56 52
-84.0131 219.8114 -38.6841 -0.000 -0.632 0.775 57 56 52
-82.8721 220.1125 -38.8662 0.250 -0.727 0.640 58 57 53
-82.2267 226.0313 -39.9200 -0.047 -0.716 0.696 61 57 56
-83.3858 91.9830 -17.6135 -0.159 -0.777 -0.609 62 58 57
-75.1688 212.4439 -38.4908 0.443 -0.826 0.348 68 66 69
-68.9722 197.3665 -36.7153 -0.015 -0.785 0.619 63 53 64
-61.9949 192.7720 -36.7643 -0.512 -0.583 0.631 46 36 45
-60.9028 193.1083 -36.9465 -0.842 -0.507 -0.183 46 36 44
-57.2883 177.2596 -34.7441 -0.580 -0.814 -0.022 53 51 52
-55.4586 176.2408 -34.7877 -0.036 -0.973 -0.227 49 49 51
-45.1759 185.6108 -37.5296 0.558 -0.511 0.653 50 46 47
-25.2831 187.7079 -40.1826 -0.575 -0.360 0.735 53 49 50
-26.2429 182.4694 -39.2049 -0.616 -0.180 0.767 53 49 50
-4.4365 175.2136 -40.5327 0.061 -0.166 0.984 39 34 37
-2.7086 176.7557 -40.9881 -0.942 -0.208 0.265 36 32 23
-2.1770 175.4060 -40.8265 -0.933 -0.194 0.303 47 46 26
-1.9731 174.5963 -40.7162 -0.933 -0.194 0.303 56 55 32
2.4953 169.9778 -40.4703 -0.725 -0.141 0.674 79 95 59
12.9714 163.9724 -40.6915 -0.100 -0.458 0.883 66 87 48
12.7195 162.4864 -40.4165 -0.158 -0.427 0.890 66 87 48
-158.9729 238.7027 -33.7208 0.385 -0.923 -0.008 54 45 47
-157.3818 236.8868 -33.6012 0.314 -0.928 -0.200 52 44 46
-150.1597 219.9875 -31.6055 -0.630 -0.523 0.574 55 46 45
-110.0895 162.3401 -26.5948 -0.517 -0.855 -0.034 44 29 32
-109.3207 162.7333 -26.7503 -0.629 -0.556 -0.544 45 30 33
-108.5713 163.3210 -26.9362 -0.037 -0.996 0.079 36 21 24
-105.5851 198.9831 -33.2698 0.426 -0.867 -0.258 65 52 51
-105.3845 214.3677 -35.8755 0.389 -0.921 -0.002 55 48 45
-101.1397 215.2090 -36.5109 -0.429 -0.890 0.158 64 53 58
-98.0922 183.4169 -31.5294 -0.739 -0.671 0.055 73 60 70
-97.5892 182.8661 -31.4955 -0.739 -0.671 0.055 58 46 55
-97.1100 182.6939 -31.5224 -0.738 -0.674 0.038 42 29 38
-96.1260 181.8458 -31.4946 -0.001 -0.960 0.280 72 59 69
-95.6787 182.2643 -31.6170 -0.010 -0.956 0.292 112 99 109
-95.1083 180.1693 -31.3317 -0.231 -0.957 0.174 139 127 136
-88.9696 206.8336 -36.5220 0.473 -0.543 0.694 65 68 57
-87.9214 208.6280 -36.9453 -0.166 -0.981 -0.097 65 69 56
-87.3940 209.9633 -37.2308 0.664 -0.719 0.205 66 68 59
-85.7697 212.9213 -37.9165 0.369 -0.700 0.612 68 68 63
-84.0841 218.6694 -39.0775 0.008 -0.623 0.782 74 73 68
-82.3280 223.1829 -40.0396 -0.106 -0.663 0.741 66 64 59
-57.3798 176.9263 -35.1801 -0.570 -0.821 -0.017 53 52 50
-25.9035 187.5912 -40.6350 -0.367 -0.317 0.874 61 59 55
-3.4040 177.7974 -41.6108 -0.251 -0.092 0.963 39 34 38
-1.4707 170.7774 -40.6576 -0.171 -0.024 0.985 94 98 78
-2.6933 160.9024 -38.8577 -0.701 -0.177 0.691 87 97 67
-2.4613 160.2839 -38.7809 -0.701 -0.177 0.691 85 98 63
0.8008 162.8941 -39.5988 -0.203 -0.073 0.976 75 87 53
2.3490 159.6032 -39.2267 -0.566 -0.638 0.521 71 89 47
8.7132 166.1533 -41.0671 -0.650 -0.591 0.478 71 89 51
-183.8756 300.5802 -41.9490 -0.927 -0.372 -0.049 17 19 15
-160.2345 237.1136 -33.9052 0.405 -0.846 0.347 43 39 35
-149.8942 218.6778 -31.9747 -0.619 -0.516 0.591 60 43 46
-140.7607 200.2852 -29.9105 0.310 -0.894 0.323 66 51 51
-104.8764 207.5457 -35.3429 0.047 -0.995 -0.091 45 36 38
-103.9383 215.5608 -36.8176 -0.148 -0.988 0.044 46 37 39
-98.1620 183.5816 -32.0470 -0.748 -0.662 0.054 62 52 57
-97.6501 182.8925 -31.9895 -0.739 -0.671 0.055 59 50 55
-97.1709 182.7249 -32.0170 -0.747 -0.663 0.053 58 48 52
-96.2054 182.2398 -32.0473 -0.028 -0.961 0.274 76 65 70
-95.7346 182.2115 -32.0975 -0.028 -0.961 0.274 94 84 88
-87.4395 207.9626 -37.4529 -0.324 -0.903 -0.284 46 49 37
-86.8953 207.0441 -37.3601 -0.114 -0.894 0.433 62 65 53
-49.7657 256.1487 -50.0641 -0.954 -0.291 0.070 41 44 45
-59.1164 175.3339 -35.2081 0.706 -0.705 0.069 45 56 36
-57.2029 178.5064 -35.9721 -0.246 -0.851 -0.464 58 69 49
-51.1125 185.0706 -37.8022 0.369 -0.929 -0.040 33 44 22
-46.4269 176.9440 -36.9661 0.110 -0.347 0.931 37 45 37
-14.7018 173.7821 -40.1373 -0.082 -0.762 0.642 127 112 119
-12.8362 177.4630 -40.9823 0.655 -0.701 0.281 127 112 119
-6.8948 177.3658 -41.6605 0.230 -0.081 0.970 66 52 59
-1.6066 182.2527 -43.1111 0.122 -0.064 0.990 51 40 53
-0.8728 161.5574 -39.6725 -0.231 -0.074 0.970 90 100 69
8.1813 166.1972 -41.5214 -0.468 -0.556 0.687 80 96 57
-182.8880 282.5982 -39.7008 0.542 -0.433 0.720 11 16 10
-164.0101 244.1318 -35.2727 -0.923 -0.365 0.122 44 41 36
-149.8106 218.0506 -32.4347 -0.619 -0.516 0.591 64 42 47
-149.4792 220.6165 -32.9169 -0.641 -0.488 0.593 70 49 54
-148.8807 220.2785 -32.9288 -0.620 -0.503 0.601 72 51 56
-148.0806 219.1597 -32.8295 -0.619 -0.502 0.604 72 51 56
-108.8398 164.5473 -28.0034 0.258 -0.965 0.056 50 38 40
-108.6278 169.6793 -28.9149 -0.342 -0.778 -0.527 52 37 40
-105.0961 197.6284 -34.1578 0.486 -0.832 -0.268 45 41 40
-104.0455 202.9757 -35.2049 0.315 -0.919 0.236 48 39 44
-103.3634 207.3200 -36.0355 0.247 -0.958 0.146 47 38 41
-103.4765 215.6725 -37.4651 0.460 -0.872 -0.169 40 31 34
-100.2837 200.3468 -35.1925 -0.427 -0.904 0.021 53 44 49
-98.2235 183.6109 -32.5434 -0.748 -0.662 0.054 57 48 51
-97.7185 183.0432 -32.5046 -0.748 -0.662 0.054 57 48 53
-96.2571 182.1080 -32.5146 -0.028 -0.961 0.274 69 58 62
-90.9364 195.4457 -35.4436 -0.081 -0.832 0.549 65 68 59
-88.0466 208.5242 -38.0422 -0.610 -0.775 -0.167 51 54 43
-86.9599 207.3467 -37.9664 -0.394 -0.915 -0.089 61 65 51
-86.4147 205.6292 -37.7337 -0.147 -0.881 0.450 62 64 53
-70.1405 177.2118 -34.7358 -0.759 -0.622 0.195 67 52 56
-68.8019 175.8759 -34.6622 -0.751 -0.654 0.096 62 47 51
-62.6434 188.1646 -37.5083 -0.583 -0.423 0.694 53 46 48
-50.5633 255.7733 -50.6062 -0.932 -0.295 -0.209 45 49 49
-56.8878 174.1050 -35.7554 0.223 -0.933 -0.282 56 70 45
-53.1072 179.3682 -37.1086 0.388 -0.848 0.361 42 55 29
-51.5171 179.8122 -37.3720 0.405 -0.860 0.310 42 55 29
-50.9725 180.0316 -37.4739 0.405 -0.860 0.310 38 52 27
-44.2345 177.9547 -37.9064 0.689 -0.541 0.482 53 63 51
-41.5071 183.5683 -39.1964 0.703 -0.489 0.516 58 69 57
-25.4681 185.5257 -41.4180 -0.328 -0.252 0.910 63 73 48
-13.1041 176.8035 -41.3633 0.634 -0.696 0.336 132 117 124
-10.8240 180.0671 -42.1948 0.647 -0.683 0.339 130 115 122
-3.5663 177.5244 -42.6078 0.117 -0.067 0.991 57 45 59
-3.1631 162.2395 -40.0147 -0.679 -0.125 0.723 112 108 105
13.0906 160.2854 -41.5859 0.549 -0.818 0.174 44 61 29
14.0313 157.2005 -41.1635 -0.519 -0.600 0.608 65 82 50
-183.0647 277.0608 -39.4090 0.543 -0.430 0.721 14 19 13
-183.0157 282.6498 -40.3940 0.554 -0.429 0.714 16 21 15
-161.8206 240.0774 -35.4349 0.433 -0.831 0.348 44 41 34
-149.1771 217.2468 -32.9261 -0.625 -0.520 0.583 70 45 51
-148.0723 218.8042 -33.3293 -0.620 -0.503 0.601 69 44 50
-147.1953 217.3697 -33.1814 -0.626 -0.508 0.592 69 44 50
-142.3272 202.1509 -31.0892 0.009 -0.951 0.309 67 44 50
-152.6680 247.4330 -37.8031 -0.593 -0.630 0.501 61 41 43
-122.3280 177.1523 -29.0680 0.449 -0.774 -0.446 47 31 34
-110.6773 168.5710 -28.9386 -0.654 -0.666 -0.360 40 29 33
-102.3415 206.7059 -36.6029 0.441 -0.866 0.235 42 33 38
-101.3375 199.9787 -35.5427 -0.696 -0.711 0.098 43 34 39
-100.3201 199.9227 -35.6529 -0.417 -0.909 -0.023 48 39 44
-98.8177 184.5938 -33.1445 -0.691 -0.720 -0.061 49 40 43
-97.2925 182.7825 -33.0070 -0.747 -0.663 0.053 55 46 49
-96.3088 181.9762 -32.9818 -0.028 -0.961 0.274 52 41 45
-95.8382 181.9479 -33.0323 -0.028 -0.961 0.274 40 31 34
-68.3208 209.1508 -41.0435 -0.703 -0.583 0.406 64 55 52
-60.8150 186.5501 -37.9691 0.575 -0.775 0.262 52 56 53
-54.3088 175.2099 -36.7496 -0.319 -0.947 -0.030 55 68 40
-50.7889 187.5788 -39.3317 0.265 -0.959 0.103 55 68 40
-43.2850 180.2644 -38.9352 0.684 -0.526 0.506 60 71 53
-37.0633 180.2013 -39.6579 0.355 -0.675 -0.646 79 86 72
-35.5792 184.1908 -40.5319 0.428 -0.721 -0.545 90 97 83
-33.7143 178.9427 -39.8324 -0.217 -0.160 0.963 80 88 75
-22.0868 156.0933 -37.2005 -0.227 -0.971 -0.075 141 126 131
-2.5058 176.1606 -43.0256 -0.291 -0.070 0.954 51 38 48
-1.7661 155.3384 -39.4647 -0.659 -0.131 0.740 85 91 66
10.9125 159.1869 -41.6342 -0.171 -0.411 0.895 70 87 55
-175.6525 252.3026 -36.5746 -0.854 -0.491 -0.174 20 25 19
-162.2030 212.8241 -31.1540 0.345 -0.880 0.327 20 25 19
-161.4879 212.1021 -31.1104 0.334 -0.834 0.439 20 25 19
-150.0072 218.1546 -33.5455 -0.514 -0.536 0.669 66 41 47
-149.3540 217.5958 -33.5235 -0.507 -0.549 0.665 70 45 51
-155.1709 264.3760 -41.1453 -0.371 -0.686 0.626 55 35 37
-119.7527 179.5197 -30.2651 -0.969 -0.235 0.077 47 31 34
-108.7695 169.8715 -29.8518 -0.337 -0.806 -0.487 40 25 28
-109.2328 177.3475 -31.1251 0.496 -0.842 -0.214 39 24 27
-103.4056 199.7419 -35.7937 0.646 -0.574 0.503 59 50 55
-99.0657 187.4743 -34.1283 0.131 -0.976 0.173 46 37 40
-95.8739 181.5033 -33.4456 -0.189 -0.767 0.613 32 23 26
-85.9697 193.0100 -36.6629 -0.335 -0.850 0.406 61 65 51
-71.1143 178.4710 -35.8394 -0.769 -0.521 0.372 59 59 46
-70.2354 177.2533 -35.7271 -0.769 -0.521 0.372 59 58 46
-61.8558 182.3818 -37.6307 0.656 -0.678 0.331 55 60 51
-60.7730 187.3214 -38.6365 0.662 -0.680 0.314 50 56 46
-48.5969 171.4750 -37.2634 0.616 -0.557 0.558 68 81 57
-48.0253 171.8939 -37.4055 0.596 -0.549 0.587 68 81 57
-36.0433 173.9779 -39.1949 -0.245 -0.139 0.959 72 81 62
-34.2526 176.9860 -39.9414 -0.274 -0.207 0.939 71 80 61
-33.4515 178.0780 -40.2303 -0.145 -0.160 0.976 71 80 61
-32.5557 177.5157 -40.2365 -0.160 -0.161 0.974 70 79 60
-32.1283 177.1630 -40.2244 -0.160 -0.161 0.974 62 71 52
-23.5931 164.6869 -39.0189 0.789 -0.537 0.299 126 117 112
-22.5151 166.4222 -39.4548 0.791 -0.533 0.302 126 117 113
-21.4982 167.9462 -39.8460 0.788 -0.529 0.315 130 118 119
-20.6244 169.0211 -40.1405 0.539 -0.496 0.681 132 120 122
-8.0656 183.1677 -44.1411 0.316 -0.941 -0.117 137 122 129
-7.0485 182.8978 -44.2136 0.271 -0.958 -0.091 136 121 128
-9.0113 174.9253 -42.5648 0.434 -0.898 0.071 138 123 130
-2.6703 173.2284 -43.0144 -0.233 -0.049 0.971 55 42 54
11.4031 158.1725 -42.0064 -0.171 -0.411 0.895 73 90 58
12.8130 159.8212 -42.4663 0.552 -0.816 0.168 67 84 52
-149.5997 218.2017 -34.1610 -0.088 -0.673 0.734 65 42 48
-120.5110 175.9642 -30.0134 0.197 -0.980 -0.001 55 39 42
-107.1323 173.9718 -31.2459 0.753 -0.632 0.182 44 32 34
-106.0898 195.5505 -35.2564 -0.205 -0.977 0.059 37 37 35
-101.5229 193.9287 -35.5075 -0.673 -0.378 0.635 61 52 57
-99.1451 187.7534 -34.6781 0.137 -0.976 0.168 43 34 37
-98.6730 187.8849 -34.7579 0.148 -0.976 0.160 43 34 37
-95.9151 181.1690 -33.8763 -0.189 -0.767 0.613 35 26 29
-95.4957 182.1531 -34.1035 -0.028 -0.768 0.640 33 27 29
-92.7992 185.9310 -35.1046 0.212 -0.885 0.415 48 43 47
-70.7658 177.2769 -36.1666 -0.807 -0.502 0.311 65 73 50
-70.3322 176.6213 -36.1001 -0.807 -0.502 0.311 65 73 50
-69.9032 175.9417 -36.0287 -0.774 -0.558 0.299 66 73 51
-69.4321 175.8204 -36.0629 0.544 -0.698 0.465 67 74 52
-51.7441 176.2391 -38.2422 -0.057 -0.975 0.216 58 72 47
-37.2163 171.4515 -39.1078 -0.341 -0.933 -0.115 83 92 63
-24.9082 162.2861 -38.9209 0.669 -0.528 0.523 113 104 99
-21.2846 167.1544 -40.2288 0.540 -0.494 0.681 145 133 135
-18.0793 170.4993 -41.2125 -0.623 -0.178 0.762 149 134 139
-5.0791 160.3658 -40.9336 -0.600 -0.157 0.784 39 35 34
10.3833 157.2635 -42.2139 -0.141 -0.422 0.895 74 91 59
11.0460 157.5317 -42.3410 -0.140 -0.426 0.894 72 89 57
-189.0498 260.9929 -37.8208 0.246 -0.807 0.537 19 19 19
-178.7251 234.1709 -34.1571 -0.546 -0.447 0.708 19 19 19
-185.0129 254.5255 -37.1222 -0.340 -0.539 0.771 19 19 19
-192.7655 291.9966 -43.0373 0.606 -0.793 0.062 23 28 22
-180.3383 262.3912 -39.1166 -0.614 -0.761 -0.209 24 29 23
-183.6074 289.4315 -43.6629 0.614 -0.491 0.618 39 44 37
-154.0480 277.2434 -44.9684 0.401 -0.767 -0.501 62 45 51
-120.5106 175.5987 -30.4170 0.189 -0.982 0.008 60 44 47
-109.9187 185.9198 -33.5665 -0.578 -0.815 -0.032 51 36 39
-107.6934 191.4627 -34.8442 0.836 -0.515 0.189 49 48 46
-104.8049 191.5255 -35.2007 -0.626 -0.719 -0.303 47 46 44
-103.8173 191.3058 -35.2786 -0.633 -0.717 -0.292 67 61 63
-102.6486 201.3118 -37.2450 0.653 -0.569 0.499 82 73 78
-101.1757 195.0577 -36.2791 -0.740 -0.451 0.499 68 59 64
-98.6459 186.4961 -35.0182 0.101 -0.979 0.178 43 34 37
-97.3626 180.9531 -34.1595 0.008 -0.684 0.729 42 33 36
-95.9602 180.9142 -34.3199 0.007 -0.682 0.731 40 31 34
-95.5366 181.7973 -34.5317 -0.028 -0.768 0.640 37 31 33
-95.0619 181.7001 -34.5706 -0.029 -0.764 0.645 33 29 30
-94.1095 181.4337 -34.6358 -0.131 -0.755 0.643 44 39 43
-93.6343 181.3206 -34.6719 -0.131 -0.755 0.643 47 45 46
-93.1728 181.5613 -34.7710 -0.142 -0.733 0.665 49 47 50
-92.8782 186.4977 -35.7074 0.153 -0.911 0.382 50 45 49
-91.4079 185.8723 -35.7688 0.293 -0.895 0.337 54 55 49
-68.4596 176.5044 -36.7996 0.532 -0.678 0.507 62 77 47
-62.8094 179.2104 -37.9685 0.701 -0.594 0.394 66 75 50
-29.1036 163.1351 -39.0596 -0.422 -0.046 0.905 64 68 51
-28.2294 164.3859 -39.3924 -0.330 -0.385 0.862 63 67 50
-27.9772 163.5968 -39.2784 -0.345 -0.361 0.866 63 67 50
-27.8616 160.8144 -38.7842 -0.286 -0.128 0.950 68 63 53
-26.1499 160.0695 -38.8527 0.677 -0.523 0.518 108 99 94
-24.4209 162.3538 -39.4763 0.669 -0.528 0.523 115 106 101
-23.6430 163.2056 -39.7247 0.763 -0.600 0.240 119 109 106
-21.4115 166.8647 -40.6593 0.539 -0.490 0.685 134 122 124
-19.8486 166.9695 -40.8651 -0.647 -0.166 0.745 143 128 133
-18.3707 168.2705 -41.2791 -0.624 -0.174 0.762 145 130 135
-17.4669 165.0704 -40.8028 -0.771 -0.220 0.597 142 127 134
-3.7003 152.3880 -40.1318 -0.645 -0.088 0.759 104 105 102
-3.5755 151.6040 -40.0035 -0.644 -0.090 0.760 92 95 88
-2.7344 150.2775 -39.8618 -0.733 -0.146 0.664 79 94 52
-2.0449 150.6939 -40.0202 -0.778 -0.221 0.589 79 94 53
-186.2156 247.0503 -36.2263 0.163 -0.976 -0.145 17 17 17
-180.2351 232.4292 -34.2383 0.174 -0.977 0.125 17 17 17
-123.8143 176.7667 -30.7066 0.488 -0.872 -0.047 48 36 40
-123.3173 176.4255 -30.7031 0.508 -0.861 -0.003 52 37 40
-122.5497 176.9397 -30.8903 0.474 -0.814 -0.335 53 37 40
-120.2872 171.5978 -30.1733 -0.152 -0.985 0.084 57 41 44
-104.8758 191.6017 -35.7232 -0.519 -0.816 -0.256 41 40 38
-104.3752 191.4194 -35.7495 -0.501 -0.833 -0.236 53 49 50
-103.9801 192.4524 -35.9880 0.272 -0.844 0.462 67 61 63
-103.6033 193.7628 -36.2757 0.665 -0.612 0.428 69 60 65
-102.9955 198.4531 -37.2164 0.677 -0.564 0.473 70 61 66
-102.6053 199.9010 -37.5311 0.652 -0.575 0.493 88 79 84
-95.9956 180.4749 -34.7295 0.007 -0.682 0.731 47 38 41
-93.6686 180.7451 -35.0587 -0.136 -0.737 0.662 52 50 51
-93.2010 180.7967 -35.1243 -0.146 -0.740 0.657 55 53 54
-92.7358 180.9305 -35.2049 -0.162 -0.717 0.678 57 52 56
-91.7624 179.9434 -35.1390 -0.120 -0.729 0.674 57 54 54
-68.8723 135.7568 -29.7087 0.150 -0.964 0.222 56 78 41
-42.2465 163.0624 -37.9548 0.021 -0.777 0.629 68 78 39
-28.5034 158.8629 -38.8262 -0.625 -0.065 0.778 64 58 49
-25.7370 159.9288 -39.3553 0.432 -0.864 0.258 110 101 96
-19.3487 168.4980 -41.7071 0.349 -0.935 0.064 138 123 128
-18.5857 169.2113 -41.9306 0.323 -0.946 0.011 139 124 129
-15.8805 170.9767 -42.5817 -0.882 -0.167 0.441 142 127 134
-17.1797 163.1564 -40.9789 -0.710 -0.149 0.688 141 126 133
-2.3636 150.0670 -40.3341 -0.758 -0.235 0.609 85 100 59
-1.5676 149.6909 -40.3600 -0.757 -0.149 0.636 78 93 51
28.0299 151.0073 -44.1538 -0.931 -0.274 0.241 84 100 64
-183.4075 232.4749 -34.4448 0.408 -0.860 0.306 21 21 21
-181.6067 230.4169 -34.2758 0.342 -0.934 0.102 22 22 22
-185.1703 241.1678 -35.8623 0.112 -0.976 -0.185 22 22 22
-184.8033 244.4338 -36.5189 0.294 -0.942 0.164 23 23 23
-177.6474 240.8922 -36.7168 0.407 -0.742 0.532 33 33 33
-179.1824 246.8309 -37.6453 0.557 -0.777 0.293 34 34 33
-160.5281 218.7381 -34.6251 0.076 -0.876 0.477 39 44 37
-164.3719 318.1238 -52.7962 0.467 -0.884 -0.033 52 33 37
-124.1249 175.8111 -30.9614 -0.490 -0.525 0.696 49 37 41
-115.2861 166.4502 -30.2710 -0.842 -0.492 -0.221 41 30 34
-107.4235 174.9688 -32.8152 0.757 -0.601 0.256 59 48 49
-104.9568 191.7867 -36.2656 -0.287 -0.928 0.239 35 34 32
-104.5176 192.3002 -36.4148 0.115 -0.865 0.488 41 37 38
-104.0759 192.8181 -36.5651 0.353 -0.790 0.501 50 45 47
-103.5020 197.7140 -37.5521 0.682 -0.493 0.541 53 43 49
-103.0563 198.3972 -37.7339 0.678 -0.555 0.482 52 44 49
-102.6449 199.5663 -38.0027 0.623 -0.472 0.624 52 45 49
-99.0516 183.5762 -35.4375 -0.328 -0.573 0.751 43 35 36
-98.6119 184.0690 -35.5828 -0.305 -0.610 0.731 42 35 34
-92.8000 181.1167 -35.7293 -0.169 -0.752 0.637 61 58 59
-92.2918 180.0428 -35.5892 -0.204 -0.904 0.377 61 58 59
-22.7136 164.6674 -41.0873 0.767 -0.614 0.187 93 83 83
-21.2705 167.4549 -41.7837 0.273 -0.929 -0.250 100 88 90
-20.3643 168.6189 -42.1111 0.431 -0.617 -0.659 113 100 104
-19.3235 170.1553 -42.5246 0.462 -0.642 -0.612 128 114 119
-18.1906 171.9331 -42.9943 0.458 -0.652 -0.605 132 119 123
-21.4446 155.5578 -39.5321 0.034 -0.739 0.673 142 127 134
-7.6675 162.8307 -42.5552 -0.301 -0.070 0.951 91 77 91
-4.9869 165.4923 -43.3772 0.148 -0.056 0.987 69 62 63
-3.3046 143.2479 -39.4091 -0.631 -0.096 0.770 78 91 54
0.3256 148.6077 -40.8513 -0.705 -0.104 0.701 72 90 52
28.2953 151.4208 -44.7478 -0.878 -0.345 0.333 76 92 56
-184.5315 240.6059 -36.4324 0.094 -0.975 -0.200 27 28 27
-184.6854 243.8459 -37.0292 0.311 -0.938 0.154 28 29 28
-183.8993 243.1670 -36.9953 0.168 -0.824 0.541 28 29 28
-167.6800 228.1908 -36.1123 -0.369 -0.484 0.794 33 38 32
-124.0549 175.1183 -31.3075 -0.506 -0.504 0.700 45 35 39
-123.5743 177.0839 -31.7390 -0.635 -0.770 0.063 51 40 42
-104.9719 191.2515 -36.6804 0.058 -0.876 0.479 40 38 39
-104.1134 192.5111 -37.0235 0.353 -0.790 0.501 45 42 45
-103.7305 193.7461 -37.3044 0.652 -0.608 0.453 47 41 48
-103.5516 197.5237 -38.0437 0.678 -0.555 0.482 46 41 47
-101.6250 191.9142 -37.2111 -0.683 -0.599 0.417 38 32 39
-101.1321 191.8574 -37.2599 -0.446 -0.889 0.102 44 41 45
-100.4910 189.7213 -36.9317 -0.398 -0.897 -0.195 49 46 48
-98.6414 183.5939 -35.9915 -0.305 -0.610 0.731 40 43 32
-97.1861 175.0472 -34.5440 -0.139 -0.944 0.300 50 52 45
-96.4881 178.8301 -35.3470 0.302 -0.506 0.808 55 57 50
-66.4488 155.6171 -34.5710 0.559 -0.399 0.727 46 66 32
-29.2360 156.7124 -39.2802 -0.592 -0.076 0.803 61 69 48
-19.3917 170.0415 -43.0029 0.456 -0.642 -0.616 102 90 97
-21.5455 156.7007 -40.2082 -0.012 -0.777 0.629 124 111 118
-17.7535 161.7373 -41.6236 -0.705 -0.213 0.677 131 113 125
-17.4829 161.1147 -41.5381 -0.705 -0.213 0.677 130 112 124
-6.5057 153.9316 -41.5014 -0.277 -0.096 0.956 50 38 42
-3.6220 146.5234 -40.4429 -0.268 -0.134 0.954 111 113 95
-3.7272 145.3202 -40.2016 -0.699 -0.024 0.715 89 91 73
-3.5872 144.6311 -40.0877 -0.699 -0.024 0.715 86 90 70
-3.4139 144.0167 -39.9919 -0.705 -0.023 0.709 89 92 73
-3.5896 142.7035 -39.7212 -0.628 -0.097 0.772 90 93 73
-3.1701 142.5996 -39.7522 -0.803 -0.101 0.587 86 94 67
-2.9899 142.0180 -39.6635 -0.799 -0.102 0.593 82 94 57
-205.6101 270.0206 -40.1313 -0.456 -0.432 0.778 12 15 12
-193.0029 249.8394 -37.7792 -0.265 -0.876 0.402 22 25 20
-192.3973 249.6755 -37.8212 -0.237 -0.873 0.427 28 32 26
-191.8129 249.5654 -37.8710 -0.261 -0.905 0.335 27 32 26
-184.6733 240.7161 -37.0354 0.094 -0.975 -0.200 29 34 28
-184.5001 243.0785 -37.5110 0.158 -0.824 0.544 30 34 28
-183.8703 242.8174 -37.5373 0.168 -0.824 0.541 30 35 29
-182.8110 241.3917 -37.3916 0.308 -0.751 0.585 35 40 33
-182.5901 242.2346 -37.5806 0.338 -0.750 0.568 36 41 33
-124.4660 174.7037 -31.6458 -0.569 -0.332 0.752 35 26 29
-123.3379 175.5078 -31.9376 -0.645 -0.324 0.693 50 40 41
-106.9063 190.6428 -36.8458 0.781 -0.561 0.273 56 56 56
-104.8458 194.5275 -37.8435 -0.204 -0.978 0.050 46 44 47
-103.7006 192.6399 -37.6194 0.326 -0.726 0.605 49 44 50
-103.2442 193.0282 -37.7496 0.332 -0.731 0.596 49 44 50
-101.6844 191.8642 -37.7151 -0.461 -0.865 0.199 37 35 40
-101.1719 191.5426 -37.7154 -0.439 -0.894 0.090 37 35 39
-100.5639 189.8704 -37.4675 -0.398 -0.897 -0.195 37 35 36
-99.1586 183.3765 -36.3886 -0.305 -0.610 0.731 36 41 30
-98.6709 183.1205 -36.3986 -0.305 -0.610 0.731 41 47 33
-97.2352 174.9113 -34.9933 -0.139 -0.944 0.300 51 57 45
-96.4869 177.7632 -35.6330 0.220 -0.438 0.872 55 61 50
-95.6680 179.7766 -36.1199 0.342 -0.515 0.786 55 62 46
-20.7883 157.5320 -40.9345 -0.802 -0.223 0.554 124 108 119
-20.4183 157.2056 -40.9166 -0.797 -0.209 0.567 128 107 122
-17.8944 160.0717 -41.7747 -0.686 -0.353 0.636 128 110 122
-20.0256 150.4799 -39.6701 -0.565 -0.290 0.772 127 109 121
-18.3073 152.4972 -40.2670 0.242 -0.094 0.966 120 104 114
-14.3362 157.7043 -41.7513 0.178 -0.064 0.982 124 109 116
-4.9539 150.9057 -41.5827 -0.740 -0.132 0.659 44 33 37
-3.9707 145.8363 -40.7266 -0.204 -0.149 0.968 124 124 112
-3.5887 145.6384 -40.7349 -0.185 -0.139 0.973 107 107 95
-3.7684 144.2935 -40.4543 -0.745 -0.028 0.667 98 98 85
-3.6364 143.5965 -40.3362 -0.745 -0.028 0.667 91 92 79
-3.7393 142.4321 -40.0997 -0.762 -0.105 0.639 85 86 72
-3.3772 142.2141 -40.1017 -0.803 -0.101 0.587 84 89 66
-3.0667 140.9607 -39.8983 -0.817 -0.097 0.568 84 98 60
7.4759 150.0565 -42.9290 0.537 -0.727 0.427 66 81 50
8.9612 150.9466 -43.2807 0.537 -0.727 0.427 66 81 50
-196.3819 233.8566 -34.8702 0.322 -0.390 0.863 14 19 14
-194.7757 232.4500 -34.7919 0.340 -0.394 0.854 14 20 14
-193.5723 249.6468 -38.2903 -0.633 -0.774 0.017 18 26 16
-193.0053 249.5799 -38.3464 -0.265 -0.876 0.402 25 34 23
-192.5728 249.8550 -38.4527 -0.229 -0.873 0.430 31 41 29
-184.8154 240.8265 -37.6393 0.094 -0.975 -0.200 33 43 31
-184.4697 242.7269 -38.0518 0.158 -0.824 0.544 33 43 30
-182.8391 241.1971 -37.9526 0.189 -0.812 0.552 39 49 35
-165.4985 221.0000 -36.1313 -0.692 -0.704 -0.163 47 55 41
-134.6889 171.5115 -30.2440 0.551 -0.625 0.553 44 34 35
-133.7092 177.6734 -31.5644 0.461 -0.560 0.688 49 43 45
-125.8555 174.9234 -31.9864 -0.487 -0.457 0.744 42 36 36
-123.9519 173.9277 -32.0245 -0.439 -0.554 0.707 38 32 32
-123.0769 173.8086 -32.1080 -0.681 -0.338 0.650 50 40 39
-115.0935 194.1972 -37.0553 0.153 -0.453 0.878 53 44 47
-103.1593 191.2383 -37.9342 0.025 -0.724 0.689 49 44 50
-101.6873 191.0750 -38.0819 -0.458 -0.864 0.208 43 41 46
-101.2237 191.3911 -38.2001 -0.393 -0.904 0.165 44 42 46
-100.6853 190.6925 -38.1296 -0.400 -0.894 -0.201 42 42 42
-100.0613 188.7231 -37.8219 -0.319 -0.942 -0.101 37 39 34
-98.7114 182.8225 -36.8365 -0.311 -0.604 0.734 40 48 33
-96.9493 176.8054 -35.8788 0.193 -0.426 0.884 54 62 47
-28.7734 156.8500 -40.3048 -0.629 -0.056 0.775 60 69 50
-5.6493 149.4455 -41.6821 -0.299 -0.091 0.950 45 33 37
-4.5745 147.6159 -41.4566 -0.632 -0.070 0.772 64 60 55
-4.4824 144.8120 -40.9214 -0.183 -0.142 0.973 117 117 108
-4.1527 144.5121 -40.9032 -0.183 -0.142 0.973 143 140 133
-4.0858 143.6773 -40.7486 -0.727 -0.094 0.680 135 135 126
-3.9034 143.0858 -40.6556 -0.745 -0.028 0.667 120 117 109
-3.3358 139.5337 -40.0325 -0.720 -0.049 0.692 85 96 64
9.8840 140.3912 -41.8121 -0.504 -0.721 0.475 67 82 49
10.5193 140.6542 -41.9408 -0.504 -0.719 0.479 66 81 48
10.5395 139.8724 -41.7909 -0.551 -0.657 0.514 66 81 48
11.2049 140.1844 -41.9329 -0.911 -0.345 0.227 66 81 48
-205.9716 262.1812 -39.8634 -0.051 -0.583 0.811 16 25 15
-192.5444 246.7995 -38.4720 -0.288 -0.933 -0.214 20 31 16
-192.0988 247.0251 -38.5711 -0.298 -0.930 -0.216 26 38 22
-180.2669 231.2197 -36.9008 0.055 -0.980 -0.189 31 44 27
-182.9620 239.8340 -38.2709 0.346 -0.862 -0.371 32 45 27
-182.7590 264.2377 -43.1122 0.701 -0.513 0.495 39 47 32
-165.6378 225.7845 -37.6197 0.042 -0.922 0.385 50 53 42
-134.5102 170.5443 -30.5295 0.546 -0.608 0.577 40 33 36
-124.4776 174.1041 -32.4608 -0.490 -0.586 0.646 33 27 27
-123.9050 173.3588 -32.3839 -0.598 -0.581 0.552 38 32 32
-122.8593 172.3408 -32.3110 -0.659 -0.458 0.596 50 40 39
-122.3849 172.0721 -32.3161 -0.682 -0.360 0.637 54 42 42
-103.7039 191.1831 -38.3759 -0.034 -0.729 0.684 47 45 50
-103.1926 190.8758 -38.3778 -0.001 -0.713 0.701 47 45 50
-102.7539 191.4498 -38.5449 -0.016 -0.717 0.696 48 46 51
-101.2439 190.8150 -38.6045 -0.351 -0.905 0.239 48 46 50
-98.4594 178.0410 -36.4244 -0.574 -0.818 -0.035 40 48 33
-24.6230 148.2720 -39.5920 0.033 -0.134 0.990 107 94 101
-23.6946 148.2783 -39.7070 -0.154 -0.097 0.983 116 95 110
-21.9990 146.6023 -39.5839 -0.598 -0.308 0.740 130 109 124
-14.1643 146.4159 -40.5066 -0.309 -0.055 0.949 136 119 129
-11.6360 151.2678 -41.7739 -0.203 -0.048 0.978 130 113 123
-7.3846 154.3142 -42.8958 -0.296 -0.095 0.950 126 109 117
-6.9407 153.0907 -42.7087 -0.281 -0.099 0.955 90 73 79
-6.3897 148.9304 -41.9551 -0.281 -0.080 0.956 50 38 40
-5.9503 148.8353 -41.9901 -0.281 -0.081 0.956 47 32 35
-5.9147 146.8486 -41.6024 -0.354 -0.051 0.934 55 45 47
-5.3366 144.0577 -41.1223 -0.171 -0.153 0.973 79 76 71
-4.1772 142.5610 -40.9689 -0.748 -0.028 0.663 130 127 121
4.0864 144.7054 -42.4042 -0.208 -0.424 0.881 77 92 61
4.7649 145.0656 -42.5584 -0.214 -0.427 0.878 78 93 62
5.3311 145.2134 -42.6569 -0.152 -0.522 0.839 78 93 62
6.8905 138.5309 -41.5290 -0.497 -0.729 0.471 67 82 49
10.0233 139.8258 -42.1683 -0.556 -0.661 0.504 61 76 43
10.3474 139.5623 -42.1560 -0.556 -0.661 0.504 65 80 47
10.8338 139.5739 -42.2178 -0.807 -0.425 0.410 66 81 48
25.5063 130.0119 -42.1276 -0.625 -0.753 0.205 75 87 59
-208.3282 258.3980 -39.4606 0.265 -0.583 0.768 15 25 16
-181.5011 253.6162 -41.8042 0.520 -0.539 0.663 38 50 30
-183.1333 263.3130 -43.5413 0.701 -0.513 0.495 45 51 37
-182.6347 265.2847 -43.9966 0.681 -0.520 0.515 44 52 37
-131.3483 172.4992 -31.7616 0.565 -0.588 0.579 38 29 32
-124.5426 174.1026 -32.9190 -0.393 -0.883 0.258 33 27 27
-122.3121 171.3539 -32.6440 -0.682 -0.360 0.637 54 42 42
-99.8163 176.9581 -36.5305 -0.499 -0.696 -0.516 54 55 55
-99.3504 176.8170 -36.5596 -0.496 -0.697 -0.518 46 49 44
-98.8898 176.7505 -36.6030 -0.636 -0.709 -0.303 43 51 39
-98.4040 176.3019 -36.5731 -0.636 -0.709 -0.303 46 54 38
-25.1047 145.7058 -39.4731 -0.643 -0.039 0.765 113 97 108
-23.7741 148.1269 -40.1206 -0.116 -0.122 0.986 115 97 111
-22.1890 146.1583 -39.9221 -0.598 -0.308 0.740 116 98 112
-9.2188 154.6896 -43.2221 -0.239 -0.066 0.969 134 117 125
-6.5823 147.5108 -42.1117 -0.286 -0.080 0.955 52 40 42
-6.9360 145.7226 -41.7109 -0.355 -0.008 0.935 52 38 41
-4.4331 142.0724 -41.2892 -0.745 -0.028 0.667 106 103 96
-5.2100 135.8875 -39.9577 -0.621 -0.088 0.779 88 95 75
-2.5775 137.4558 -40.5948 -0.727 -0.073 0.683 87 91 75
10.5092 139.0415 -42.5211 -0.815 -0.432 0.387 69 84 51
25.8415 128.5324 -42.3066 -0.084 -0.900 0.427 74 87 59
-180.3160 192.2919 -30.1786 0.351 -0.819 -0.454 21 31 20
-179.8713 245.5217 -41.0026 0.517 -0.531 0.671 36 49 29
-181.6112 252.0363 -42.1058 0.598 -0.615 0.514 37 49 29
-126.6278 179.8345 -34.2880 -0.293 -0.947 -0.133 48 42 42
-104.1093 183.5651 -37.8236 -0.492 -0.200 0.847 52 52 54
-102.4882 180.9885 -37.5024 0.724 -0.603 0.335 47 45 50
-98.4998 176.8759 -37.1629 -0.532 -0.766 -0.361 47 58 42
-28.7151 143.2034 -38.9680 -0.546 -0.153 0.824 120 109 115
-9.4345 151.9700 -43.1225 -0.166 -0.077 0.983 135 118 126
-8.0664 153.9797 -43.6980 -0.228 -0.096 0.969 136 119 127
-7.4830 144.5871 -41.8698 -0.351 -0.008 0.936 60 46 46
-6.9417 142.7377 -41.5625 -0.245 -0.235 0.941 49 44 39
-6.6081 142.4546 -41.5464 -0.245 -0.235 0.941 48 45 38
-5.7390 142.3132 -41.6251 -0.114 -0.263 0.958 48 45 38
-4.5519 138.1260 -40.9246 -0.743 -0.087 0.664 112 119 105
-5.4964 135.3495 -40.2462 -0.621 -0.088 0.779 96 102 88
-5.3933 134.6618 -40.1198 -0.628 -0.090 0.773 80 83 70
-5.1332 134.2876 -40.0762 -0.621 -0.088 0.779 86 92 79
-3.5267 134.7719 -40.3726 -0.706 -0.090 0.702 78 86 70
-2.9333 135.0385 -40.4998 -0.675 -0.091 0.732 81 92 69
8.9100 136.3616 -42.2300 -0.700 -0.713 -0.036 82 97 64
15.7697 129.4730 -41.6834 0.395 -0.599 0.697 67 88 49
16.5610 129.9650 -41.8807 0.167 -0.673 0.720 67 88 49
