ply
format ascii 1.0
element vertex 846
property float x
property float y
property float z
property float nx
property float ny
property float nz
property uchar diffuse_red
property uchar diffuse_green
property uchar diffuse_blue
end_header
306.5281 353.5616 -40.5623 -0.685 -0.276 -0.674 36 40 23
325.6190 332.6487 -41.9332 0.233 -0.722 0.652 48 49 41
391.5024 320.9400 -49.2184 -0.651 -0.250 0.716 50 39 37
386.5311 289.4253 -47.3001 -0.589 -0.723 -0.360 70 62 59
388.9463 290.6008 -47.6350 -0.708 -0.629 -0.320 52 44 41
392.5692 290.4753 -48.0575 -0.911 -0.347 -0.225 66 56 55
391.8075 282.4572 -47.6288 -0.773 -0.562 -0.295 146 135 139
392.2395 281.6781 -47.6469 -0.961 0.154 0.230 144 134 135
381.9575 258.6079 -45.4583 -0.723 -0.596 0.349 94 85 81
387.2680 260.1143 -46.1490 -0.277 -0.422 0.863 73 64 60
386.4690 258.3317 -45.9793 -0.291 -0.416 0.861 78 67 63
385.7226 256.6071 -45.8183 -0.475 -0.537 0.697 81 71 69
387.0996 256.7498 -45.9870 -0.556 -0.733 0.391 91 83 80
388.7170 256.0334 -46.1477 -0.525 -0.825 0.210 105 100 96
387.7930 253.1315 -45.9160 -0.859 -0.411 0.305 84 79 75
389.5132 245.3399 -45.7900 0.108 -0.902 -0.417 90 80 74
385.6620 241.1796 -45.1595 0.281 -0.875 0.393 91 81 74
386.9114 236.3312 -45.1022 -0.581 -0.696 -0.422 97 83 80
386.2286 233.8716 -44.9177 -0.756 -0.358 -0.548 100 89 85
378.4734 214.3455 -43.1771 -0.421 -0.669 0.612 103 89 88
366.8534 203.3277 -41.3396 0.144 -0.749 0.646 116 102 99
377.7506 209.5586 -42.8896 0.344 -0.554 0.758 119 106 105
376.5983 193.4693 -42.0738 -0.547 -0.268 -0.793 113 104 105
352.4953 165.4941 -38.0459 -0.843 -0.016 0.538 99 79 68
357.5494 167.9032 -38.7445 -0.842 -0.011 0.540 100 80 69
366.3729 171.8755 -39.9542 -0.245 -0.926 0.288 92 72 61
374.3997 173.2216 -40.9589 -0.538 -0.824 -0.179 97 78 64
368.2582 137.1531 -38.7101 -0.948 0.047 -0.315 60 55 52
368.1471 131.2652 -38.4483 -0.629 -0.479 -0.612 73 68 72
370.4264 125.0708 -38.4558 -0.242 -0.964 -0.108 94 82 82
377.5658 116.5556 -38.9391 0.262 -0.748 0.610 98 88 87
318.3084 94.1398 -30.9949 0.282 -0.794 0.539 102 92 91
239.0612 418.9330 -36.2742 -0.723 -0.684 -0.093 24 27 20
240.6566 403.6947 -35.7920 -0.422 -0.803 -0.421 37 43 33
260.4096 390.8423 -37.5855 -0.209 -0.648 -0.733 48 50 49
261.0249 390.0471 -37.6239 -0.228 -0.648 -0.727 48 48 48
262.1931 390.7116 -37.7929 -0.226 -0.648 -0.728 35 35 35
263.0404 390.5202 -37.8857 -0.226 -0.648 -0.728 22 22 22
285.5914 374.6240 -39.8793 -0.751 -0.522 0.404 21 22 16
286.1646 373.7761 -39.9104 -0.751 -0.522 0.404 29 30 24
309.4900 360.8875 -42.1293 -0.573 -0.611 -0.546 45 49 31
389.1478 290.8438 -48.5577 -0.708 -0.629 -0.320 64 56 53
391.9973 282.6732 -48.5375 -0.773 -0.562 -0.295 146 136 137
381.5584 258.2729 -46.2123 -0.471 -0.581 0.664 69 61 58
382.1546 257.7352 -46.2598 -0.471 -0.581 0.664 61 53 51
384.7977 256.8784 -46.5379 -0.447 -0.480 0.755 71 61 59
385.1719 256.1440 -46.5502 -0.475 -0.537 0.697 73 63 61
388.2095 257.7398 -46.9837 -0.601 -0.624 0.500 86 78 75
389.3518 257.6674 -47.1171 -0.597 -0.618 0.511 90 85 81
385.0186 240.6633 -45.8483 0.281 -0.875 0.393 101 94 86
386.7977 241.1304 -46.0816 0.281 -0.875 0.393 89 81 74
386.6455 240.0210 -46.0144 0.087 -0.940 0.330 79 71 63
388.4539 240.5019 -46.2518 0.089 -0.945 0.315 75 66 59
386.1449 236.6925 -45.8076 -0.727 -0.633 -0.264 81 72 67
386.6485 236.1290 -45.8429 -0.727 -0.633 -0.264 86 75 71
386.3407 233.9663 -45.7106 -0.940 -0.162 -0.299 91 80 76
382.3332 229.8642 -45.0504 -0.967 -0.006 0.256 87 76 72
378.2775 214.1997 -43.8740 -0.416 -0.684 0.599 99 85 84
379.2170 202.3315 -43.4622 -0.846 -0.124 -0.519 141 134 137
379.6900 200.2391 -43.4263 -0.855 -0.114 -0.506 101 92 93
349.4796 164.2865 -38.2278 -0.870 -0.026 0.492 104 84 73
352.5251 165.4961 -38.6452 -0.840 -0.024 0.541 104 84 73
366.1777 171.7407 -40.5528 -0.245 -0.926 0.288 110 91 77
376.9830 174.0213 -41.9450 -0.076 -0.942 0.327 82 62 50
368.3975 161.2276 -40.3539 0.358 -0.623 0.695 99 81 77
374.6790 163.3863 -41.2000 0.315 -0.622 0.717 100 85 85
375.0987 145.3080 -40.4519 0.323 -0.939 0.120 102 93 88
364.7715 132.9002 -38.6696 -0.844 -0.326 -0.427 79 73 73
366.7444 113.5995 -38.0532 0.254 -0.768 0.589 94 82 82
354.2251 94.3956 -35.7088 -0.303 -0.667 -0.681 59 53 53
254.2640 386.7372 -37.5481 -0.446 -0.524 -0.726 16 16 18
281.1606 371.4930 -40.0996 -0.836 -0.248 0.489 22 23 18
281.1629 359.3159 -39.5388 -0.967 0.076 0.243 36 37 32
307.0070 364.0169 -42.8819 -0.650 -0.458 -0.606 37 39 29
320.3547 328.0328 -42.8386 0.252 -0.708 0.659 56 65 38
389.1988 311.6698 -50.4130 -0.999 0.033 0.043 77 61 58
392.0101 313.3257 -50.8294 -0.996 0.044 0.074 71 57 54
391.2933 295.5370 -49.9231 -0.848 -0.317 0.425 61 56 53
393.2956 296.2805 -50.1996 -0.846 -0.203 0.493 63 58 55
397.2054 296.3699 -50.6767 -0.825 -0.220 0.521 86 77 76
391.4762 287.0327 -49.5534 -0.873 0.022 0.488 87 75 75
391.6119 283.5369 -49.4087 -0.305 -0.629 0.715 113 101 101
391.4167 280.9642 -49.2666 -0.429 -0.438 0.790 150 140 139
382.4945 264.5992 -47.4332 -0.600 -0.799 -0.046 121 111 112
382.3000 260.0435 -47.1998 -0.801 -0.571 -0.180 111 101 100
385.3141 255.2288 -47.3426 -0.546 -0.572 0.612 62 54 51
386.2762 239.7309 -46.7449 0.087 -0.940 0.330 95 86 81
390.2644 239.9991 -47.2397 -0.183 -0.981 0.070 76 65 61
386.8089 235.3011 -46.6052 -0.965 -0.066 -0.253 75 64 60
386.4912 234.0914 -46.5110 -0.940 -0.160 -0.302 79 65 62
381.7869 227.5816 -45.6420 -0.569 -0.581 0.582 84 70 67
383.6729 226.2747 -45.8099 -0.569 -0.583 0.579 89 69 68
377.2567 213.4459 -44.4427 -0.961 0.028 -0.274 90 78 77
379.9608 205.2886 -44.3939 -0.862 0.004 -0.507 80 71 74
365.8964 171.5544 -41.1382 -0.257 -0.926 0.276 102 83 69
378.8558 171.6529 -42.7105 0.189 -0.407 0.894 100 85 80
375.3506 168.9909 -42.1638 0.162 -0.281 0.946 102 84 80
369.0737 160.9412 -41.0336 0.350 -0.623 0.699 98 81 77
371.6012 161.6855 -41.3736 0.344 -0.617 0.708 93 81 79
374.8243 162.7964 -41.8147 0.309 -0.626 0.717 88 77 75
362.3792 152.4228 -39.8312 -0.824 -0.564 0.045 71 60 58
376.6755 157.4431 -41.7920 0.388 -0.662 0.641 70 60 59
375.3121 145.3775 -41.0711 0.318 -0.943 0.103 95 85 83
377.3837 134.0697 -40.8007 -0.884 -0.440 -0.158 78 72 76
351.5397 122.6497 -37.1481 -0.883 -0.460 -0.095 73 68 72
289.1201 78.6425 -27.5693 0.279 -0.867 0.412 89 79 80
309.2200 83.6686 -30.2324 0.254 -0.885 0.390 77 71 71
346.1546 93.4862 -35.1529 0.017 -0.942 -0.336 82 76 76
281.1356 371.6848 -40.9948 -0.627 -0.589 0.511 20 21 16
283.9608 365.4684 -41.0423 -0.303 -0.907 -0.291 40 41 35
324.9429 332.0111 -44.4537 0.211 -0.757 0.618 54 63 36
395.6666 296.1546 -51.3909 -0.802 -0.226 0.553 51 46 43
392.3252 290.3561 -50.7035 -0.845 0.016 0.535 66 58 56
390.7906 285.1910 -50.2677 -0.869 0.018 0.495 63 53 52
390.8052 283.9987 -50.2123 -0.870 -0.018 0.494 68 58 57
391.3022 282.0793 -50.1810 -0.322 -0.589 0.741 136 126 125
390.6931 280.3104 -50.0216 -0.429 -0.438 0.790 132 122 121
382.5069 264.6381 -48.2672 -0.600 -0.799 -0.046 60 51 52
385.3322 258.4643 -48.3168 -0.802 -0.548 -0.239 58 50 48
385.7939 257.7997 -48.3414 -0.802 -0.548 -0.239 64 56 54
386.0920 256.9931 -48.3392 -0.798 -0.555 -0.233 69 61 59
390.1765 259.4996 -48.9595 -0.636 -0.683 -0.359 57 52 48
387.2488 255.8762 -48.4272 -0.880 -0.469 0.069 53 48 44
385.8320 252.5428 -48.0937 -0.754 -0.452 0.477 46 41 37
386.2380 251.8488 -48.1101 -0.754 -0.452 0.477 52 47 43
384.9416 240.6218 -47.4126 0.219 -0.928 0.301 41 34 26
385.6657 239.2450 -47.4352 -0.229 -0.936 0.267 65 56 51
388.1249 240.2544 -47.7847 0.124 -0.948 0.294 76 67 62
376.8651 223.7526 -45.6142 -0.556 -0.414 0.720 84 70 67
377.5880 223.4073 -45.6861 -0.597 -0.394 0.699 90 75 72
378.6818 213.6316 -45.3508 -0.963 0.036 -0.267 89 75 74
379.2569 173.2279 -43.4821 0.362 -0.539 0.761 106 88 78
370.8681 161.8996 -41.9114 0.241 -0.521 0.819 93 76 72
372.2753 162.0286 -42.0899 0.232 -0.508 0.829 86 74 72
377.4847 134.0768 -41.3860 -0.884 -0.440 -0.158 84 75 78
398.0167 132.1054 -43.8050 0.321 -0.766 0.557 91 82 83
134.7893 359.1452 -23.1312 0.290 -0.820 0.493 53 67 34
279.7805 371.0381 -41.6851 -0.700 -0.489 0.520 20 20 17
280.9052 371.4258 -41.8438 -0.693 -0.542 0.475 23 24 19
281.4969 370.6388 -41.8778 -0.693 -0.542 0.475 31 32 26
293.9960 364.4578 -43.1175 -0.474 -0.174 0.863 33 36 29
394.7373 323.3380 -53.5439 -0.931 -0.078 0.356 67 60 54
392.4456 299.3411 -52.0622 -0.759 -0.226 0.610 73 68 64
391.8047 289.8851 -51.5108 -0.845 0.016 0.535 33 25 23
390.5483 287.4254 -51.2324 -0.873 0.022 0.488 57 49 47
390.3822 282.4282 -50.9624 -0.308 -0.594 0.743 87 79 77
390.8689 281.7003 -50.9863 -0.316 -0.595 0.739 112 104 102
390.2321 279.9060 -50.8179 -0.426 -0.433 0.795 104 94 93
383.4414 265.5255 -49.2589 -0.666 -0.608 0.431 70 61 62
390.4717 261.9492 -49.9512 -0.722 -0.264 0.640 80 72 70
390.2934 260.7042 -49.8670 -0.728 -0.278 0.627 97 92 89
391.0446 260.2788 -49.9388 -0.733 -0.264 0.627 93 88 84
386.7543 254.4080 -49.1143 -0.681 -0.593 0.430 74 71 66
387.2657 253.7969 -49.1471 -0.681 -0.593 0.430 69 66 61
386.1107 251.7568 -48.9022 -0.679 -0.608 0.412 70 65 61
386.3193 250.8959 -48.8851 -0.754 -0.452 0.477 65 60 56
386.2984 249.8433 -48.8299 -0.841 -0.540 -0.045 54 51 46
382.4604 242.5507 -47.9905 -0.321 -0.800 0.507 54 47 39
382.5453 239.6500 -47.8562 0.222 -0.930 0.293 65 58 48
384.2252 239.0629 -48.0350 -0.640 -0.563 -0.523 74 67 59
385.9911 239.5188 -48.2765 -0.176 -0.982 0.064 89 82 76
384.1883 225.7570 -47.3662 -0.285 -0.727 0.625 103 88 85
390.0798 227.4669 -48.1814 -0.852 -0.421 0.310 105 87 85
382.9103 216.7315 -46.7574 -0.301 -0.366 0.881 100 86 86
369.2906 160.3792 -42.2574 0.210 -0.566 0.797 78 65 63
357.8107 148.2180 -40.2283 0.395 -0.737 0.548 97 87 85
370.5036 154.1990 -42.0991 0.334 -0.664 0.668 97 87 85
379.9753 146.3426 -42.8802 0.309 -0.908 0.284 88 78 74
383.5789 147.4347 -43.3811 0.299 -0.913 0.278 90 79 75
378.3187 134.3939 -42.0786 -0.890 -0.430 -0.149 88 78 79
381.6765 127.3266 -42.1417 0.251 -0.889 0.384 86 75 79
345.0658 93.0827 -35.8974 0.043 -0.943 -0.329 79 73 73
127.5906 337.1764 -21.7451 -0.166 -0.489 0.857 66 75 52
246.4206 406.7759 -40.2453 -0.181 -0.979 0.092 33 34 29
264.4816 398.0669 -42.0573 -0.307 -0.645 -0.700 17 17 17
278.3959 368.2244 -42.2539 -0.690 -0.486 0.537 25 24 21
280.2575 370.2493 -42.5922 -0.820 -0.252 0.514 37 36 32
280.4392 368.5724 -42.5281 -0.841 -0.251 0.480 37 38 31
289.4619 377.5984 -44.1267 -0.063 -0.998 0.013 26 27 21
306.2143 366.9282 -45.6730 -0.941 -0.316 -0.122 26 28 17
306.6080 365.7523 -45.6614 -0.941 -0.316 -0.122 36 37 29
332.1748 319.7846 -46.4825 -0.608 -0.756 -0.244 67 72 50
348.2854 310.9854 -48.0453 0.074 -0.997 -0.021 50 51 43
393.6359 322.1955 -54.3099 -0.974 -0.089 -0.208 53 52 45
393.0593 320.1597 -54.1321 -0.997 0.068 0.041 56 55 48
391.9265 298.8607 -52.8860 -0.759 -0.226 0.610 87 82 79
392.1474 297.8043 -52.8589 -0.995 0.100 0.006 79 74 71
392.1732 294.0285 -52.6664 -0.866 -0.315 0.389 52 47 44
392.3571 291.7094 -52.5692 -0.775 -0.013 0.632 102 94 92
391.8585 289.9782 -52.4170 -0.830 0.016 0.558 88 80 78
390.4922 281.3753 -51.7997 -0.830 -0.405 0.384 82 72 71
389.7440 279.4759 -51.6075 -0.434 -0.436 0.789 85 75 74
383.9994 262.7474 -50.0204 -0.613 -0.641 0.462 101 92 93
383.7263 261.4055 -49.9166 -0.848 -0.484 0.217 108 100 98
385.0628 261.5187 -50.0899 -0.610 -0.688 0.392 114 106 104
385.6364 260.9435 -50.1320 -0.830 -0.540 -0.138 114 106 104
388.0709 256.6303 -50.2135 -0.936 -0.280 0.214 74 69 65
385.8015 253.6011 -49.7720 -0.948 -0.316 0.043 62 57 53
385.2920 252.1129 -49.6311 -0.819 -0.560 -0.127 65 60 56
385.4561 251.2122 -49.6049 -0.824 -0.554 -0.116 84 79 75
385.7155 250.3966 -49.5951 -0.624 -0.630 -0.462 96 91 87
385.4450 249.1334 -49.4958 -0.601 -0.655 -0.457 87 82 78
383.8674 239.7632 -48.8123 -0.634 -0.572 -0.521 83 76 68
384.2737 239.1128 -48.8295 -0.140 -0.974 0.178 98 91 83
385.1333 238.8321 -48.9227 -0.158 -0.975 0.158 99 90 85
387.3104 239.6145 -49.2361 0.122 -0.956 0.267 92 83 78
380.2409 228.2419 -47.7605 -0.990 0.124 0.072 106 95 91
383.2029 216.9442 -47.5460 -0.960 0.111 -0.255 101 87 87
376.8394 196.6888 -45.6985 -0.888 0.047 -0.457 122 113 114
374.7302 189.8950 -45.0820 -0.932 0.031 -0.361 81 67 66
379.7948 185.6335 -45.4957 -0.854 -0.081 -0.513 104 84 74
377.9122 177.9791 -44.8630 -0.833 -0.127 -0.538 109 89 78
365.5490 158.3183 -42.2944 0.132 -0.558 0.819 74 62 58
362.8719 153.2082 -41.6940 -0.424 -0.633 -0.648 88 77 73
383.5498 147.9789 -44.0143 0.198 -0.953 -0.230 97 83 78
378.2192 138.6878 -42.8646 0.263 -0.891 -0.370 87 73 72
352.7168 96.8995 -37.5022 0.203 -0.967 -0.154 85 79 79
244.2440 420.4627 -41.6148 -0.284 -0.901 -0.329 22 27 20
244.5496 401.3710 -40.6271 -0.042 -0.990 0.134 28 29 24
275.6944 407.4607 -44.9029 -0.966 -0.231 0.120 17 15 18
266.3420 368.2902 -41.6111 -0.927 -0.308 -0.212 19 16 17
278.4879 372.8772 -43.3976 -0.737 -0.385 0.556 24 20 21
279.5184 370.9563 -43.4249 -0.820 -0.252 0.514 23 22 20
279.9073 369.7259 -43.4081 -0.820 -0.252 0.514 32 31 28
280.1272 368.1340 -43.3503 -0.843 -0.249 0.477 33 32 28
289.5015 377.9233 -45.0651 -0.109 -0.994 0.000 27 26 21
292.1979 381.5255 -45.6006 -0.219 -0.960 0.174 27 26 21
308.1923 365.0756 -46.7438 -0.944 -0.317 -0.093 37 38 31
360.2995 335.3372 -51.7508 0.208 -0.807 0.553 69 72 61
380.5552 337.9261 -54.4579 -0.904 -0.428 -0.009 44 46 33
393.2815 321.8711 -55.2080 -0.967 -0.116 -0.228 48 55 45
392.9408 320.0932 -55.0692 -0.996 0.067 0.054 48 56 45
392.9182 318.6720 -54.9899 -0.996 0.073 0.051 44 52 41
390.2849 299.8069 -53.6418 -0.997 0.053 0.063 78 74 73
391.7610 298.7395 -53.7715 -0.997 0.079 0.017 82 76 76
392.4469 294.3445 -53.6222 -0.834 0.019 0.552 61 55 55
391.2918 290.6989 -53.2797 -0.830 0.016 0.558 119 110 108
391.3114 289.4808 -53.2167 -0.830 0.016 0.558 105 95 94
389.1297 276.5786 -52.2464 -0.420 -0.441 0.793 72 62 63
376.7258 259.3997 -49.7502 -0.703 -0.605 0.373 104 94 95
376.6482 258.2469 -49.6784 -0.704 -0.608 0.366 104 94 95
377.4071 257.8631 -49.7540 -0.723 -0.603 0.337 104 94 95
383.2511 262.0937 -50.7223 -0.862 -0.464 0.206 106 96 95
382.7794 260.5748 -50.5809 -0.824 -0.527 0.209 112 102 101
389.7334 260.2541 -51.4452 -0.857 -0.156 0.492 64 54 53
387.9211 256.5194 -51.0147 -0.936 -0.280 0.214 57 49 46
386.9975 254.6559 -50.7974 -0.936 -0.347 0.059 55 47 44
387.2942 253.8575 -50.7921 -0.936 -0.347 0.059 65 60 56
385.6571 251.4019 -50.4525 -0.628 -0.583 -0.516 94 89 85
386.0737 250.7192 -50.4686 -0.583 -0.610 -0.538 107 99 96
386.6699 250.1911 -50.5158 -0.583 -0.610 -0.538 94 86 83
384.2664 240.1011 -49.6686 -0.634 -0.572 -0.521 94 87 79
384.7954 239.5487 -49.7059 -0.634 -0.572 -0.521 120 113 105
385.3838 239.0452 -49.7534 -0.617 -0.591 -0.520 107 98 93
380.1811 228.2005 -48.5108 -0.990 0.124 0.072 100 89 85
380.8117 227.7660 -48.5674 -0.990 0.117 0.080 100 89 85
381.4618 227.3466 -48.6272 -0.937 -0.267 -0.225 102 88 85
382.3614 216.3249 -48.1487 -0.284 -0.384 0.879 100 86 85
380.1330 209.5555 -47.5022 -0.949 0.038 -0.314 86 76 77
379.1928 206.3780 -47.2121 -0.903 -0.023 -0.429 112 103 104
376.7401 196.6120 -46.3761 -0.966 0.043 -0.253 131 122 123
377.0420 196.0292 -46.3830 -0.967 0.042 -0.251 137 128 129
374.6518 189.0763 -45.7062 -0.936 0.066 -0.345 73 59 56
359.4843 171.6504 -42.8464 0.011 -0.682 -0.731 102 84 74
346.2097 128.5076 -38.8438 0.176 -0.904 -0.390 119 104 97
351.3526 129.8432 -39.5676 0.201 -0.880 -0.431 111 96 89
368.5674 135.4784 -42.0530 0.216 -0.863 -0.457 93 79 70
375.6821 138.0873 -43.0952 0.258 -0.893 -0.370 90 75 70
381.5872 140.1350 -43.9540 0.263 -0.891 -0.370 95 82 80
349.8395 104.4261 -38.0092 -0.027 -0.959 0.283 89 77 77
197.1172 341.8272 -32.1260 -0.535 -0.339 0.774 42 56 41
240.6271 406.1695 -41.2888 -0.485 -0.746 -0.456 22 28 22
266.8295 365.4211 -42.3792 -0.969 -0.048 -0.243 19 19 20
283.8996 391.9536 -46.0458 0.142 -0.989 0.051 18 18 19
278.2602 372.6216 -44.2460 -0.714 -0.426 0.555 21 20 22
292.2770 381.9346 -46.5620 -0.244 -0.966 0.083 26 27 19
332.1238 309.7347 -47.6503 0.072 -0.933 -0.352 57 63 49
369.2213 343.9238 -54.3115 0.234 -0.876 0.422 61 62 53
369.2922 339.3361 -54.0650 0.339 -0.707 0.620 61 62 54
373.2291 323.2878 -53.6760 0.195 -0.959 -0.208 47 48 41
376.3882 318.4387 -53.8110 -0.821 -0.297 0.488 52 53 47
390.7071 298.9986 -54.5644 -0.997 0.080 -0.017 67 63 60
391.7482 298.7734 -54.6854 -0.997 0.079 0.017 68 64 61
391.5828 293.5262 -54.3719 -0.993 0.093 0.074 70 65 62
390.5210 289.9788 -54.0382 -0.875 -0.337 0.347 116 108 106
389.0995 284.9106 -53.5736 -0.862 -0.008 0.506 95 85 84
389.2890 281.4858 -53.4072 -0.872 -0.032 0.489 65 56 55
390.1270 281.0962 -53.4929 -0.903 -0.304 0.305 64 54 53
388.4486 277.1374 -53.0572 -0.435 -0.412 0.801 58 48 47
375.9233 259.7724 -50.4840 -0.718 -0.596 0.359 73 64 65
375.7711 258.5478 -50.3962 -0.699 -0.612 0.369 72 63 64
382.6401 260.4735 -51.3843 -0.824 -0.527 0.209 106 98 95
389.8149 261.4344 -52.3578 -0.769 -0.108 0.630 116 106 105
388.6499 258.2455 -52.0308 -0.869 -0.141 0.475 55 47 44
387.7984 256.4320 -51.8206 -0.938 -0.282 0.203 50 42 39
386.8067 254.5092 -51.5864 -0.756 -0.462 -0.463 59 54 50
386.5799 253.2594 -51.4877 -0.729 -0.471 -0.497 83 78 74
386.8587 252.4507 -51.4784 -0.809 -0.577 -0.111 111 106 102
386.4972 251.0977 -51.3567 -0.583 -0.610 -0.538 117 112 108
381.8512 238.1324 -50.0388 -0.566 -0.618 -0.545 73 70 61
385.5696 240.1906 -50.6303 -0.648 -0.540 -0.538 92 87 81
386.1715 239.6946 -50.6798 -0.646 -0.541 -0.539 90 83 77
391.2751 241.8409 -51.4538 0.245 -0.881 0.404 99 89 85
380.0713 228.1197 -49.2529 -0.925 -0.247 -0.287 95 84 80
380.7452 227.7191 -49.3170 -0.990 0.117 0.080 95 84 80
378.4923 203.4114 -47.6743 -0.931 0.035 -0.362 132 122 123
377.8899 201.3702 -47.4834 -0.959 0.009 -0.282 119 109 110
376.9359 196.7335 -47.1028 -0.966 0.043 -0.253 94 84 85
377.0102 195.9974 -47.0713 -0.966 0.038 -0.256 97 87 88
370.1364 176.0798 -45.0806 -0.026 -0.636 -0.771 94 77 70
374.6683 175.3124 -45.6189 -0.836 -0.117 -0.537 101 83 72
362.1306 146.3040 -42.3956 -0.735 -0.130 0.666 99 90 85
370.1877 146.8204 -43.4575 0.177 -0.506 0.844 105 87 85
350.3324 129.8572 -39.9667 0.167 -0.865 -0.473 119 104 97
371.8052 136.8837 -43.1115 0.250 -0.885 -0.392 104 90 81
378.7222 139.3971 -44.1384 0.258 -0.893 -0.370 100 87 81
325.6449 90.6379 -34.6167 0.218 -0.973 -0.073 82 72 73
137.1675 412.0156 -29.1106 -0.748 -0.647 -0.148 74 85 53
235.1159 420.9651 -42.3287 0.311 -0.871 0.381 27 36 31
242.7294 416.3964 -43.0528 -0.390 -0.860 -0.330 24 33 29
242.9436 414.1489 -42.9510 -0.586 -0.649 -0.485 17 26 22
276.1028 401.7760 -46.5383 -0.948 -0.068 0.311 20 26 17
286.6656 350.7116 -44.9654 -0.600 0.060 0.797 26 28 23
301.7004 372.5829 -48.1756 -0.675 -0.486 0.555 27 30 23
310.9211 378.3040 -49.7011 -0.760 -0.267 -0.593 24 28 15
335.5920 311.6721 -49.0607 -0.025 -0.939 -0.342 64 71 55
381.8662 326.2888 -55.9041 -0.757 -0.099 0.646 51 53 44
381.9872 323.5456 -55.7617 -0.753 -0.128 0.646 48 51 43
390.9055 289.1624 -54.9369 -0.995 0.074 0.068 99 94 90
384.6389 280.6049 -53.6311 -0.996 0.080 0.051 101 95 91
385.6399 275.6738 -53.4767 -0.392 -0.464 0.794 48 42 40
372.8921 259.1575 -50.8717 -0.106 -0.994 0.032 53 49 48
382.5391 263.6974 -52.3844 -0.679 -0.734 -0.023 48 43 40
388.9660 259.6217 -52.9830 -0.857 -0.156 0.492 77 71 68
388.0130 257.7086 -52.7492 -0.867 -0.142 0.478 54 50 45
387.3856 256.0920 -52.5747 -0.946 -0.263 0.188 55 51 46
387.1538 254.8287 -52.4718 -0.756 -0.462 -0.463 72 69 64
386.1278 252.8875 -52.2269 -0.589 -0.600 -0.541 99 96 91
386.7191 252.3482 -52.2725 -0.589 -0.600 -0.541 121 119 114
386.8140 251.3851 -52.2293 -0.591 -0.597 -0.543 120 118 113
386.4301 239.9143 -51.5185 -0.694 -0.532 -0.485 46 44 37
388.4021 237.5790 -51.6397 -0.667 -0.621 -0.412 82 73 70
389.7539 224.4655 -51.0593 -0.840 -0.388 0.378 109 95 92
379.5429 215.1218 -49.1966 -0.641 -0.527 0.557 111 97 94
380.1954 214.7320 -49.2588 -0.645 -0.517 0.563 111 97 94
371.9057 185.0495 -46.4732 -0.868 -0.150 -0.474 69 54 49
375.0984 175.5479 -46.3397 -0.836 -0.117 -0.537 101 83 73
361.8024 158.0622 -43.6078 -0.369 -0.881 -0.297 111 92 86
362.4678 157.8075 -43.6794 -0.369 -0.881 -0.297 105 86 80
358.4364 143.8583 -42.3528 0.424 -0.895 0.134 89 80 75
375.3358 138.4182 -44.2309 0.248 -0.883 -0.398 102 89 80
375.7168 138.0348 -44.2582 0.315 -0.946 -0.079 98 85 79
380.0748 129.1350 -44.3105 0.294 -0.950 0.103 75 66 71
375.3499 124.2045 -43.4136 0.256 -0.644 0.721 69 59 60
358.9157 107.4680 -40.3179 -0.842 0.015 -0.539 74 62 62
364.3524 102.4254 -40.7323 0.108 -0.936 -0.336 76 66 67
356.7924 98.0276 -39.4985 0.199 -0.964 -0.176 72 67 64
378.9648 102.6328 -42.6393 -0.495 -0.640 -0.588 59 54 51
130.4296 356.7973 -25.7017 -0.398 -0.848 0.350 66 80 46
131.4977 357.8739 -25.9059 -0.860 -0.509 0.033 64 78 44
230.1566 397.8806 -41.2270 -0.902 0.251 0.352 36 46 38
253.3623 404.6720 -44.6747 0.074 -0.896 0.438 19 30 22
268.6386 363.8340 -44.2458 -0.784 -0.326 -0.529 34 45 25
276.3527 360.5954 -45.0646 0.296 -0.940 -0.169 30 40 17
310.4572 391.9437 -51.4042 -0.041 -0.812 0.582 27 35 28
382.2056 332.6392 -57.2813 0.100 -0.921 -0.377 50 53 38
381.4408 325.8701 -56.7778 -0.778 -0.089 0.622 59 62 47
388.8557 288.4160 -55.5195 -0.869 -0.341 0.358 65 64 58
390.7135 289.0139 -55.7987 -0.995 0.074 0.062 72 71 64
381.6525 269.6282 -53.4559 -0.324 -0.571 0.754 47 46 42
368.9469 256.5750 -51.0122 -0.227 -0.884 0.409 46 45 41
398.1748 281.5994 -56.3356 -0.700 0.053 0.712 48 48 44
399.3648 281.5121 -56.4865 -0.649 0.040 0.759 51 50 46
383.7558 264.8394 -53.4465 -0.878 -0.479 -0.024 51 49 45
388.7524 261.6301 -53.9106 -0.854 -0.165 0.494 47 44 39
388.5832 259.3063 -53.7500 -0.857 -0.156 0.492 47 44 40
388.4744 258.1324 -53.6658 -0.865 -0.150 0.479 56 55 50
387.6185 256.3143 -53.4453 -0.944 -0.273 0.185 55 55 50
387.5022 255.1494 -53.3607 -0.756 -0.462 -0.463 55 56 50
386.5568 253.2755 -53.1251 -0.589 -0.600 -0.541 56 57 51
387.1494 252.7349 -53.1706 -0.589 -0.600 -0.541 90 90 85
388.3593 251.6763 -53.2662 -0.601 -0.594 -0.535 76 77 71
387.1909 240.5420 -52.4498 -0.699 -0.525 -0.485 55 56 50
383.6138 233.7691 -51.5773 -0.963 -0.115 -0.245 55 50 46
383.8039 232.0129 -51.4977 -0.963 -0.115 -0.245 70 63 57
382.0729 227.8363 -51.0219 -0.985 -0.012 -0.169 85 77 72
381.4927 222.7997 -50.6458 -0.421 -0.585 0.693 91 77 74
379.4011 215.0158 -49.9079 -0.645 -0.517 0.563 103 92 86
379.8273 214.4600 -49.9307 -0.645 -0.517 0.563 105 92 86
381.0185 211.8777 -49.9331 -0.561 -0.555 0.615 116 103 97
380.0706 206.1453 -49.4674 -0.939 0.035 -0.341 130 119 117
378.2793 196.8250 -48.6774 -0.859 0.001 -0.512 113 99 99
365.8641 165.4218 -45.1789 -0.859 -0.015 -0.512 91 72 65
365.2505 164.4201 -45.0388 -0.841 0.013 -0.541 93 74 68
364.6815 157.7522 -44.5670 -0.296 -0.923 -0.244 88 76 70
370.7128 152.3533 -45.0364 -0.419 -0.264 0.869 101 92 87
342.0540 136.1801 -40.3148 0.412 -0.898 0.154 89 80 75
362.4992 144.1466 -43.4705 -0.144 -0.578 0.803 85 71 68
375.2063 138.3270 -44.7903 0.250 -0.893 -0.374 88 73 65
388.3951 142.4460 -46.7652 0.313 -0.947 -0.073 78 66 68
379.8526 129.0083 -44.8446 0.294 -0.950 0.103 76 67 72
354.8380 114.8465 -40.7207 -0.897 -0.380 0.224 73 63 64
360.4271 116.0467 -41.5251 -0.904 0.153 0.400 79 69 70
358.6902 107.7859 -40.8053 -0.811 -0.052 -0.583 97 85 85
378.0334 102.7425 -43.0417 -0.393 -0.177 0.903 65 60 57
382.5267 102.7736 -43.6328 -0.575 -0.736 0.358 50 45 42
132.3965 356.6389 -26.6005 -0.824 -0.565 -0.046 67 82 42
132.9008 355.8267 -26.6174 -0.701 -0.667 -0.252 73 88 48
222.8463 359.4536 -38.7673 -0.465 -0.878 0.115 23 33 24
225.6068 366.1187 -39.5432 -0.535 -0.806 0.253 23 33 24
233.4160 358.3956 -40.1038 -0.256 -0.966 -0.038 29 41 30
234.4737 359.1887 -40.2928 -0.222 -0.952 -0.209 28 39 29
250.5139 402.0347 -45.0545 -0.062 -0.981 -0.181 28 40 30
251.6698 402.7690 -45.2530 0.159 -0.971 0.181 25 37 25
270.8172 367.0419 -45.5949 -0.670 -0.516 -0.534 34 48 23
292.4052 380.8184 -49.3047 -0.266 -0.959 0.096 30 42 26
292.4938 378.9050 -49.1988 -0.294 -0.952 0.087 30 40 30
296.1163 380.1533 -49.7559 -0.214 -0.977 0.006 28 38 29
383.4135 337.1611 -58.6878 0.024 -1.000 -0.004 83 89 64
381.3448 331.7001 -58.0777 -0.737 -0.017 0.675 73 78 53
379.1451 320.4209 -57.0924 -0.658 0.168 0.734 67 75 50
383.8737 288.4256 -55.7519 -0.042 -0.994 -0.105 50 53 38
387.6279 290.9550 -56.4052 0.025 -0.999 0.044 49 52 37
390.9109 288.0159 -56.6598 -0.962 0.035 -0.272 46 48 37
392.8701 286.2481 -56.8109 -0.839 0.001 0.544 42 44 35
392.9121 285.0729 -56.7442 -0.839 0.001 0.544 41 43 35
367.8375 255.5633 -51.6046 -0.303 -0.908 0.288 42 45 38
382.8389 264.0260 -54.1142 -0.871 -0.476 0.119 48 50 44
383.7530 261.5535 -54.0834 -0.736 -0.658 0.157 43 40 33
385.5440 259.8895 -54.2186 -0.618 -0.698 0.362 45 45 37
388.3683 261.3118 -54.6805 -0.854 -0.165 0.494 47 44 39
388.2011 258.9914 -54.5157 -0.857 -0.156 0.492 46 45 40
387.6192 257.4044 -54.3409 -0.858 -0.173 0.484 50 50 45
387.4881 256.2202 -54.2507 -0.944 -0.273 0.185 51 52 46
387.7372 255.3718 -54.2316 -0.944 -0.273 0.185 50 52 47
385.5691 252.4415 -53.7639 -0.963 -0.250 0.096 49 50 45
387.3773 249.8192 -53.8424 -0.760 -0.650 0.007 46 47 41
386.9744 248.4469 -53.7046 -0.804 -0.559 -0.203 47 48 42
390.0422 240.8751 -53.6458 -0.533 -0.544 -0.648 54 51 46
380.2552 229.2160 -51.6310 -0.609 -0.610 -0.508 54 49 45
381.3911 229.1744 -51.7791 -0.607 -0.613 -0.505 58 53 49
382.4807 229.0926 -51.9185 -0.597 -0.616 -0.514 64 59 55
382.2073 227.9457 -51.8118 -0.985 -0.012 -0.169 70 63 57
379.4715 223.9811 -51.2052 -0.496 -0.616 0.612 79 64 61
380.0229 223.4945 -51.2484 -0.496 -0.616 0.612 85 70 67
381.5372 221.9307 -51.3530 -0.421 -0.585 0.693 95 81 78
382.9196 220.2741 -51.4345 -0.419 -0.588 0.692 94 80 77
378.9592 213.8213 -50.5125 -0.662 -0.600 0.450 93 80 74
380.5990 211.5718 -50.5916 -0.561 -0.555 0.615 104 89 84
380.9445 210.9661 -50.6002 -0.523 -0.596 0.609 105 90 87
380.3034 205.4722 -50.1773 -0.939 0.035 -0.341 119 108 106
379.1808 178.6375 -48.3783 -0.792 -0.154 -0.591 101 83 74
376.1497 176.1317 -47.8223 -0.838 -0.115 -0.533 101 83 73
365.7092 165.3124 -45.7725 -0.848 0.014 -0.530 115 96 89
369.4545 151.6857 -45.4312 -0.394 -0.327 0.859 93 84 79
369.6192 151.1699 -45.4213 -0.385 -0.328 0.863 91 81 79
369.2629 150.3931 -45.3263 -0.400 -0.317 0.860 89 78 74
366.8437 135.6549 -44.0992 0.241 -0.895 -0.375 92 75 67
361.6026 127.1219 -42.8795 0.100 -0.368 0.924 94 82 84
382.8730 129.6490 -45.8554 0.283 -0.953 0.110 72 62 70
353.6179 100.5886 -40.1891 0.095 -0.853 -0.514 73 67 67
378.1225 104.9021 -43.7037 0.017 -0.944 -0.329 62 54 51
194.9426 301.0577 -32.1109 -0.091 -0.989 -0.117 28 39 23
222.7193 359.4200 -39.5367 -0.465 -0.878 0.115 31 42 27
232.6931 356.5517 -40.6918 -0.283 -0.956 -0.075 38 51 35
292.1064 378.3327 -50.0385 -0.296 -0.952 0.074 36 46 32
292.7126 377.5135 -50.0678 -0.309 -0.949 0.062 36 46 34
282.1449 346.0079 -46.6526 -0.593 0.110 0.798 37 47 35
383.3455 337.1636 -59.6587 0.024 -1.000 -0.004 78 84 57
380.1284 330.3392 -58.7946 -0.735 -0.014 0.678 69 76 45
378.3551 321.0050 -57.9648 -0.667 0.179 0.724 76 82 54
378.0385 319.2195 -57.8091 -0.658 0.168 0.734 70 78 53
380.3396 303.9843 -57.1512 -0.779 -0.453 -0.434 52 63 46
386.7430 290.1117 -57.1297 -0.038 -0.993 -0.116 49 53 36
389.6807 291.8016 -57.6307 -0.993 0.088 0.083 49 53 36
389.5267 260.1775 -55.6041 -0.691 -0.389 0.609 45 45 37
387.6069 255.2778 -55.0359 -0.944 -0.273 0.185 44 45 39
381.7472 242.0477 -53.4112 -0.195 -0.981 -0.022 53 56 49
381.2930 239.6836 -53.2003 -0.974 0.224 -0.041 59 62 55
380.5914 229.4877 -52.4595 -0.643 -0.581 -0.499 52 47 43
381.7772 229.4836 -52.6182 -0.607 -0.613 -0.505 56 53 48
382.4866 229.1024 -52.6892 -0.607 -0.625 -0.490 63 60 55
382.4015 228.1015 -52.6143 -0.987 -0.009 -0.161 69 61 58
379.4069 223.0242 -51.8907 -0.493 -0.598 0.632 90 76 73
380.8474 220.5107 -51.9244 -0.129 -0.972 0.197 95 81 78
381.9298 218.6443 -51.9511 -0.745 -0.615 -0.257 82 68 65
378.5790 213.5404 -51.1782 -0.905 -0.417 -0.079 83 70 64
375.4261 210.3758 -50.5548 -0.557 -0.590 0.584 81 68 62
379.9479 211.0992 -51.2069 -0.263 -0.708 0.656 94 81 75
380.3723 210.5517 -51.2290 -0.258 -0.708 0.657 94 80 77
380.5910 205.6657 -50.9484 -0.939 0.035 -0.341 93 82 80
379.8511 201.8718 -50.6086 -0.923 -0.067 -0.378 81 67 67
375.4724 195.7101 -49.6307 -0.899 0.013 -0.437 85 71 71
372.7917 184.8345 -48.5815 -0.926 0.016 -0.378 135 120 115
372.9304 183.4543 -48.5125 -0.924 0.012 -0.383 131 116 111
372.6436 182.5452 -48.4164 -0.925 0.017 -0.381 104 89 84
374.9789 181.0968 -48.6376 -0.676 -0.363 -0.641 109 94 89
368.9845 158.7837 -46.4187 0.186 -0.834 0.519 80 69 63
375.4601 155.9483 -47.1069 0.316 -0.925 -0.211 89 80 75
369.2349 150.9477 -45.9552 -0.403 -0.519 0.753 88 79 74
377.9290 146.3265 -46.8276 0.297 -0.897 0.327 103 88 85
373.2703 138.5020 -45.7067 0.226 -0.895 -0.384 96 81 74
363.8707 130.0968 -43.9135 -0.796 -0.358 0.487 125 115 116
363.5103 129.4268 -43.8226 -0.878 -0.060 0.475 124 114 115
358.5024 126.2786 -42.9516 0.023 -0.217 0.976 92 82 83
381.1217 128.9150 -46.1512 0.299 -0.951 0.074 72 63 68
386.3902 130.4743 -46.9564 0.295 -0.952 0.076 68 59 64
380.8507 127.2487 -46.0092 -0.990 -0.077 0.115 61 52 55
359.4843 116.0811 -42.4364 -0.898 0.149 0.415 68 59 60
356.9818 102.0437 -41.2105 0.066 -0.874 -0.482 82 73 74
359.5685 102.4603 -41.5837 0.074 -0.877 -0.474 77 71 71
362.6136 102.5942 -42.0004 0.039 -0.861 -0.508 71 65 65
385.7578 106.7512 -45.3668 0.227 -0.420 0.879 64 56 53
122.1016 413.1794 -30.2040 -0.210 -0.220 0.953 50 60 35
141.6440 386.6711 -31.1196 -0.355 -0.474 0.806 70 72 50
193.3419 299.8593 -32.4510 -0.115 -0.991 -0.068 38 50 26
292.5899 377.4937 -50.9765 -0.309 -0.949 0.062 42 53 35
281.0038 343.9090 -47.2108 -0.593 0.110 0.798 49 60 42
308.4163 378.3861 -53.1796 0.032 -0.558 0.829 45 58 33
196.0938 144.5213 -22.6695 -0.810 -0.579 0.093 59 80 39
374.6314 268.7169 -54.9843 0.277 -0.905 -0.324 41 44 33
382.3150 264.7099 -55.7637 -0.337 -0.847 0.410 47 50 41
381.3839 262.7462 -55.5091 -0.295 -0.839 0.457 48 49 41
380.5221 243.0372 -54.1039 -0.256 -0.967 -0.007 54 57 50
381.8542 243.1528 -54.2920 -0.326 -0.454 0.829 51 54 47
382.3734 233.7594 -53.7483 -0.962 0.259 0.087 56 48 45
381.6169 230.3041 -53.4199 -0.652 -0.588 -0.478 76 71 67
382.9203 230.3881 -53.6021 -0.661 -0.577 -0.479 85 82 77
384.5469 227.9056 -53.6602 -0.958 -0.226 -0.175 106 92 89
378.9596 222.6835 -52.5616 -0.493 -0.598 0.632 110 96 93
382.5193 219.0822 -52.8086 -0.771 -0.593 -0.232 74 60 57
378.5035 213.4831 -51.8984 -0.928 -0.372 -0.001 73 60 54
381.1254 208.5422 -51.9307 -0.966 0.181 -0.182 67 56 54
380.4631 205.5696 -51.6467 -0.917 -0.399 -0.014 68 57 55
383.0223 197.5651 -51.4702 -0.864 0.044 -0.501 101 87 86
381.1381 195.5359 -51.0822 -0.840 -0.023 -0.542 99 84 80
376.6741 190.3068 -50.1354 -0.329 -0.556 0.763 97 82 75
372.9135 184.8975 -49.2722 -0.929 0.026 -0.370 115 100 95
373.2637 184.3829 -49.2860 -0.924 0.012 -0.383 119 104 99
374.7784 172.5126 -48.7153 -0.796 -0.206 -0.568 124 106 94
363.9943 130.1167 -44.4824 -0.793 -0.362 0.490 118 107 111
355.6436 125.0334 -43.0184 0.018 -0.215 0.976 94 83 87
350.0384 121.6970 -42.0406 -0.286 -0.113 0.951 89 78 82
366.5602 124.5850 -44.4685 0.295 -0.952 0.077 81 72 75
381.4608 129.0112 -46.7772 0.310 -0.941 0.140 73 64 69
393.4673 132.6844 -48.6445 0.310 -0.941 0.140 72 63 66
359.3595 114.1548 -42.8108 -0.891 0.137 0.433 80 71 72
357.6813 103.4843 -41.8859 -0.984 0.123 -0.132 100 94 94
150.9090 408.7411 -34.5986 0.051 -0.761 0.646 68 75 44
132.3152 129.2698 -13.2399 0.217 -0.809 0.547 75 86 46
197.3886 306.5349 -34.0861 -0.248 -0.903 0.350 50 63 35
227.6186 358.5477 -41.7283 -0.924 -0.378 -0.063 47 60 32
299.9421 397.4232 -54.2525 -0.064 -0.975 0.211 48 61 35
291.0459 372.4598 -51.3535 0.144 -0.939 0.313 48 61 35
283.3006 346.8800 -48.5707 -0.789 -0.592 -0.163 49 63 38
289.5270 348.0290 -49.5010 -0.743 -0.650 -0.163 53 67 43
306.7813 373.4955 -53.5788 -0.692 -0.628 -0.356 55 68 38
360.8460 269.9264 -54.0136 -0.731 -0.682 0.004 54 58 41
383.5196 290.6882 -58.5171 -0.390 -0.832 -0.395 49 53 36
387.2375 265.8933 -57.3574 -0.277 -0.833 0.480 69 66 59
391.0709 259.3992 -57.4454 -0.873 -0.392 0.292 43 44 38
389.9015 256.2339 -57.0722 -0.870 -0.250 0.425 44 45 39
380.3571 243.9197 -54.9358 -0.387 -0.885 -0.259 108 109 103
380.3425 242.9003 -54.8652 -0.178 -0.984 0.004 70 73 66
384.2933 236.2748 -54.9605 -0.970 0.241 -0.011 48 43 39
383.6093 234.7574 -54.7646 -0.962 0.261 0.082 51 43 40
381.0875 224.3214 -53.7167 -0.966 -0.258 -0.022 136 122 119
377.7769 219.9790 -52.9709 -0.032 -0.973 0.229 139 125 122
378.5045 213.4818 -52.6332 -0.928 -0.372 -0.001 62 47 42
380.8229 211.7215 -52.8323 -0.932 0.024 -0.361 67 54 48
380.7741 210.8310 -52.7657 -0.932 0.024 -0.361 66 55 51
381.1531 210.2500 -52.7785 -0.938 0.045 -0.343 66 55 53
379.8904 204.3374 -52.2076 -0.948 -0.316 0.021 70 59 57
377.6249 201.1392 -51.6819 -0.817 -0.543 0.195 73 59 59
378.1470 200.6886 -51.7231 -0.819 -0.537 0.200 68 54 54
378.0327 199.0029 -51.5940 -0.920 -0.009 -0.392 67 53 53
374.5027 191.1699 -50.5832 -0.217 -0.540 0.813 97 82 78
375.1363 190.8200 -50.6464 -0.217 -0.540 0.813 97 82 77
372.6511 188.4421 -50.1459 -0.094 -0.541 0.836 97 82 75
375.5637 181.4224 -50.0724 -0.724 -0.334 -0.604 106 91 86
372.5167 169.8228 -48.8742 -0.935 -0.270 -0.228 117 99 89
375.2721 170.0491 -49.2669 -0.811 -0.191 -0.553 114 95 89
375.3985 169.4454 -49.2436 -0.811 -0.191 -0.553 110 91 87
372.7507 155.1173 -47.9164 0.271 -0.886 -0.376 78 69 64
377.0580 156.7133 -48.6139 0.275 -0.884 -0.379 77 70 64
375.7201 138.4194 -47.1992 0.285 -0.879 0.383 104 93 91
389.0388 142.5825 -49.3040 0.324 -0.946 0.015 103 94 95
357.9926 122.0630 -43.6698 0.292 -0.952 0.088 83 74 77
399.2935 134.3766 -50.1564 0.310 -0.941 0.140 85 76 79
368.7529 104.4603 -43.9590 0.068 -0.920 -0.387 81 75 75
372.1310 105.0950 -44.4645 0.060 -0.916 -0.398 78 72 72
359.6050 99.4985 -42.3719 0.177 -0.302 0.937 74 66 63
360.0984 99.2419 -42.4222 0.195 -0.313 0.929 74 66 63
377.8032 103.3624 -45.1249 0.231 -0.437 0.869 75 67 64
214.7103 367.3238 -41.3453 0.163 -0.481 0.861 60 75 42
236.6339 429.3870 -48.6789 -0.440 -0.525 0.729 61 75 39
226.8612 358.9869 -42.4503 -0.798 -0.512 -0.318 54 68 34
242.9463 348.0253 -43.9182 0.183 -0.979 0.089 49 58 37
243.2539 346.6792 -43.8675 0.201 -0.979 -0.006 49 58 37
295.5895 390.6703 -54.1601 -0.245 -0.934 0.259 50 64 38
275.4597 334.9078 -47.5113 -0.729 -0.659 -0.183 51 64 32
288.6294 346.4828 -50.1363 -0.720 -0.652 -0.237 58 73 41
375.6738 291.4146 -58.3741 -0.650 -0.449 -0.613 69 73 58
359.7579 268.8527 -54.6080 -0.715 -0.693 -0.093 62 66 49
370.9427 267.4817 -56.0616 -0.080 -0.962 -0.263 51 54 45
374.6436 268.7981 -56.6652 0.276 -0.908 -0.315 42 45 36
387.6910 266.3313 -58.3008 -0.686 -0.660 0.307 66 63 58
387.0875 263.5589 -58.0253 -0.877 -0.319 0.360 55 52 45
390.8709 259.2448 -58.2503 -0.873 -0.392 0.292 48 49 44
386.2799 251.0289 -57.0457 -0.465 -0.597 0.654 122 123 118
386.8866 250.5040 -57.0933 -0.465 -0.597 0.654 125 126 120
380.5354 244.0859 -55.7695 -0.387 -0.885 -0.259 112 113 107
381.0866 243.5421 -55.8082 -0.377 -0.888 -0.264 99 102 95
380.6868 220.3924 -54.1496 -0.120 -0.972 0.201 120 106 103
383.3683 217.0474 -54.2892 -0.622 -0.657 0.427 53 39 33
379.1938 205.4987 -52.9114 -0.969 0.200 -0.144 64 53 51
377.1828 201.6376 -52.3656 -0.818 -0.540 0.199 62 51 49
378.0347 200.6032 -52.4119 -0.819 -0.537 0.200 67 53 53
380.7542 201.6491 -52.8608 -0.699 -0.695 0.170 67 53 53
379.1303 199.7374 -52.5036 -0.923 -0.011 -0.385 66 52 52
374.5789 168.2871 -49.6954 -0.851 -0.148 -0.503 103 85 81
355.6360 153.3185 -46.0360 -0.502 -0.705 -0.501 94 79 74
373.6214 153.0837 -48.5099 -0.750 -0.298 0.590 74 64 62
365.7055 142.7272 -46.6967 -0.032 -0.984 -0.175 96 86 82
368.2394 143.3721 -47.0922 -0.033 -0.977 -0.209 83 73 69
361.7288 138.0656 -45.8232 0.023 -0.236 0.971 85 75 71
375.7433 138.3958 -47.7865 -0.102 -0.309 0.946 104 94 93
376.5856 138.2135 -47.8905 -0.104 -0.302 0.947 104 94 95
379.1998 126.4874 -47.4403 -0.751 -0.015 0.660 92 83 84
354.6432 115.5108 -43.2802 -0.998 -0.050 0.033 87 83 82
356.3421 115.7019 -43.5286 -0.493 -0.305 0.815 83 79 78
363.9731 103.7523 -43.7576 -0.034 -0.857 -0.514 91 85 85
367.3101 104.3908 -44.2639 0.017 -0.877 -0.480 88 82 82
369.2819 104.5862 -44.5504 0.017 -0.877 -0.480 85 79 79
352.1796 95.9869 -41.5870 0.064 -0.395 0.916 79 71 68
355.9812 93.6041 -41.9483 -0.092 -0.269 0.959 74 66 63
138.7263 397.6643 -33.6693 -0.472 -0.682 0.559 52 54 32
231.7431 400.2622 -46.8692 0.038 -0.801 0.598 59 76 37
232.7501 397.8698 -46.8398 0.099 -0.899 0.427 57 74 35
229.0708 361.4331 -43.7307 -0.771 -0.560 -0.305 55 73 35
238.6018 342.9996 -43.7518 0.267 -0.954 -0.135 53 66 41
240.2412 345.3292 -44.1470 0.285 -0.951 -0.121 53 66 42
242.8865 348.1612 -44.7188 0.188 -0.977 0.095 53 66 42
273.9238 364.8970 -50.2531 -0.715 -0.684 0.144 52 68 42
288.2724 336.9810 -50.2732 -0.909 -0.398 0.123 60 73 43
270.0046 280.3110 -43.6822 -0.463 -0.852 -0.244 67 83 49
376.4314 293.5320 -59.5148 -0.643 -0.469 -0.605 78 85 68
371.9481 271.9451 -57.3505 -0.887 -0.326 0.328 55 58 45
375.4267 267.3138 -57.5075 -0.994 0.103 -0.042 55 58 47
387.9812 272.3054 -59.6195 -0.926 0.174 0.335 42 45 38
389.3438 266.7338 -59.4135 -0.923 -0.301 0.241 61 58 51
390.6710 259.0905 -59.0550 -0.873 -0.392 0.292 54 55 49
385.1790 251.1470 -57.7209 -0.465 -0.597 0.654 97 98 92
386.8165 250.4605 -57.9012 -0.450 -0.662 0.600 126 127 121
381.5234 243.9249 -56.6952 -0.387 -0.885 -0.259 119 122 115
379.6509 231.6023 -55.5559 -0.967 0.232 -0.104 48 45 40
380.1654 226.3778 -55.2559 -0.987 0.148 0.064 106 100 94
383.6335 218.1256 -55.1535 -0.775 -0.627 -0.076 60 50 43
383.0992 216.8480 -54.9878 -0.622 -0.657 0.427 60 50 43
379.8037 205.0891 -53.6895 -0.972 0.227 -0.060 78 67 65
379.7762 204.2434 -53.6254 -0.946 -0.321 0.044 79 68 66
379.7639 201.7776 -53.4481 -0.787 -0.322 0.526 67 53 53
380.7469 201.6350 -53.5755 -0.698 -0.696 0.169 68 52 53
380.8491 200.8929 -53.5370 -0.698 -0.688 0.197 67 51 52
377.0638 195.9491 -52.6553 -0.915 -0.092 0.392 73 57 58
376.9571 194.3101 -52.5237 -0.910 -0.100 0.403 82 66 67
372.1201 185.8294 -51.2431 -0.930 0.047 -0.364 103 88 85
370.6161 168.0182 -49.7645 -0.903 -0.339 -0.263 108 94 89
370.8195 167.4679 -49.7538 -0.903 -0.339 -0.263 104 90 84
371.2841 167.0674 -49.7902 -0.900 -0.338 -0.276 103 89 84
367.1802 143.4046 -47.5312 -0.419 -0.888 0.189 99 90 85
349.6408 123.3588 -43.6498 -0.202 -0.248 0.948 119 110 113
393.9348 132.7460 -50.5158 0.248 -0.943 -0.222 85 76 79
375.4946 125.0023 -47.3843 -0.548 -0.094 0.831 84 75 76
348.6537 102.8592 -42.0522 -0.569 -0.610 -0.551 96 88 85
357.5904 103.7576 -43.3665 -0.596 -0.362 -0.717 110 104 104
364.2881 103.8124 -44.3076 -0.001 -0.863 -0.504 79 73 73
366.4362 104.0709 -44.6266 -0.003 -0.865 -0.502 77 71 71
368.3952 104.2633 -44.9144 -0.021 -0.869 -0.494 76 70 70
357.9355 94.5163 -42.7568 0.103 -0.265 0.959 91 83 80
142.5891 180.7075 -19.0893 -0.092 -0.846 0.525 64 82 44
219.0554 409.9115 -46.6666 -0.669 -0.334 0.664 69 96 48
219.3181 407.6359 -46.5373 -0.654 -0.324 0.684 65 93 45
238.8406 343.9599 -44.6398 0.244 -0.965 0.100 58 77 44
240.1591 345.4043 -44.9319 0.285 -0.951 -0.121 58 76 45
241.1833 346.0204 -45.1218 0.271 -0.963 -0.010 58 76 45
285.8024 348.7545 -51.6304 -0.455 -0.693 -0.559 56 74 33
268.3228 285.9891 -44.5678 -0.301 -0.923 0.239 66 71 51
268.9944 285.7502 -44.6453 -0.301 -0.923 0.239 61 66 46
371.0312 267.6398 -57.7474 0.147 -0.989 0.031 51 55 41
373.5981 268.9973 -58.2096 -0.013 -0.983 -0.182 52 56 42
375.7102 267.6184 -58.4074 -0.993 0.101 -0.062 67 71 56
375.4755 265.1402 -58.1929 -0.972 0.221 0.075 54 57 47
387.9006 268.8310 -60.2197 -0.297 -0.854 0.426 53 56 46
370.6832 246.7746 -56.1720 -0.414 -0.782 0.466 57 57 47
387.9816 256.7674 -59.3487 -0.694 -0.387 0.607 58 61 52
384.6862 250.7411 -58.4420 -0.465 -0.597 0.654 91 94 86
385.7262 250.5891 -58.5779 -0.450 -0.662 0.600 115 116 109
386.3727 250.0990 -58.6335 -0.450 -0.662 0.600 129 130 122
380.8936 244.4195 -57.4433 -0.387 -0.885 -0.259 123 126 117
379.9383 242.6029 -57.1754 -0.389 -0.890 -0.238 110 113 104
381.2526 231.9381 -56.5811 -0.987 0.102 -0.127 45 45 37
379.9432 225.2855 -55.9093 -0.967 0.252 0.038 85 78 72
378.3228 220.4003 -55.3229 -0.929 -0.123 -0.348 92 85 77
382.0442 219.6196 -55.7919 -0.131 -0.971 0.199 80 73 65
385.0665 219.1800 -56.1871 -0.130 -0.973 0.191 70 63 53
383.7493 213.8168 -55.6086 -0.931 0.046 -0.362 91 84 76
379.2174 203.0270 -54.1786 -0.811 -0.224 0.540 103 89 88
379.2491 202.2310 -54.1248 -0.806 -0.215 0.552 102 88 87
377.3389 199.3054 -53.6407 -0.863 -0.221 0.453 85 66 68
374.1312 193.2013 -52.7407 -0.840 -0.378 0.390 86 67 69
376.8932 194.2564 -53.2084 -0.086 -0.953 0.290 86 67 69
372.7655 181.8167 -51.7148 -0.949 0.047 -0.311 102 88 88
358.5931 168.9290 -48.7683 -0.276 -0.589 -0.759 99 87 87
370.5566 175.4765 -50.9387 -0.427 -0.419 -0.801 98 87 86
369.2986 167.2427 -50.1586 -0.911 -0.319 -0.259 103 91 88
373.2097 155.8918 -49.8813 -0.035 -0.516 0.856 75 67 65
359.8435 144.9136 -47.1884 -0.183 -0.180 0.967 82 74 72
359.0413 143.9435 -47.0040 -0.347 -0.058 0.936 82 74 72
359.5252 143.6172 -47.0486 -0.349 -0.060 0.935 82 74 71
365.6790 143.2221 -47.8897 -0.887 -0.461 -0.006 92 83 78
366.8089 143.1968 -48.0477 -0.650 -0.739 0.180 98 89 84
365.8528 141.0496 -47.7554 -0.392 -0.574 0.719 105 96 91
353.0308 133.9372 -45.4222 0.164 -0.284 0.945 105 96 92
354.3912 134.0452 -45.6225 0.168 -0.285 0.944 101 91 91
355.8338 134.1871 -45.8368 0.168 -0.285 0.944 93 83 84
349.5559 121.8444 -44.0464 -0.152 -0.278 0.948 88 79 82
371.8704 123.5499 -47.3261 -0.431 -0.561 -0.707 72 63 66
369.7958 121.7531 -46.9014 -0.438 -0.515 -0.737 90 84 84
359.1628 104.6613 -44.1478 -0.895 -0.138 -0.424 89 83 83
358.5776 103.6204 -43.9889 -0.901 -0.145 -0.410 89 83 83
368.5724 105.1435 -45.5135 -0.115 -0.830 -0.546 74 68 68
372.6765 106.0168 -46.1576 -0.079 -0.858 -0.507 74 68 68
353.1558 92.3275 -42.3963 -0.488 0.037 0.872 86 78 75
227.5835 359.9337 -45.0184 -0.757 -0.631 -0.169 58 85 44
237.1583 355.3091 -46.0389 -0.820 -0.469 -0.328 54 80 38
237.6597 343.1755 -45.1993 -0.853 -0.364 0.375 63 87 48
240.0769 345.4795 -45.7177 0.285 -0.951 -0.121 64 88 50
240.9671 345.7300 -45.8637 0.268 -0.963 -0.002 64 88 50
268.0694 285.6768 -45.2256 -0.250 -0.958 0.139 64 69 49
268.6800 285.3300 -45.2868 -0.211 -0.977 0.025 57 62 42
273.1242 284.5807 -45.8654 -0.022 -0.839 -0.544 64 81 45
368.0314 267.0098 -58.1042 0.142 -0.990 -0.009 62 66 48
368.7631 266.5941 -58.1776 0.145 -0.977 -0.154 62 66 48
371.2347 267.8743 -58.6268 0.145 -0.989 0.027 63 67 50
373.9201 269.3454 -59.1209 -0.008 -0.985 -0.172 63 68 50
375.6116 267.5574 -59.2283 -0.972 0.219 0.087 83 87 69
386.9690 270.2781 -61.0551 -0.876 0.137 0.462 47 51 37
370.3987 246.5426 -56.9054 -0.848 -0.525 -0.075 55 56 43
380.5742 250.3333 -58.6437 -0.777 -0.392 0.492 55 58 47
381.0663 249.7191 -58.6679 -0.437 -0.584 0.684 55 58 47
385.6022 249.4593 -59.2964 -0.458 -0.677 0.575 102 105 95
382.0732 236.4630 -57.8162 -0.945 0.276 0.174 44 45 37
380.2820 232.1237 -57.2345 -0.969 0.230 -0.088 43 43 35
382.6304 233.0442 -57.6391 -0.976 0.206 0.076 43 43 35
381.6946 231.3450 -57.3778 -0.975 0.210 0.080 42 43 35
387.6622 232.2281 -58.2966 -0.138 -0.751 0.646 38 39 31
377.7628 220.8752 -56.0298 -0.958 0.212 0.191 63 60 51
380.5770 206.4476 -55.3484 -0.972 0.228 -0.061 74 63 59
379.7116 204.1838 -55.0547 -0.968 0.183 -0.172 87 76 72
378.8568 202.7701 -54.8265 -0.811 -0.224 0.540 95 81 78
377.4563 200.1817 -54.4320 -0.817 -0.544 0.192 92 78 77
376.8044 198.1327 -54.1850 -0.859 -0.251 0.447 96 77 79
374.8030 194.4169 -53.6200 0.231 -0.970 0.073 90 71 73
376.5782 194.8182 -53.9038 0.231 -0.970 0.073 90 71 73
373.5891 190.5227 -53.1542 -0.783 -0.428 0.452 98 82 83
373.8010 186.8791 -52.9108 -0.934 0.069 -0.352 50 34 35
377.9850 181.3835 -53.0958 -0.681 -0.254 -0.687 93 82 85
380.3973 182.1201 -53.4958 -0.621 -0.322 -0.715 93 83 84
379.4935 180.1238 -53.2167 -0.667 -0.318 -0.674 89 78 78
379.1385 174.2423 -52.7243 -0.803 -0.251 -0.540 100 90 89
369.1529 167.8037 -50.8143 -0.910 -0.324 -0.259 101 91 89
369.3464 167.2489 -50.8002 -0.910 -0.324 -0.259 99 89 87
371.0396 167.5502 -51.0648 -0.871 -0.371 -0.323 99 90 85
371.7025 167.2609 -51.1377 -0.856 -0.383 -0.347 99 90 85
374.0355 167.2454 -51.4699 -0.825 -0.158 -0.542 100 91 86
377.0662 156.6060 -51.1038 -0.906 -0.403 -0.130 67 59 57
368.1889 142.6889 -48.7905 -0.179 -0.592 0.786 99 88 84
348.7970 122.4523 -44.5004 -0.156 -0.285 0.946 112 103 106
350.0106 122.4853 -44.6763 0.146 -0.893 0.426 104 95 98
368.0771 125.5194 -47.4851 0.126 -0.858 -0.498 66 57 60
377.8336 120.3173 -48.4882 -0.969 0.163 0.183 77 71 71
372.2633 116.3525 -47.3947 -0.947 0.177 0.269 91 81 80
356.3877 104.9736 -44.2722 -0.790 -0.522 -0.321 93 84 82
360.7560 105.1490 -44.9094 -0.808 -0.220 -0.546 85 79 79
346.8397 95.0205 -42.1607 0.084 -0.318 0.944 77 69 66
355.5874 96.5013 -43.5216 0.102 -0.323 0.941 87 79 76
239.6532 344.6165 -46.3828 0.263 -0.961 0.079 63 88 48
240.9765 341.7269 -46.3512 0.394 -0.918 0.044 62 87 47
267.1899 288.6008 -46.0412 -0.457 -0.885 -0.087 69 83 52
370.4419 268.2757 -59.3776 -0.653 -0.755 -0.058 69 78 51
371.2592 267.9343 -59.4693 -0.649 -0.760 -0.040 71 77 51
375.9331 266.7651 -60.0538 -0.993 0.103 -0.056 95 100 77
376.2988 256.0825 -59.2835 -0.714 -0.700 -0.016 56 61 42
370.8050 248.9976 -57.9447 -0.797 -0.603 0.038 57 61 42
370.5101 245.6373 -57.6432 -0.983 -0.114 0.146 60 64 46
379.6975 249.5885 -59.2737 -0.777 -0.388 0.496 55 57 44
380.6143 249.3456 -59.3873 -0.761 -0.422 0.492 55 57 44
381.0025 248.6439 -59.3892 -0.761 -0.422 0.492 55 57 44
382.0015 248.4692 -59.5200 -0.794 -0.388 0.469 59 61 48
383.3551 248.5949 -59.7250 -0.844 -0.509 0.169 66 68 55
383.7654 247.9119 -59.7316 -0.844 -0.509 0.169 75 79 65
394.1985 246.3243 -61.1151 -0.931 0.275 0.242 45 47 39
386.1706 232.0223 -58.8545 -0.138 -0.751 0.646 55 58 47
388.5300 231.0018 -59.1164 -0.169 -0.635 0.754 47 44 35
379.8517 218.8716 -56.9292 0.144 -0.910 0.390 50 50 40
380.9550 213.5253 -56.6765 -0.844 -0.527 0.096 71 72 64
383.7728 213.8259 -57.1063 -0.994 -0.104 -0.025 71 70 62
383.1600 212.5191 -56.9172 -0.994 -0.108 -0.022 74 69 63
380.2328 206.2001 -56.0078 -0.973 0.226 -0.053 69 55 52
379.6226 204.1146 -55.7591 -0.978 0.188 -0.089 76 65 61
379.4574 203.1770 -55.6630 -0.968 0.179 -0.177 81 69 65
378.6601 200.9965 -55.3799 -0.775 -0.318 0.546 93 76 76
376.7602 198.8934 -54.9436 -0.863 -0.221 0.453 93 76 78
376.5242 197.9334 -54.8356 -0.859 -0.251 0.447 93 76 79
372.1694 194.2002 -53.9194 -0.032 -0.983 0.180 92 76 79
375.6483 194.9713 -54.4810 0.284 -0.957 -0.048 95 78 82
376.8489 194.9873 -54.6555 0.230 -0.972 0.053 95 78 82
371.9350 189.4258 -53.5177 -0.734 -0.413 0.539 106 90 91
373.5253 189.7062 -53.7689 -0.767 -0.438 0.469 108 92 93
373.1403 187.9420 -53.5774 -0.771 -0.320 0.551 110 94 95
374.5955 188.1271 -53.8017 -0.922 0.017 -0.387 109 93 94
366.9138 176.7262 -51.8145 -0.936 0.114 -0.332 100 88 90
379.4279 182.2437 -54.0458 -0.670 -0.263 -0.694 90 75 78
382.8789 182.8689 -54.5921 -0.685 -0.204 -0.699 90 77 76
383.8622 181.9936 -54.6666 -0.773 -0.195 -0.604 77 63 62
369.0937 165.7599 -51.2842 -0.317 -0.588 -0.744 99 90 85
379.3031 166.8109 -52.8387 -0.625 -0.248 -0.740 94 85 80
377.3811 157.3673 -51.8337 -0.906 -0.399 -0.139 60 52 50
367.7818 142.4654 -49.3000 -0.670 -0.703 0.237 90 81 76
349.4303 122.6899 -45.1276 0.120 -0.958 0.259 105 96 99
351.2839 122.5078 -45.3811 0.109 -0.970 0.218 98 89 92
376.7433 119.8757 -48.8529 -0.967 0.168 0.193 75 66 67
362.7039 113.7837 -46.3572 -0.935 0.208 0.286 75 67 64
365.5716 114.3637 -46.8158 -0.935 0.195 0.297 83 75 72
342.9075 94.1587 -41.9878 -0.005 -0.861 -0.508 74 66 63
344.9510 94.4042 -42.3017 0.002 -0.864 -0.504 77 69 66
345.3612 92.6296 -42.2241 0.008 -0.168 0.986 96 88 85
348.6917 92.0990 -42.6639 0.075 -0.215 0.974 122 112 111
127.7962 427.8630 -37.4417 -0.091 -0.623 0.777 48 55 39
241.9744 305.5954 -44.4298 -0.211 -0.929 -0.304 60 85 45
247.7574 308.4525 -45.4987 -0.710 -0.298 0.638 65 87 48
276.7995 289.7634 -48.2567 -0.110 -0.852 -0.511 64 81 47
369.7651 269.9400 -60.2454 -0.649 -0.760 -0.051 60 69 50
371.0533 268.9118 -60.3520 -0.670 -0.740 -0.068 63 72 44
371.6627 268.3641 -60.3975 -0.670 -0.740 -0.068 63 72 43
