ply
format ascii 1.0
element vertex 848
property float x
property float y
property float z
property float nx
property float ny
property float nz
property uchar diffuse_red
property uchar diffuse_green
property uchar diffuse_blue
end_header
118.7377 -11.8170 -53.1712 -0.255 0.257 0.932 129 121 119
115.9992 -12.3149 -51.8546 -0.264 0.152 0.953 121 113 111
114.3299 -12.5483 -51.0506 -0.055 -0.109 0.993 119 111 109
114.3719 -12.8049 -51.0766 -0.055 -0.109 0.993 120 112 110
114.2014 -13.0570 -50.9994 -0.033 -0.181 0.983 120 112 110
114.1227 -13.3101 -50.9668 -0.060 -0.160 0.985 112 104 102
112.0964 -16.4855 -50.0541 0.126 -0.760 0.638 120 112 109
113.8594 -16.8339 -50.9163 0.120 -0.729 0.674 101 96 93
116.5311 -20.5586 -52.2929 -0.118 -0.987 0.107 114 109 106
120.2258 -21.9448 -54.1143 -0.372 0.366 0.853 133 128 124
114.5216 -24.0687 -51.3957 -0.033 -0.822 0.569 122 122 122
115.7923 -24.9725 -52.0314 0.093 -0.684 0.724 106 106 106
95.9343 -28.5752 -42.4842 0.216 -0.392 0.894 155 158 163
96.1933 -28.8232 -42.6152 0.213 -0.402 0.891 159 162 169
86.6428 88.0199 -35.7021 -0.892 -0.319 -0.322 55 68 50
86.9221 87.7708 -35.8437 -0.258 -0.251 0.933 41 53 41
87.0545 87.6356 -35.9111 -0.458 -0.129 0.880 41 52 42
87.3493 87.7112 -36.0532 -0.451 0.169 0.877 47 59 49
87.3539 87.4083 -36.0619 -0.421 0.173 0.891 53 64 57
87.4320 85.6623 -36.1372 -0.299 0.364 0.882 89 101 88
92.5472 90.2208 -38.5343 -0.624 -0.764 0.164 67 82 49
88.8403 81.2922 -36.9169 -0.907 0.178 -0.381 20 34 12
110.1311 86.8477 -47.1802 -0.199 0.038 0.979 72 91 65
117.0098 86.7813 -50.5357 -0.359 0.481 0.800 52 60 36
112.6356 82.0027 -48.5045 -0.376 -0.390 0.840 42 50 26
111.9829 80.6844 -48.2143 -0.734 0.444 0.515 62 70 47
111.9516 80.2976 -48.2073 -0.672 0.512 0.536 70 75 55
116.6797 81.9821 -50.4769 -0.241 -0.596 0.766 85 93 72
100.1711 60.8966 -42.8760 -0.652 -0.401 -0.643 130 130 122
100.3591 60.7434 -42.9709 -0.652 -0.401 -0.643 125 125 117
109.5519 16.3458 -48.3984 -0.334 -0.866 0.372 108 98 99
110.7066 16.1097 -48.9665 0.084 -0.388 0.918 125 115 116
108.6793 12.0385 -48.0646 -0.771 0.323 -0.549 104 95 96
110.6032 7.6095 -49.0970 -0.165 0.366 0.916 122 114 112
109.9056 1.1613 -48.8941 -0.028 -0.363 0.931 105 93 95
112.7754 0.9792 -50.2973 -0.639 0.185 -0.747 116 104 106
112.7747 0.1800 -50.3140 -0.661 0.135 -0.738 119 107 109
114.5754 -10.4788 -51.4189 -0.118 -0.991 0.063 122 114 112
114.9643 -10.7370 -51.6140 0.099 -0.835 0.541 128 120 118
115.4315 -12.2967 -51.8750 -0.267 0.150 0.952 133 125 123
113.6546 -12.5274 -51.0135 -0.055 -0.119 0.991 133 125 123
113.6132 -12.7810 -50.9987 -0.055 -0.110 0.992 132 124 122
113.6309 -13.0354 -51.0128 -0.055 -0.132 0.990 132 124 122
108.9788 -16.0670 -48.8089 -0.009 -0.946 0.324 123 115 112
111.2050 -16.4296 -49.9022 0.072 -0.793 0.605 120 112 109
112.4658 -16.7469 -50.5237 0.069 -0.749 0.660 103 98 95
113.6144 -17.0633 -51.0905 0.067 -0.761 0.645 94 89 86
113.6410 -17.3145 -51.1088 0.078 -0.459 0.885 98 94 91
115.4329 -25.1706 -52.1498 0.095 -0.670 0.736 114 114 114
95.0863 -28.7858 -42.3056 0.149 -0.370 0.917 157 162 172
95.3878 -29.0421 -42.4580 0.149 -0.370 0.917 201 212 224
86.6842 88.1983 -35.9935 -0.892 -0.319 -0.322 66 82 55
86.9256 87.5901 -36.1245 -0.362 0.277 0.890 57 73 48
86.5030 86.4251 -35.9413 -0.396 0.363 0.843 36 52 27
86.3486 84.7039 -35.9012 -0.383 0.397 0.834 90 100 91
88.9290 82.1227 -37.2202 -0.956 0.174 -0.236 64 79 53
109.8027 87.0019 -47.3572 -0.221 0.036 0.975 71 91 55
109.2532 86.0946 -47.1065 -0.228 0.032 0.973 85 101 76
108.0569 80.6808 -46.6317 -0.843 -0.496 0.207 93 103 78
107.4400 79.4016 -46.3556 -0.648 -0.750 0.137 90 99 72
100.5548 60.6819 -43.3657 -0.614 -0.592 -0.523 122 119 114
105.4470 60.1381 -45.7764 -0.481 -0.873 -0.080 94 92 80
105.0532 55.4540 -45.6801 0.019 -0.464 0.886 104 105 91
105.9518 49.5899 -46.2421 -0.256 0.623 0.739 139 136 130
105.9660 38.8259 -46.4717 0.087 -0.168 0.982 110 105 99
105.1839 35.2392 -46.1623 -0.428 0.826 0.367 117 114 106
105.1292 29.8274 -46.2474 -0.122 -0.850 0.513 115 110 107
104.9916 23.4150 -46.3125 -0.548 -0.717 0.431 102 97 95
104.4230 21.8555 -46.0659 -0.747 0.578 0.328 104 98 98
107.6425 19.3953 -47.6959 -0.114 -0.934 0.340 118 109 110
110.7712 19.8157 -49.2217 -0.093 -0.943 0.319 120 111 112
108.3436 11.9921 -48.1928 -0.032 0.166 0.986 103 98 98
107.3100 10.9533 -47.7073 0.099 -0.903 0.417 119 114 113
111.7938 2.2123 -50.0873 -0.147 0.236 0.960 124 114 115
113.0138 -7.1310 -50.8789 -0.903 -0.113 0.414 122 111 107
113.0265 -7.9060 -50.9012 -0.721 0.177 0.670 133 122 120
113.0712 -9.4490 -50.9550 -0.205 0.023 0.978 122 110 110
113.8613 -10.7270 -51.3689 0.093 -0.861 0.500 134 124 122
113.0998 -11.2383 -51.0060 0.126 -0.732 0.669 141 131 128
113.1042 -12.5086 -51.0345 -0.173 -0.001 0.985 143 135 133
113.0214 -12.7603 -50.9990 -0.053 -0.141 0.989 143 135 133
113.2706 -13.0183 -51.1266 -0.055 -0.166 0.985 143 135 133
112.5933 -16.7482 -50.8715 -0.129 -0.213 0.968 104 97 93
112.8127 -17.0089 -50.9845 0.073 -0.466 0.882 94 89 85
112.6282 -17.7390 -50.9092 0.109 -0.355 0.929 122 117 114
118.4541 -21.5026 -53.8444 -0.071 -0.011 0.997 119 114 110
115.1010 -22.1650 -52.2135 -0.158 -0.285 0.945 138 133 129
114.5770 -25.2978 -52.0213 0.109 -0.669 0.735 109 109 110
94.4655 -28.6589 -42.2267 0.112 -0.342 0.933 148 152 159
94.7538 -28.9111 -42.3733 0.110 -0.340 0.934 198 209 218
86.2607 86.8427 -36.0872 -0.399 0.347 0.849 57 76 46
85.1764 84.5200 -35.5990 -0.463 0.468 0.753 54 66 51
85.7693 84.3825 -35.8942 -0.368 0.301 0.880 76 86 78
85.6774 83.9634 -35.8573 -0.383 0.397 0.834 90 100 92
91.7292 86.2463 -38.7971 -0.617 0.597 0.512 75 98 62
88.9052 82.5154 -37.4787 -0.827 0.158 0.539 79 98 68
88.8733 82.1707 -37.4699 -0.832 -0.343 0.435 62 76 51
108.5932 85.5563 -47.1306 -0.581 -0.308 0.753 123 138 114
108.6401 85.2458 -47.1600 -0.571 -0.288 0.769 123 134 119
103.0385 68.1813 -44.7390 -0.673 0.663 0.328 133 135 122
101.2876 65.4078 -43.9309 -0.805 -0.507 -0.307 132 134 121
101.2635 64.7603 -43.9320 -0.849 -0.428 -0.310 134 136 125
100.6037 61.1147 -43.6797 -0.610 -0.591 -0.528 115 115 107
102.7437 60.9674 -44.7384 -0.549 -0.549 -0.630 115 112 104
103.0016 60.8581 -44.8678 -0.549 -0.549 -0.630 112 109 100
105.6008 55.2988 -46.2617 0.053 -0.177 0.983 102 102 90
106.2561 54.8194 -46.5946 0.087 -0.199 0.976 102 103 88
102.7949 47.3412 -45.0372 -0.016 0.133 0.991 136 133 123
105.3281 37.6783 -46.4809 -0.907 0.379 -0.186 126 121 115
105.0404 37.2401 -46.3478 -0.911 0.374 -0.175 127 122 116
104.5248 35.8276 -46.1218 -0.893 0.448 0.043 122 119 112
104.4245 35.2063 -46.0847 0.039 -0.195 0.980 113 110 103
102.4859 33.1295 -45.1700 -0.652 0.715 0.251 114 109 106
103.5556 30.5759 -45.7490 -0.229 0.556 0.799 109 104 100
104.0119 26.6351 -46.0533 -0.519 -0.015 0.854 105 101 100
105.8066 22.6609 -47.0184 -0.550 -0.729 0.409 103 97 97
104.4639 18.1660 -46.4463 -0.686 -0.624 -0.373 119 110 111
108.2701 16.3361 -48.3607 -0.338 -0.888 0.310 115 109 109
107.4533 15.2953 -47.9787 0.096 -0.574 0.814 117 108 109
107.4436 15.0231 -47.9794 0.101 -0.563 0.820 122 112 111
107.1138 11.4689 -47.8880 -0.040 0.201 0.979 108 104 103
107.1113 11.2038 -47.8921 -0.040 0.194 0.980 114 110 109
110.4118 10.0610 -49.5433 -0.104 -0.568 0.816 126 117 118
110.6525 9.8403 -49.6665 -0.104 -0.568 0.816 119 110 111
110.9212 9.6242 -49.8034 -0.148 -0.555 0.818 115 106 107
111.1962 1.6290 -50.0995 -0.116 0.057 0.992 105 95 96
112.1210 -6.3776 -50.7165 -0.691 0.016 0.722 110 97 91
112.6105 -6.8728 -50.9679 -0.825 -0.298 0.480 122 111 107
112.7116 -12.7449 -51.1357 -0.143 -0.018 0.990 146 136 134
112.6879 -12.9966 -51.1290 -0.170 -0.000 0.985 147 137 134
112.3191 -13.2400 -50.9520 -0.076 -0.113 0.991 136 126 124
110.6728 -13.4483 -50.1440 -0.485 0.649 0.586 117 107 105
110.3037 -13.6842 -49.9667 -0.509 0.579 0.636 113 103 101
107.0816 -14.3040 -48.3895 -0.503 0.446 0.740 118 108 106
112.3702 -16.4817 -51.0423 -0.146 -0.203 0.968 121 113 110
112.1261 -16.7150 -50.9265 -0.129 -0.213 0.968 106 98 96
111.6414 -17.1775 -50.6967 -0.020 -0.031 0.999 100 95 92
111.1228 -17.8750 -50.4548 0.148 -0.474 0.868 119 114 111
116.2465 -21.0285 -53.0459 -0.089 -0.218 0.972 117 112 109
112.0353 -23.7507 -51.0230 -0.025 -0.831 0.555 126 126 124
114.1128 -25.2340 -52.0777 0.147 -0.501 0.853 125 125 124
113.1820 -26.3039 -51.6399 0.105 -0.256 0.961 175 179 188
94.2296 -28.4250 -42.3326 -0.119 -0.053 0.991 148 151 158
94.4128 -28.6538 -42.4275 -0.123 -0.071 0.990 147 151 157
94.4290 -28.8471 -42.4394 -0.123 -0.071 0.990 195 205 214
94.4453 -29.0403 -42.4513 -0.123 -0.071 0.990 211 223 235
85.2564 83.8416 -35.9212 -0.462 0.113 0.880 88 98 90
84.9541 83.1542 -35.7846 -0.557 0.235 0.797 112 122 114
88.7583 82.4535 -37.6859 -0.827 0.158 0.539 78 97 67
88.9434 82.3707 -37.7794 -0.780 -0.589 0.211 60 74 49
88.9648 82.0901 -37.7955 -0.716 -0.686 0.130 33 45 23
89.0729 81.9135 -37.8525 -0.723 -0.682 0.113 23 30 14
109.0576 86.8562 -47.6730 -0.807 0.480 0.345 86 108 69
108.4854 85.9241 -47.4072 -0.978 -0.148 -0.145 102 121 89
108.5363 85.6173 -47.4384 -0.978 -0.148 -0.145 121 135 114
114.0748 84.0384 -50.2174 -0.355 0.470 0.808 67 76 49
107.2523 76.6860 -46.9751 -0.472 0.183 0.863 66 74 50
102.5171 68.7884 -44.7792 -0.557 -0.780 0.285 133 135 121
101.1800 65.4086 -44.1816 -0.802 -0.510 -0.312 126 128 115
100.3022 64.3501 -43.7666 -0.725 -0.688 -0.034 131 131 121
97.3998 60.9881 -42.3918 -0.617 0.721 0.317 130 130 120
105.1541 61.3593 -46.2324 -0.802 -0.176 -0.570 102 101 83
104.7582 59.1566 -46.0788 -0.832 -0.122 -0.540 92 91 71
103.3394 56.8520 -45.4197 0.093 -0.400 0.912 94 96 74
99.5895 49.1018 -43.7098 -0.262 -0.441 0.858 103 103 93
101.2484 40.1096 -44.7080 0.006 -0.020 1.000 124 120 111
103.6250 39.1473 -45.9060 0.041 0.003 0.999 119 114 109
105.0433 36.7231 -46.6570 -0.912 0.366 -0.188 113 110 103
104.6297 36.2251 -46.4614 -0.857 0.502 -0.119 112 109 100
104.2744 35.7593 -46.2942 -0.861 0.490 -0.135 112 109 102
103.8611 35.2671 -46.0987 -0.958 0.035 0.286 111 108 101
104.0149 35.0598 -46.1791 -0.951 0.053 0.306 109 106 98
103.9137 34.7258 -46.1353 -0.700 0.685 0.202 109 106 97
106.3614 13.7018 -47.7592 -0.351 -0.935 0.053 121 109 109
106.6260 13.5044 -47.8944 -0.358 -0.932 0.060 121 109 109
107.3595 13.4250 -48.2599 -0.361 -0.930 0.072 121 109 109
99.4355 10.4323 -44.3861 -0.112 -0.197 0.974 102 98 97
106.2870 11.3073 -47.7689 -0.052 0.185 0.981 108 104 103
109.9997 10.0048 -49.6366 -0.106 -0.570 0.815 108 99 100
109.4928 9.0912 -49.4028 -0.104 0.329 0.938 101 95 95
108.5571 5.2103 -49.0141 -0.628 -0.354 0.693 117 109 107
110.7897 1.8642 -50.1870 -0.145 0.239 0.960 116 106 107
107.1358 -9.7514 -48.6001 0.090 -0.577 0.812 132 119 112
112.4447 -12.7303 -51.2924 -0.146 -0.139 0.979 146 135 130
112.2608 -12.9783 -51.2060 -0.170 -0.002 0.985 146 135 129
111.9930 -13.2231 -51.0778 -0.527 0.494 0.692 136 125 120
110.4708 -13.4342 -50.3266 -0.485 0.649 0.586 117 108 103
110.1270 -13.6706 -50.1606 -0.506 0.582 0.636 117 108 103
106.8583 -14.2883 -48.5507 -0.503 0.446 0.740 122 112 110
112.3599 -16.4748 -51.3232 -0.956 -0.278 -0.097 118 110 108
110.8335 -17.1211 -50.5784 -0.017 -0.054 0.998 106 101 98
110.7599 -17.3595 -50.5465 -0.063 -0.226 0.972 106 101 98
113.2136 -25.3502 -51.9196 0.183 -0.455 0.871 104 103 100
112.3752 -26.1837 -51.5198 0.105 -0.256 0.961 174 179 185
94.0559 -28.5835 -42.4763 -0.365 0.328 0.871 146 149 157
94.0128 -28.7632 -42.4584 -0.360 0.320 0.876 192 201 210
93.9395 -28.9359 -42.4253 -0.360 0.320 0.876 215 225 237
83.8539 83.0391 -35.5060 -0.462 0.463 0.756 53 65 52
84.0290 82.6746 -35.6003 -0.440 0.197 0.876 66 72 68
84.4153 82.8767 -35.7892 -0.910 -0.305 0.281 84 91 84
84.5204 82.7149 -35.8447 -0.764 -0.589 -0.264 103 113 105
84.0614 81.8307 -35.6324 -0.550 -0.662 0.509 109 116 106
84.0664 81.5427 -35.6403 -0.543 -0.643 0.540 94 102 87
88.8213 82.6457 -37.9926 -0.835 0.039 0.549 76 95 65
89.0742 82.0302 -38.1304 -0.750 -0.643 -0.155 26 33 17
89.2215 81.8999 -38.2064 -0.749 -0.657 0.091 32 34 22
89.7977 82.2799 -38.4868 -0.825 -0.543 0.158 52 57 42
91.0338 83.1267 -39.0878 -0.681 -0.544 0.490 51 73 36
108.9366 86.8540 -47.9526 -0.807 0.480 0.345 79 101 63
108.8950 86.4522 -47.9394 -0.993 0.015 0.117 85 103 71
108.7825 85.9806 -47.8922 -0.994 0.005 0.105 86 99 79
107.8399 84.3309 -47.4529 -0.975 0.208 0.072 92 103 89
105.7177 77.7613 -46.5176 -0.480 -0.774 0.413 76 84 61
99.9880 64.1744 -43.9142 -0.730 -0.683 0.033 107 107 97
102.1904 56.0844 -45.1660 -0.763 -0.470 -0.444 91 94 66
99.6113 49.7709 -43.9978 -0.241 -0.482 0.842 107 107 97
102.4906 46.6985 -45.4928 0.007 -0.033 0.999 130 128 113
100.4793 39.7339 -44.6203 -0.376 -0.670 0.639 132 128 119
100.3972 39.4065 -44.5855 -0.404 -0.679 0.613 129 124 118
101.2822 39.0595 -45.0337 -0.449 -0.707 0.547 127 122 116
105.9320 38.4051 -47.3667 -0.873 0.470 -0.126 95 90 84
105.5808 37.9297 -47.2004 -0.907 0.379 -0.186 95 90 84
105.3423 37.5150 -47.0893 -0.910 0.374 -0.181 95 90 84
105.1715 37.1370 -47.0111 -0.910 0.374 -0.181 104 101 92
104.5537 35.9580 -46.7250 -0.890 0.454 0.050 110 107 98
103.8844 35.3360 -46.4027 -0.949 0.108 0.296 107 104 97
103.8166 35.0181 -46.3749 -0.953 0.107 0.282 102 99 90
103.7052 34.6793 -46.3256 -0.720 0.679 0.145 102 99 88
103.0461 34.0721 -46.0081 -0.432 0.819 0.377 101 98 89
100.8056 32.4230 -44.9211 -0.432 0.821 0.373 114 109 106
99.8666 26.6220 -44.5618 -0.990 -0.141 -0.011 111 107 104
99.9023 26.3731 -44.5843 -0.990 -0.141 -0.011 107 103 100
99.7820 26.0589 -44.5302 -0.933 -0.190 -0.306 107 103 100
100.2813 25.4753 -44.7904 -0.969 -0.064 -0.240 103 99 98
100.8023 25.4237 -45.0514 -0.976 -0.147 0.160 104 100 99
103.0670 23.6433 -46.2153 -0.142 -0.567 0.812 113 108 105
105.1075 19.2510 -47.3165 -0.381 0.599 0.704 105 95 94
104.1802 18.6860 -46.8644 -0.605 -0.746 -0.280 119 109 108
108.8337 8.7202 -49.3749 -0.077 0.253 0.964 100 94 94
109.8756 1.2476 -50.0358 -0.089 0.440 0.894 104 94 95
109.6185 -6.4597 -50.0528 -0.090 0.488 0.868 123 108 101
106.1821 -9.7510 -48.3998 0.089 -0.584 0.807 139 126 118
106.7091 -9.9854 -48.6672 0.083 -0.743 0.664 136 123 115
111.3598 -12.7009 -51.0396 -0.164 -0.366 0.916 147 136 130
111.3299 -12.9496 -51.0293 -0.176 -0.363 0.915 146 135 129
110.9026 -13.1887 -50.8206 -0.515 0.599 0.613 139 128 122
110.3178 -13.4214 -50.5331 -0.511 0.602 0.614 124 113 107
109.9197 -13.6561 -50.3389 -0.506 0.582 0.636 123 112 108
108.9352 -13.8707 -49.8515 -0.680 0.358 0.640 123 112 108
108.6319 -14.1027 -49.7045 -0.731 0.361 0.579 123 112 110
110.0235 -17.0648 -50.4549 -0.016 -0.064 0.998 106 101 98
109.2161 -17.2535 -50.0555 -0.082 0.014 0.997 106 101 98
112.8216 -25.7752 -52.0157 0.181 -0.445 0.877 166 167 169
111.4765 -26.2851 -51.3540 0.104 -0.258 0.961 165 168 172
93.7447 -28.5228 -42.5464 -0.741 0.617 0.265 145 149 158
93.5918 -28.6782 -42.4730 -0.737 0.622 0.265 188 197 207
93.7471 -28.9002 -42.5547 -0.657 0.658 0.367 217 227 239
80.6248 81.2287 -34.1837 -0.671 -0.255 -0.696 69 88 56
83.2897 82.4222 -35.4996 -0.461 0.457 0.761 51 64 50
83.6846 82.3461 -35.6992 -0.440 0.197 0.876 55 61 58
84.2596 82.7931 -35.9797 -0.878 -0.478 0.011 62 68 62
84.1227 82.3207 -35.9196 -0.766 -0.613 -0.193 65 75 67
84.0287 81.9047 -35.8800 -0.793 -0.584 -0.172 62 69 59
84.0272 81.6081 -35.8847 -0.788 -0.589 -0.178 50 59 43
88.8948 82.8511 -38.3054 -1.000 -0.004 -0.028 68 87 59
89.0528 82.1197 -38.3981 -0.750 -0.643 -0.155 26 33 17
89.1423 81.9201 -38.4466 -0.754 -0.651 0.086 30 34 20
89.7286 82.3129 -38.7338 -0.825 -0.543 0.158 53 59 44
90.6370 83.0847 -39.1757 -0.667 -0.535 0.519 72 84 60
90.9041 83.0894 -39.3097 -0.681 -0.544 0.490 64 86 49
107.5198 88.7679 -47.5468 -0.768 -0.349 0.537 59 84 45
98.8733 69.8354 -43.5519 -0.171 0.188 0.967 79 83 66
98.8710 67.6414 -43.5908 -0.257 -0.868 0.425 132 134 122
89.5622 58.7063 -39.0811 -0.581 -0.809 -0.085 138 140 129
99.4488 61.6582 -43.9900 -0.368 -0.819 0.441 73 71 59
96.3246 55.8575 -42.5276 -0.288 -0.644 0.709 106 107 91
102.9151 58.2467 -45.7923 -0.597 -0.358 -0.718 81 84 55
99.2077 43.8347 -44.1943 -0.059 0.190 0.980 101 99 86
99.2652 43.5874 -44.2277 -0.049 0.150 0.987 121 117 106
100.2613 39.3911 -44.8043 0.117 -0.252 0.961 120 115 109
104.4001 32.2410 -47.0123 -0.259 0.712 0.653 116 111 107
102.1466 27.6401 -45.9651 -0.977 -0.106 -0.186 114 110 107
102.1292 27.3617 -45.9615 -0.976 -0.115 -0.185 112 108 105
102.1208 26.0076 -45.9819 -0.989 0.053 -0.141 103 99 98
107.4410 16.2139 -48.8313 -0.010 -0.578 0.816 118 112 112
106.9684 14.4650 -48.6260 -0.184 -0.052 0.982 135 123 123
108.0616 13.6727 -49.1892 0.117 -0.612 0.782 121 109 109
108.7709 9.5379 -49.6207 -0.043 -0.017 0.999 123 114 115
107.4150 7.4148 -48.9788 -0.101 0.318 0.943 127 121 121
106.7047 5.2113 -48.6625 -0.216 -0.966 -0.144 115 107 105
109.5882 1.7556 -50.1730 -0.090 0.378 0.921 119 109 110
109.7801 -1.8499 -50.3352 -0.533 -0.227 0.815 113 103 102
108.4033 -6.7483 -49.7334 -0.080 0.465 0.882 126 111 104
102.3884 -8.1686 -46.7400 -0.278 -0.031 0.960 145 132 126
109.8567 -13.4007 -50.5844 -0.498 0.566 0.657 129 118 112
109.6889 -13.6410 -50.5046 -0.498 0.566 0.657 129 118 112
109.3701 -13.8757 -50.3488 -0.496 0.568 0.657 129 118 114
107.8827 -14.3092 -49.6101 -0.483 0.566 0.668 124 113 111
109.4793 -17.0251 -50.4611 -0.016 -0.064 0.998 106 101 98
108.6151 -17.2091 -50.0306 -0.068 -0.013 0.998 106 101 98
108.1797 -18.1264 -49.8288 -0.389 -0.919 -0.065 120 115 112
111.5124 -23.9225 -51.6076 0.036 -0.757 0.652 125 122 117
112.7560 -24.3258 -52.2392 0.031 -0.794 0.607 119 116 111
112.4602 -25.0063 -52.1031 -0.449 -0.231 0.863 118 115 110
112.3989 -25.2370 -52.0765 -0.459 -0.252 0.852 110 109 103
112.4651 -25.4856 -52.1143 -0.459 -0.252 0.852 105 105 102
112.1723 -25.6815 -51.9709 -0.457 -0.243 0.856 118 120 120
110.8443 -26.1901 -51.3135 0.103 -0.257 0.961 154 158 161
93.5858 -28.1176 -42.6854 -0.600 0.705 0.378 149 152 161
93.4770 -28.2833 -42.6338 -0.622 0.691 0.367 160 163 172
93.6814 -28.5154 -42.7406 -0.741 0.617 0.265 172 176 185
93.5018 -28.6650 -42.6532 -0.732 0.622 0.278 199 208 218
93.6588 -28.8874 -42.7361 -0.657 0.658 0.367 204 214 226
83.1155 82.3121 -35.6776 -0.639 0.023 0.769 55 66 54
84.2947 82.9558 -36.2616 -0.746 -0.566 0.351 50 56 51
84.4883 82.9081 -36.3602 -0.808 -0.539 0.239 44 54 46
84.3139 82.3868 -36.2813 -0.755 -0.626 -0.193 44 52 40
84.3692 82.1612 -36.3132 -0.758 -0.629 -0.174 42 49 34
89.1261 82.6314 -38.7066 -0.985 0.157 -0.066 24 36 14
88.9640 82.1285 -38.6336 -0.753 -0.654 0.074 23 30 14
89.0794 81.9600 -38.6948 -0.754 -0.651 0.086 25 29 15
89.6594 82.3460 -38.9808 -0.825 -0.543 0.158 61 67 52
109.1499 86.9462 -48.7398 -0.961 -0.274 -0.032 66 87 48
108.2683 85.3460 -48.3229 -0.975 -0.222 0.005 75 87 69
107.2822 84.0105 -47.8486 -0.938 0.296 -0.178 75 87 69
98.9745 53.5682 -44.1913 -0.852 0.080 -0.517 80 84 51
99.0858 53.3555 -44.2513 -0.560 -0.725 -0.401 80 84 51
101.7288 50.1897 -45.6415 -0.673 -0.174 0.719 97 97 87
99.9484 37.3252 -44.9695 0.063 0.212 0.975 98 93 87
103.2270 35.9710 -46.6487 -0.011 0.003 1.000 102 99 90
103.2677 32.0472 -46.7384 -0.168 0.509 0.844 111 106 103
100.4146 26.4186 -45.3973 -0.282 -0.871 0.402 119 115 112
103.1798 26.4871 -46.7922 -0.416 -0.889 0.192 101 97 96
102.3072 14.7968 -46.5578 -0.024 -0.346 0.938 130 124 124
105.7924 13.9221 -48.3328 0.124 -0.490 0.863 141 129 129
106.4382 7.5155 -48.7719 -0.105 0.311 0.944 121 115 115
105.6438 6.5907 -48.3871 -0.456 -0.446 0.770 127 121 121
107.6481 0.2519 -49.5108 -0.088 0.382 0.920 118 106 108
108.2555 0.0665 -49.8208 -0.453 -0.087 0.887 117 105 107
110.2327 -3.0788 -50.8744 0.046 -0.963 0.267 105 95 94
108.5896 -13.1174 -50.2220 0.091 -0.403 0.911 143 132 128
114.8435 -16.5927 -53.4407 -0.842 0.512 -0.170 119 111 109
108.5886 -16.9638 -50.2893 -0.093 -0.072 0.993 106 101 98
107.8575 -17.1545 -49.9236 -0.069 -0.016 0.997 106 101 98
107.6467 -17.8472 -49.8293 -0.463 -0.886 -0.039 104 99 96
108.0501 -18.1123 -50.0377 -0.435 -0.854 -0.285 115 110 107
109.1147 -18.4303 -50.5808 -0.424 -0.859 -0.288 124 119 116
112.5747 -22.3680 -52.3971 -0.352 -0.153 0.923 130 125 122
111.7523 -24.1930 -52.0141 0.031 -0.794 0.607 126 123 118
109.9969 -26.2941 -51.1649 -0.036 -0.490 0.871 155 159 162
93.4816 -28.2902 -42.8621 -0.606 0.705 0.370 163 166 175
93.7106 -28.5279 -42.9819 -0.612 0.641 0.463 176 179 191
93.5865 -28.6897 -42.9221 -0.612 0.641 0.463 200 207 218
93.7001 -28.9029 -42.9833 -0.625 0.635 0.453 203 213 225
88.9113 82.4883 -38.8814 -0.986 0.154 -0.060 30 42 20
88.8901 82.1553 -38.8763 -0.754 -0.651 0.086 19 26 10
89.0165 82.0000 -38.9432 -0.754 -0.651 0.086 22 26 12
89.6522 82.4532 -39.2582 -0.799 -0.557 0.226 74 79 64
95.5441 67.8562 -42.4985 -0.181 -0.628 0.757 66 68 57
89.4817 58.8038 -39.5744 -0.596 -0.798 -0.087 138 137 132
95.1695 54.8199 -42.5302 -0.462 -0.436 0.772 100 101 85
99.5542 54.3720 -44.7643 -0.737 0.314 -0.598 77 80 49
97.8316 43.9459 -44.0671 -0.012 -0.165 0.986 100 98 83
98.5434 42.7090 -44.4496 0.022 -0.281 0.959 126 122 111
103.0684 26.4893 -47.0234 -0.416 -0.889 0.192 101 97 96
107.4706 11.4486 -49.5148 -0.122 -0.213 0.969 114 110 109
104.7930 4.6863 -48.2703 0.084 -0.474 0.876 112 104 102
106.6612 4.2277 -49.2268 0.080 -0.526 0.847 112 102 101
107.6609 0.5297 -49.7973 -0.075 0.358 0.931 110 100 101
109.2031 -2.1202 -50.6255 -0.456 -0.434 0.777 112 102 101
109.4365 -2.3557 -50.7480 -0.495 -0.368 0.787 106 96 95
108.3123 -3.2129 -50.1918 0.096 -0.963 0.254 105 95 94
107.3261 -13.0795 -49.8591 0.092 -0.410 0.908 145 134 130
114.4503 -16.5645 -53.5358 -0.842 0.502 -0.199 132 124 122
108.0530 -16.9248 -50.2937 -0.091 -0.068 0.994 106 101 98
106.3241 -17.2823 -49.4219 -0.432 -0.873 -0.226 94 89 86
106.9325 -17.5572 -49.7355 -0.436 -0.873 -0.219 91 86 83
107.7178 -17.8477 -50.1392 -0.436 -0.873 -0.219 100 95 92
108.6605 -18.1535 -50.6230 -0.423 -0.859 -0.289 112 107 104
109.3156 -24.5685 -51.0649 0.083 -0.267 0.960 118 115 110
108.9739 -26.3664 -50.9220 -0.318 -0.122 0.940 167 171 174
109.0051 -26.6011 -50.9418 -0.318 -0.122 0.940 169 173 176
108.2641 -26.9368 -50.5713 0.078 -0.838 0.539 169 172 177
93.5077 -28.1129 -43.0986 -0.599 0.706 0.378 159 162 171
93.4914 -28.2983 -43.0935 -0.598 0.709 0.374 169 171 183
93.6143 -28.5133 -43.1596 -0.571 0.656 0.493 182 185 197
93.4844 -28.6738 -43.0964 -0.571 0.656 0.493 200 207 219
93.5928 -28.8859 -43.1550 -0.625 0.635 0.453 204 212 225
87.9105 91.0229 -38.5115 -0.627 -0.728 0.277 65 84 52
88.8223 82.4969 -39.1171 -0.992 0.119 -0.047 33 45 22
88.9026 82.2862 -39.1616 -0.818 -0.573 0.043 14 22 5
89.3174 82.4771 -39.3703 -0.785 -0.550 0.285 20 26 11
89.5709 82.4720 -39.4998 -0.799 -0.557 0.226 85 91 75
112.4046 89.7107 -51.0413 -0.963 0.108 0.247 62 75 51
92.6827 63.2121 -41.4050 -0.381 0.633 0.674 153 149 146
99.2449 65.1437 -44.7244 -0.507 0.642 0.575 135 132 125
100.0432 61.7990 -45.1869 -0.352 -0.836 0.420 76 74 61
100.0798 61.2135 -45.2153 -0.926 0.333 -0.175 70 68 55
99.9015 60.7616 -45.1316 -0.926 0.333 -0.175 71 72 56
94.9577 54.7331 -42.7060 -0.462 -0.436 0.772 84 85 70
94.9816 54.1790 -42.7273 -0.476 -0.176 0.861 79 81 61
97.0974 47.7574 -43.9132 -0.425 0.371 0.826 84 86 62
97.1297 35.0957 -44.1375 0.018 -0.210 0.978 108 103 97
98.1451 30.0132 -44.7395 -0.239 -0.533 0.812 111 106 103
98.6281 29.9755 -44.9867 -0.253 -0.502 0.827 111 106 103
99.7814 29.9791 -45.5756 -0.225 -0.724 0.652 109 104 100
99.5514 29.6045 -45.4643 -0.258 -0.760 0.596 97 92 86
99.7722 27.3030 -45.6149 -0.967 -0.244 -0.070 116 112 109
99.8351 27.0646 -45.6509 -0.967 -0.244 -0.070 117 113 110
102.9570 26.4915 -47.2545 -0.416 -0.889 0.192 101 97 96
105.2644 12.5359 -48.6619 0.007 -0.020 1.000 120 115 115
104.3701 11.2744 -48.2259 -0.117 0.247 0.962 112 108 107
106.0623 8.7973 -49.1307 -0.143 0.175 0.974 93 84 85
105.3423 7.3589 -48.7867 -0.131 0.416 0.900 112 106 106
106.0535 4.1561 -49.2024 0.079 -0.528 0.845 107 97 96
104.2893 3.3746 -48.3144 -0.497 -0.074 0.864 119 107 109
106.9148 0.4625 -49.7029 -0.087 0.369 0.925 115 105 106
108.9783 -1.8652 -50.7949 -0.726 -0.413 0.551 116 106 105
109.0338 -2.1161 -50.8273 -0.526 -0.347 0.777 116 106 105
109.2307 -2.3545 -50.9318 -0.533 -0.368 0.762 113 103 102
110.6602 -7.1156 -51.7399 -0.273 0.368 0.889 139 126 120
107.8341 -13.5637 -50.4026 0.063 -0.564 0.823 140 129 125
108.2222 -13.8158 -50.6049 0.063 -0.564 0.823 134 123 119
114.5309 -16.5624 -53.8716 -0.842 0.502 -0.199 132 124 122
107.7427 -16.9000 -50.4107 -0.058 -0.160 0.985 110 105 101
105.9250 -17.0186 -49.4844 -0.539 -0.782 -0.314 105 100 97
106.4387 -17.2851 -49.7511 -0.444 -0.860 -0.251 97 92 89
106.9598 -17.5543 -50.0216 -0.385 -0.892 -0.235 93 88 85
107.9789 -17.8619 -50.5471 -0.389 -0.890 -0.237 104 99 96
111.4008 -21.9918 -52.3623 -0.308 0.040 0.951 131 126 123
109.1372 -23.6137 -51.2330 -0.235 -0.088 0.968 135 132 127
110.1644 -25.1574 -51.7829 0.095 -0.503 0.859 105 104 101
108.6632 -26.3197 -51.0354 -0.318 -0.125 0.940 149 152 157
93.3791 -27.9028 -43.2564 -0.432 0.439 0.788 166 169 178
93.3910 -28.0942 -43.2656 -0.436 0.456 0.775 163 166 175
93.4646 -28.2986 -43.3066 -0.402 0.458 0.793 172 174 186
93.4793 -28.4905 -43.3172 -0.417 0.459 0.785 186 189 201
93.3827 -28.6581 -43.2706 -0.417 0.459 0.785 201 208 219
93.4180 -28.8540 -43.2919 -0.404 0.444 0.800 204 212 225
93.2265 -28.9995 -43.1965 -0.686 0.556 0.469 203 212 227
189.8169 218.6252 -89.1146 -0.643 0.601 0.475 43 51 38
88.9687 83.7190 -39.4546 -0.578 0.105 0.809 39 59 27
88.9799 82.8042 -39.4748 -0.464 0.069 0.883 37 51 25
89.6298 83.2801 -39.8010 -0.708 0.120 0.696 21 34 9
89.5849 82.9153 -39.7837 -0.708 0.120 0.696 24 37 12
89.5401 82.5514 -39.7665 -0.708 0.120 0.696 43 59 31
90.0820 82.8894 -40.0394 -0.766 -0.479 0.429 47 66 34
95.5062 67.0996 -43.0746 -0.206 0.100 0.973 141 143 132
92.6426 63.5581 -41.6599 -0.474 0.606 0.639 148 147 142
91.8624 62.5518 -41.2751 -0.464 0.599 0.653 143 142 138
96.5356 61.9810 -43.6841 -0.512 0.541 0.667 125 122 115
95.9334 61.1666 -43.3877 -0.510 0.535 0.674 125 122 115
96.4504 47.3845 -43.8710 -0.651 -0.111 0.751 87 91 63
96.4565 47.1072 -43.8785 -0.631 0.007 0.776 85 86 70
96.3798 46.7739 -43.8444 -0.502 0.331 0.799 98 98 89
97.0138 34.0201 -44.3715 0.017 -0.406 0.914 106 102 93
96.8795 30.2502 -44.3621 -0.176 -0.803 0.569 103 98 95
98.8480 29.3311 -45.3876 -0.436 -0.803 0.406 97 92 88
99.0577 29.1614 -45.4980 -0.436 -0.803 0.406 96 91 88
102.8457 26.4937 -47.4855 -0.416 -0.889 0.192 106 100 102
103.0072 16.6673 -47.7238 -0.618 0.346 0.706 120 112 110
103.0814 13.3093 -47.8149 0.084 -0.513 0.854 143 133 132
104.5573 12.1314 -48.5915 -0.085 -0.412 0.907 106 100 100
104.0522 7.6433 -48.4030 -0.124 -0.373 0.920 110 101 100
106.1901 0.1461 -49.6195 -0.090 0.380 0.921 117 105 105
108.9049 -2.1084 -51.0493 -0.534 -0.331 0.778 118 108 107
107.8650 -3.7154 -50.5406 -0.163 0.212 0.963 127 116 114
109.3606 -7.4019 -51.3670 -0.265 0.372 0.890 145 131 127
114.2033 -16.5378 -53.9984 -0.863 0.447 -0.235 132 124 122
106.0967 -17.0245 -49.8428 -0.549 -0.774 -0.317 111 106 103
107.2037 -17.3316 -50.4162 -0.594 -0.691 -0.411 104 99 96
107.2796 -17.5718 -50.4590 -0.371 -0.919 -0.137 99 94 91
108.9904 -17.9304 -51.3433 -0.437 -0.798 -0.415 109 104 101
109.7430 -21.5692 -51.7873 0.003 -0.805 0.593 122 117 114
110.5380 -21.8945 -52.2007 0.003 -0.802 0.597 124 119 116
110.7509 -22.1574 -52.3142 -0.334 -0.657 0.676 126 121 118
109.2251 -25.7184 -51.5868 -0.226 -0.686 0.691 87 91 94
108.7228 -26.1022 -51.3349 -0.508 -0.217 0.834 111 115 118
108.7746 -26.3402 -51.3653 -0.508 -0.217 0.834 136 140 143
108.7876 -26.5718 -51.3756 -0.499 -0.223 0.837 144 148 151
92.9740 -28.2003 -43.2801 -0.315 0.178 0.932 165 167 179
93.0475 -28.4039 -43.3211 -0.314 0.178 0.933 194 197 208
93.1226 -28.6079 -43.3629 -0.311 0.178 0.934 203 210 222
93.2805 -28.8303 -43.4474 -0.306 0.244 0.920 204 211 226
93.0535 -28.9678 -43.3330 -0.679 0.553 0.483 203 210 228
81.2435 82.9332 -35.7598 -0.818 -0.221 -0.530 71 90 58
90.3783 85.8798 -40.4330 -0.751 0.549 0.367 50 69 37
89.5916 84.2872 -40.0508 -0.709 0.289 0.643 31 47 18
89.4153 83.1384 -39.9772 -0.814 0.007 0.581 26 40 14
89.5625 83.0053 -40.0553 -0.838 0.096 0.537 25 39 13
93.2413 80.6982 -41.9903 -0.538 0.302 0.787 24 46 8
106.1803 81.2797 -48.6641 -0.914 -0.210 -0.348 100 112 90
100.5567 73.1902 -45.8825 -0.554 0.678 0.483 110 112 101
92.1211 63.1694 -41.6780 -0.474 0.606 0.639 137 136 131
97.3178 62.7420 -44.3684 -0.462 -0.881 0.100 119 116 109
96.6949 61.9060 -44.0594 -0.462 -0.887 0.027 120 117 111
94.3897 58.4763 -42.9209 -0.403 -0.898 0.176 81 79 67
99.0188 52.1445 -45.4079 -0.635 -0.246 0.733 79 82 50
96.0972 46.9320 -43.9781 -0.529 0.292 0.797 84 85 68
105.0769 27.7369 -48.9074 -0.103 -0.457 0.884 113 104 107
100.7869 23.5724 -46.7550 -0.151 -0.173 0.973 116 108 106
100.7825 23.3066 -46.7568 -0.152 -0.170 0.974 116 108 106
100.5523 22.1675 -46.6552 -0.206 -0.172 0.963 105 97 95
107.5005 10.4855 -50.4212 -0.496 -0.637 0.590 113 107 107
104.6049 7.2713 -48.9745 -0.115 0.347 0.931 122 112 111
104.8232 3.7574 -49.1406 0.077 -0.537 0.840 118 108 109
105.4600 3.6038 -49.4718 -0.031 -0.452 0.891 118 108 109
107.6225 1.8723 -50.6150 -0.754 0.627 0.194 123 111 111
106.3208 0.6870 -49.9607 -0.149 0.502 0.852 109 99 98
105.4592 0.0818 -49.5249 -0.507 0.165 0.846 114 102 102
105.4640 -4.1225 -49.5912 -0.171 0.144 0.975 124 113 111
108.9096 -7.6537 -51.4244 -0.269 0.356 0.895 146 132 129
107.1002 -13.7654 -50.5827 -0.978 0.163 -0.128 133 122 118
109.2282 -16.7406 -51.7270 -0.013 -0.425 0.905 129 121 118
106.2269 -17.0278 -50.1813 -0.549 -0.803 -0.232 119 111 108
107.5304 -17.3485 -50.8593 -0.594 -0.691 -0.411 112 104 101
108.3580 -17.6422 -51.2912 -0.439 -0.795 -0.419 107 99 96
109.3549 -21.7617 -51.8687 0.020 -0.826 0.563 116 111 108
110.4408 -22.1210 -52.4349 0.020 -0.826 0.563 118 113 110
108.4887 -24.9179 -51.4692 0.104 -0.355 0.929 116 113 110
108.7962 -25.8859 -51.6427 -0.015 -0.850 0.527 86 90 93
108.6719 -27.0144 -51.5957 -0.590 -0.807 -0.023 165 169 172
92.9170 -28.1942 -43.4766 0.021 -0.178 0.984 158 160 172
92.9848 -28.3965 -43.5147 0.021 -0.178 0.984 197 200 211
93.2443 -28.6407 -43.6524 0.024 -0.214 0.977 207 214 226
90.4624 91.5617 -40.6830 -0.843 0.366 0.394 77 85 68
86.1358 85.0205 -38.5311 -0.786 0.593 0.175 33 45 24
90.2282 85.8162 -40.6451 -0.751 0.549 0.367 53 68 39
89.4412 84.5350 -40.2550 -0.963 0.244 -0.117 31 45 19
89.2336 83.9686 -40.1554 -0.964 0.242 -0.112 33 47 21
89.1824 82.9739 -40.1433 -0.921 -0.167 -0.352 24 38 12
89.4782 83.0208 -40.2962 -0.911 -0.095 -0.401 26 42 13
92.9565 82.3938 -42.1119 -0.787 0.610 0.093 66 90 59
92.9160 81.0782 -42.1101 -0.976 -0.093 0.198 43 63 34
103.6090 76.8550 -47.7254 -0.561 0.633 0.533 87 89 78
94.5067 66.9619 -43.1420 -0.171 -0.629 0.758 143 145 134
90.6959 62.5202 -41.2274 -0.459 -0.741 0.491 142 144 133
90.8469 62.3732 -41.3080 -0.459 -0.741 0.491 138 138 130
91.1208 62.0511 -41.4550 -0.441 -0.747 0.497 138 137 133
93.3046 62.2903 -42.5857 -0.940 0.080 -0.333 140 139 134
96.1637 61.5398 -44.0816 -0.456 -0.889 0.027 131 128 122
95.8141 60.9427 -43.9087 -0.916 0.401 -0.018 127 124 115
95.7090 60.5562 -43.8598 -0.845 0.534 -0.036 106 104 92
95.6257 60.1893 -43.8219 -0.795 0.607 -0.016 92 90 77
97.5226 52.3012 -44.9220 -0.658 -0.164 0.735 78 81 52
97.6351 52.0930 -44.9835 -0.600 0.031 0.800 80 83 54
97.7749 51.9042 -45.0588 -0.647 0.077 0.758 80 83 54
99.2130 28.2670 -46.1502 -0.411 -0.372 0.832 112 103 104
99.9924 26.4782 -46.5811 0.090 -0.072 0.993 102 99 94
100.3434 26.3599 -46.7652 0.098 -0.200 0.975 103 98 95
100.4455 26.1359 -46.8214 0.098 -0.200 0.975 108 103 101
100.1768 22.5939 -46.7335 -0.175 -0.218 0.960 90 82 80
100.2481 22.3589 -46.7739 -0.175 -0.218 0.960 95 87 85
99.2790 21.4781 -46.2835 -0.211 -0.157 0.965 107 98 99
101.8185 17.9413 -47.6539 -0.717 -0.408 0.566 107 99 97
98.6929 15.9379 -46.0598 -0.570 0.475 0.670 119 111 109
100.6524 15.5196 -47.0836 -0.660 0.225 0.717 114 105 106
102.1343 13.1260 -47.8882 0.051 -0.428 0.902 136 126 125
104.1181 8.9914 -48.9788 -0.566 -0.541 0.622 114 110 109
104.4943 8.8151 -49.1767 -0.266 -0.624 0.735 114 110 109
103.9775 7.6850 -48.9248 -0.547 -0.542 0.638 112 102 101
104.9568 0.0440 -49.5448 -0.529 0.209 0.823 119 107 107
102.7441 -7.8460 -48.5105 -0.486 -0.874 0.023 142 131 127
103.1696 -8.0671 -48.7347 -0.484 -0.875 0.029 141 130 126
107.3558 -13.5250 -50.9885 -0.974 -0.179 -0.137 137 123 120
108.1276 -13.7879 -51.3932 -0.998 -0.055 0.031 122 111 107
108.2884 -17.3944 -51.5293 -0.593 -0.681 -0.430 128 119 114
109.2382 -21.9833 -52.0894 0.001 -0.864 0.504 112 107 104
109.3528 -22.9386 -52.1629 -0.083 -0.307 0.948 145 142 137
107.9398 -23.6893 -51.4399 0.146 -0.702 0.697 132 131 126
108.5426 -24.0014 -51.7576 0.145 -0.702 0.697 136 133 128
109.0256 -26.1547 -52.0398 -0.011 -0.838 0.546 85 89 92
108.7452 -26.8005 -51.9036 -0.583 -0.812 -0.039 154 158 161
108.8549 -27.0481 -51.9642 -0.609 -0.793 -0.018 164 168 171
109.5416 -27.3932 -52.3259 -0.595 -0.803 -0.019 171 174 179
92.7211 -27.9708 -43.5979 -0.638 -0.359 0.681 155 158 167
92.7926 -28.1737 -43.6380 -0.638 -0.359 0.681 157 160 169
92.8641 -28.3767 -43.6781 -0.638 -0.359 0.681 195 198 209
93.0697 -28.6091 -43.7883 -0.641 -0.372 0.671 208 214 226
93.0216 -28.7864 -43.7659 -0.646 -0.376 0.664 202 210 223
257.4825 315.1096 -125.0924 -0.375 -0.468 0.801 56 73 39
90.5517 91.8070 -41.0196 -0.663 0.440 0.606 75 87 66
89.2830 84.1478 -40.4638 -0.934 0.182 -0.307 34 49 20
89.2963 83.8520 -40.4749 -0.907 -0.159 -0.391 42 58 29
89.3530 83.6093 -40.5079 -0.907 -0.159 -0.391 35 51 22
89.4097 83.3666 -40.5409 -0.907 -0.159 -0.391 23 39 10
89.5963 83.2808 -40.6395 -0.899 -0.175 -0.401 26 43 13
89.2668 82.5726 -40.4773 -0.936 0.341 -0.087 37 57 24
102.2096 94.9163 -47.0652 -0.523 0.240 0.818 52 79 38
92.4359 81.5954 -42.1462 -0.787 0.595 0.166 93 113 88
92.5928 81.4584 -42.2301 -0.929 0.362 0.074 65 84 62
92.0842 80.2502 -41.9813 -0.543 -0.388 0.745 26 47 18
92.8669 80.5043 -42.3866 -0.757 0.215 0.617 39 61 22
101.4339 74.8853 -46.9396 -0.480 0.671 0.565 138 140 129
91.3270 64.0670 -41.8116 -0.449 -0.893 0.039 142 144 133
92.8426 62.8421 -42.6203 -0.938 0.044 -0.343 139 138 133
96.4380 62.4650 -44.5035 -0.505 -0.802 0.319 118 116 105
96.8360 62.2050 -44.7150 -0.249 -0.749 0.614 116 113 103
96.2884 61.4356 -44.4397 -0.904 0.425 0.048 108 106 93
96.2167 61.0754 -44.4073 -0.851 0.524 -0.033 81 79 64
95.8359 60.4542 -44.2171 -0.795 0.607 -0.016 72 73 55
96.2132 60.4756 -44.4139 -0.813 0.575 -0.090 73 74 57
94.2805 58.5540 -43.4312 -0.423 -0.880 0.216 87 88 71
97.1324 60.0490 -44.8999 -0.369 -0.843 0.392 83 84 66
97.3278 52.2349 -45.1110 -0.658 -0.164 0.735 91 94 65
98.9734 28.4751 -46.3021 -0.229 -0.609 0.760 115 106 107
98.9640 28.2051 -46.3009 -0.411 -0.372 0.832 110 101 102
98.9368 27.9276 -46.2906 -0.387 -0.443 0.808 107 99 97
97.5525 26.2707 -45.5907 -0.033 -0.570 0.821 107 104 99
98.8971 21.6367 -46.3577 -0.210 -0.154 0.966 118 110 108
101.6654 17.9311 -47.8553 -0.717 -0.408 0.566 117 109 107
101.6100 17.6532 -47.8302 -0.717 -0.387 0.580 118 110 108
101.6861 15.3471 -47.9022 -0.967 -0.085 0.239 100 91 92
103.9141 8.7214 -49.1583 -0.558 -0.555 0.617 104 100 99
104.1104 8.5070 -49.2638 -0.560 -0.549 0.621 103 99 97
104.1423 8.2577 -49.2840 -0.561 -0.505 0.656 102 94 92
104.2995 8.0342 -49.3692 -0.543 -0.541 0.643 104 96 94
103.9396 7.7059 -49.1858 -0.543 -0.556 0.629 112 102 101
104.5869 5.0325 -49.5612 0.022 -0.422 0.907 94 89 86
105.4946 4.1671 -50.0474 0.069 -0.289 0.955 118 108 107
106.2752 1.4848 -50.4925 -0.077 0.418 0.905 119 107 107
104.9203 -5.1020 -49.8768 -0.220 -0.703 0.677 132 118 115
101.2351 -7.1903 -47.9811 -0.693 -0.586 -0.420 127 116 114
102.3288 -7.8467 -48.5615 -0.526 -0.842 -0.122 142 131 129
103.1329 -8.0551 -48.9844 -0.484 -0.875 0.029 141 130 126
108.2883 -21.8743 -51.8700 0.006 -0.855 0.519 112 107 104
92.6301 -27.9575 -43.7765 -0.743 -0.368 0.559 157 160 169
92.7512 -28.1709 -43.8427 -0.731 -0.382 0.566 156 159 168
92.8255 -28.3746 -43.8844 -0.731 -0.382 0.566 192 195 205
93.0506 -28.6112 -44.0052 -0.731 -0.366 0.576 209 216 227
90.5199 91.8952 -41.2960 -0.400 0.428 0.810 75 87 65
80.5132 77.1585 -36.2367 -0.475 -0.491 -0.731 54 66 44
89.3830 84.3894 -40.7990 -0.933 0.175 -0.315 34 51 19
89.3987 84.0957 -40.8111 -0.907 -0.159 -0.391 43 59 30
89.4555 83.8525 -40.8442 -0.907 -0.159 -0.391 33 49 20
101.9439 95.8099 -47.2440 -0.628 0.122 0.769 45 72 31
101.4906 94.5626 -47.0226 -0.316 0.308 0.898 43 70 29
92.3629 81.6269 -42.4010 -0.782 0.604 0.152 81 101 76
92.6289 81.6145 -42.5409 -0.929 0.362 0.074 50 69 47
91.6288 79.8471 -42.0392 -0.539 -0.400 0.741 30 50 21
91.7178 79.6355 -42.0887 -0.539 -0.400 0.741 45 67 32
92.9549 80.7169 -42.7240 -0.764 0.098 0.638 56 78 39
91.6613 62.7270 -42.2845 -0.281 -0.940 0.195 139 139 131
92.4660 62.5901 -42.7090 -0.993 0.090 -0.072 139 139 131
92.5441 62.3692 -42.7530 -0.968 0.085 -0.238 139 139 133
93.5453 62.3914 -43.2786 -0.070 -0.930 0.361 137 137 127
96.5187 62.3231 -44.8412 -0.007 -0.509 0.861 78 77 61
96.6879 62.1672 -44.9321 -0.007 -0.509 0.861 77 76 60
96.6188 61.8067 -44.9007 -0.238 -0.357 0.903 76 75 56
96.0501 59.5332 -44.6323 -0.360 -0.800 0.480 72 74 50
96.2296 59.3859 -44.7285 -0.367 -0.823 0.434 70 73 47
92.2401 55.5069 -42.6848 -0.329 -0.733 0.596 67 70 44
96.7253 52.1566 -45.0853 -0.184 -0.278 0.943 87 90 61
96.6721 51.8284 -45.0617 -0.379 -0.061 0.923 91 94 65
93.5546 40.0053 -43.5820 -0.756 -0.198 0.624 107 108 92
93.7620 39.8673 -43.6928 -0.761 -0.306 0.572 98 101 82
99.8302 28.3746 -47.0333 -0.398 -0.378 0.836 103 95 93
96.4671 25.8479 -45.3006 -0.228 -0.970 0.089 101 98 93
101.9169 19.6248 -48.2460 -0.782 0.563 -0.268 117 112 108
103.0325 10.8568 -48.9489 0.114 -0.422 0.900 114 108 108
105.1293 0.8561 -50.1835 -0.074 0.412 0.908 111 99 99
106.5928 -5.9701 -51.0433 -0.429 -0.525 0.736 129 118 116
99.8927 -6.5467 -47.5318 -0.707 -0.704 0.066 129 118 116
101.9590 -7.8460 -48.6345 -0.568 -0.823 0.015 142 131 129
101.8813 -8.0811 -48.5968 -0.524 -0.849 0.064 141 130 126
105.4498 -12.0378 -50.5238 -0.601 -0.401 0.691 146 132 131
105.4987 -12.2755 -50.5527 -0.610 -0.397 0.686 146 132 129
105.5062 -17.1974 -50.6223 -0.343 -0.850 0.399 136 125 119
107.4249 -17.5626 -51.6349 -0.357 -0.897 0.261 136 125 119
107.3793 -21.7699 -51.6671 0.006 -0.859 0.511 112 107 104
108.8150 -22.1680 -52.4265 0.004 -0.827 0.562 127 122 119
108.0741 -26.2396 -52.0917 0.041 -0.807 0.589 93 93 95
92.4195 -27.7315 -43.8893 -0.982 -0.130 0.136 164 168 177
92.5045 -27.9369 -43.9366 -0.796 -0.346 0.496 155 159 168
92.5692 -28.1382 -43.9733 -0.796 -0.346 0.496 159 163 172
92.6382 -28.3405 -44.0123 -0.790 -0.327 0.519 192 197 206
92.9160 -28.5883 -44.1615 -0.731 -0.366 0.576 207 214 226
92.8199 -28.7550 -44.1132 -0.690 -0.362 0.627 202 210 223
82.6542 85.6193 -37.5163 -0.510 0.443 0.737 76 93 59
74.1266 72.4605 -33.1797 -0.753 -0.481 0.449 57 74 40
73.7092 71.3860 -32.9729 -0.894 -0.203 0.400 52 69 38
89.9718 85.5472 -41.3820 -0.968 0.081 -0.236 16 35 4
89.5233 84.6810 -41.1562 -0.937 0.173 -0.304 26 45 13
89.4922 83.7030 -41.1522 -0.920 -0.158 -0.359 42 58 29
101.1540 94.6536 -47.1722 -0.316 0.308 0.898 50 77 36
92.6706 82.0951 -42.8514 -0.821 0.570 0.042 58 78 53
92.8036 81.9293 -42.9237 -0.914 0.405 0.004 40 60 36
92.6371 81.4217 -42.8423 -0.938 0.316 -0.143 35 55 29
92.3404 66.0936 -42.8805 -0.169 -0.945 0.279 147 147 139
91.2888 62.7635 -42.3674 -0.283 -0.941 0.188 136 136 126
91.5496 62.7145 -42.5058 -0.281 -0.940 0.195 139 139 129
96.0067 62.2707 -44.8655 -0.144 -0.268 0.953 76 73 53
96.1567 62.1001 -44.9469 -0.063 -0.463 0.884 77 74 54
96.0359 61.6959 -44.8882 -0.059 -0.485 0.872 76 75 54
96.3158 58.9489 -45.0710 -0.319 -0.857 0.405 67 72 41
95.9093 51.6285 -44.9494 -0.329 -0.062 0.942 88 91 62
93.2164 40.3893 -43.6701 -0.796 -0.159 0.583 113 111 98
93.2352 40.1350 -43.6833 -0.791 -0.173 0.586 100 101 85
93.2718 39.8920 -43.7057 -0.791 -0.173 0.586 86 87 71
93.3311 39.6631 -43.7399 -0.779 -0.327 0.535 75 78 59
93.3987 39.4393 -43.7784 -0.713 -0.536 0.453 82 83 67
93.3494 39.1438 -43.7561 -0.715 -0.613 0.337 92 93 75
93.3968 38.9078 -43.7842 -0.705 -0.612 0.357 106 107 89
95.7308 37.3526 -45.0367 -0.009 -0.100 0.995 90 87 82
98.4214 28.0607 -46.5759 -0.414 -0.376 0.829 109 100 101
96.8805 25.5580 -45.7939 -0.101 -0.557 0.824 89 86 81
99.2255 19.7796 -47.1060 -0.394 -0.421 0.817 101 95 95
99.9202 19.2474 -47.4797 -0.710 0.666 0.228 104 99 95
99.4157 18.3069 -47.2252 -0.449 0.695 0.562 119 114 110
98.7208 17.5690 -46.8675 -0.449 0.695 0.562 119 114 110
100.2416 16.7822 -47.6807 -0.552 0.537 0.638 124 116 114
101.7347 12.3554 -48.5257 -0.007 -0.347 0.938 109 99 98
94.9135 5.9386 -45.0046 -0.716 0.338 0.611 116 106 105
94.4657 5.6193 -44.7721 -0.663 0.174 0.728 121 111 110
93.4791 5.1967 -44.2564 -0.723 0.259 0.641 122 112 111
103.5695 4.9095 -49.5894 0.018 -0.416 0.909 100 95 92
103.8861 4.2094 -49.7655 0.088 -0.329 0.940 121 113 111
101.6400 3.5968 -48.5870 0.027 -0.683 0.730 126 116 115
103.9666 1.2270 -49.8460 -0.034 0.354 0.935 117 105 105
99.7460 -7.2249 -47.7244 -0.390 -0.907 -0.160 113 102 100
106.7851 -8.4042 -51.4571 -0.301 0.378 0.876 137 126 120
104.4304 -12.0158 -50.2594 -0.310 -0.420 0.853 146 132 131
105.5133 -12.5033 -50.8375 -0.280 -0.553 0.785 146 132 129
105.5699 -12.7413 -50.8705 -0.283 -0.561 0.778 146 132 129
107.9873 -22.0711 -52.2659 0.006 -0.835 0.551 126 121 118
107.8549 -26.4358 -52.2515 0.092 -0.747 0.659 138 136 139
92.3834 -27.7297 -44.0965 -0.988 0.154 -0.001 159 164 170
92.3462 -27.9094 -44.0791 -0.814 -0.270 0.514 146 150 159
92.3941 -28.1068 -44.1069 -0.814 -0.270 0.514 178 182 191
92.4437 -28.3047 -44.1356 -0.952 0.174 0.251 205 211 219
92.6020 -28.5263 -44.2221 -0.974 0.206 0.098 193 200 211
92.4381 -28.6776 -44.1374 -0.981 0.194 -0.008 201 211 223
82.3385 85.0145 -37.6243 -0.660 -0.069 0.748 74 91 57
85.8684 84.8532 -39.5009 -0.776 0.609 0.164 35 45 23
89.8293 85.8091 -41.5930 -0.929 0.299 0.219 29 45 16
90.1095 85.8380 -41.7414 -0.973 0.062 -0.220 16 32 3
89.7655 85.0984 -41.5677 -0.975 0.160 -0.154 29 45 16
89.7059 84.7103 -41.5408 -0.717 -0.274 0.641 21 37 10
90.0136 84.4558 -41.7072 -0.547 -0.529 0.649 49 65 36
93.5779 87.1490 -43.5676 -0.968 0.021 -0.252 47 75 34
99.3645 92.6733 -46.5740 -0.220 0.431 0.875 58 85 44
94.2907 85.3748 -43.9676 -0.911 -0.107 0.398 63 90 49
92.2623 81.4254 -42.9382 -0.832 0.553 -0.037 41 61 37
92.5120 81.3939 -43.0712 -0.900 0.435 -0.026 47 67 40
100.3020 87.8597 -47.1302 -0.988 0.149 -0.037 65 90 35
90.0613 67.4980 -41.9377 -0.757 -0.654 -0.005 50 58 43
90.4000 67.5426 -42.1171 -0.750 -0.661 -0.018 56 64 49
90.7266 67.2788 -42.2937 -0.769 -0.639 -0.025 39 47 32
90.8308 67.0874 -42.3514 -0.816 -0.578 -0.010 50 58 43
92.7048 65.9410 -43.3605 -0.184 -0.905 0.385 145 142 135
92.8875 65.8164 -43.4590 -0.185 -0.902 0.390 145 142 135
90.3337 62.8304 -42.1389 -0.932 0.201 0.301 143 143 135
91.4061 62.6725 -42.7103 -0.275 -0.940 0.203 139 139 127
95.5402 61.6565 -44.9182 -0.056 -0.501 0.864 92 90 67
95.0125 49.0594 -44.7904 -0.160 -0.464 0.871 85 87 64
94.2764 45.2062 -44.4461 -0.709 0.551 0.441 103 102 84
93.3260 40.5213 -43.9980 -0.747 -0.426 0.511 95 93 80
93.1115 40.1204 -43.8889 -0.804 -0.175 0.568 90 91 75
93.1484 39.8776 -43.9114 -0.804 -0.175 0.568 87 88 72
93.1680 39.6243 -43.9249 -0.791 -0.173 0.586 86 87 71
93.2441 39.4060 -43.9680 -0.810 -0.330 0.485 108 109 93
93.2993 39.1747 -44.0001 -0.713 -0.617 0.332 115 116 100
93.2939 38.9064 -44.0004 -0.711 -0.614 0.344 123 124 108
93.3626 38.6834 -44.0397 -0.712 -0.603 0.360 130 131 117
98.5004 27.8808 -46.8990 -0.477 -0.440 0.761 102 97 94
98.2544 27.5072 -46.7729 -0.466 -0.532 0.707 101 96 93
97.2976 25.5240 -46.2887 -0.286 -0.958 0.011 107 104 99
98.3946 19.7837 -46.9408 -0.397 -0.379 0.836 108 102 104
100.1696 19.1138 -47.8916 -0.476 0.739 0.477 104 99 95
100.0135 18.8028 -47.8124 -0.547 0.764 0.340 110 105 101
99.8201 18.4805 -47.7136 -0.549 0.761 0.345 119 114 110
99.6917 16.1389 -47.6738 -0.621 0.205 0.757 96 88 86
100.1400 13.2325 -47.9470 0.053 -0.584 0.810 124 114 113
100.8598 12.6681 -48.3362 0.001 -0.361 0.933 131 121 120
94.8268 5.9469 -45.2134 -0.677 0.178 0.714 116 106 105
94.3127 5.6142 -44.9443 -0.662 0.161 0.732 122 112 111
103.8202 0.7347 -50.0527 -0.402 0.036 0.915 108 96 96
100.3530 -6.4955 -48.2988 -0.070 -0.663 0.745 114 103 101
101.5725 -10.8303 -48.9990 -0.601 -0.476 -0.643 131 117 116
102.1227 -11.0601 -49.2939 -0.702 -0.443 -0.557 140 126 125
102.3785 -11.2912 -49.4326 -0.702 -0.443 -0.557 143 129 128
102.9853 -11.5258 -49.7577 -0.722 -0.440 -0.534 143 129 128
104.6175 -12.0084 -50.6304 -0.315 -0.454 0.833 140 126 125
104.6275 -12.2439 -50.6385 -0.304 -0.455 0.837 135 121 118
104.8027 -12.4820 -50.7345 -0.262 -0.546 0.796 135 121 118
107.2753 -21.9876 -52.1627 0.010 -0.831 0.556 126 121 118
106.9084 -26.2859 -52.0198 0.084 -0.739 0.669 119 114 118
92.4675 -27.7529 -44.3681 -0.958 0.176 -0.225 159 164 170
92.5040 -27.9485 -44.3898 -0.966 0.145 -0.214 146 151 157
92.3828 -28.1105 -44.3274 -0.960 0.177 -0.218 174 179 185
92.4236 -28.3066 -44.3514 -0.962 0.180 -0.207 206 212 220
92.6648 -28.5463 -44.4825 -0.971 0.240 0.007 191 200 210
92.3024 -28.6542 -44.2913 -0.989 0.109 -0.097 201 211 224
82.1568 84.8898 -37.7962 -0.660 -0.069 0.748 63 80 46
85.9762 85.1134 -39.8333 -0.771 0.611 0.180 35 44 23
89.8786 86.3091 -41.9036 -0.943 0.261 0.205 49 65 38
89.7541 85.8375 -41.8425 -0.935 0.285 0.213 28 44 17
90.1823 86.0495 -42.0688 -0.947 0.135 0.291 21 37 10
89.3504 84.7085 -41.6399 -0.733 0.490 0.471 33 49 22
89.5119 84.5925 -41.7275 -0.633 -0.129 0.763 25 41 14
89.7164 84.5281 -41.8374 -0.643 -0.359 0.677 26 42 15
89.6889 84.1800 -41.8267 -0.516 -0.500 0.696 57 73 45
90.2578 83.9250 -42.1335 -0.578 -0.486 0.656 50 74 35
97.7800 90.9304 -46.0702 -0.219 0.454 0.864 68 95 54
97.8180 90.6327 -46.0939 -0.346 0.501 0.793 69 96 55
97.4583 89.8683 -45.9106 -0.344 0.514 0.786 73 99 59
94.2651 85.4653 -44.2558 -0.395 0.492 0.776 58 84 44
91.9625 81.1968 -43.0751 -0.849 0.526 0.050 50 69 44
92.1269 79.1811 -43.1861 -0.964 -0.059 0.261 68 92 41
100.9569 81.5192 -47.8748 -0.603 0.719 0.345 46 72 31
91.5801 65.8505 -43.0470 -0.185 -0.930 0.316 142 137 131
90.5296 63.6824 -42.5109 -0.248 -0.901 0.357 141 138 131
90.2676 62.8591 -42.3805 -0.926 0.295 0.235 140 137 130
90.1761 59.9198 -42.3654 -0.516 -0.759 -0.396 87 88 74
90.5839 60.0025 -42.5822 -0.759 -0.322 -0.566 84 85 69
90.8354 59.9430 -42.7172 -0.785 -0.197 -0.587 77 76 57
94.2433 50.2613 -44.6483 -0.576 0.621 0.532 92 95 66
94.2690 49.1572 -44.6746 -0.458 -0.869 -0.189 75 78 51
94.2739 48.8809 -44.6804 -0.429 -0.884 -0.184 80 81 63
94.3112 45.5743 -44.7383 -0.675 0.587 0.448 83 82 64
93.9010 45.0199 -44.5256 -0.672 0.599 0.436 85 84 66
93.0126 39.8555 -44.1105 -0.804 -0.175 0.568 94 95 79
93.1384 39.6682 -44.1798 -0.534 -0.131 0.836 96 97 81
94.2729 36.1049 -44.8265 0.105 -0.229 0.968 113 110 105
94.2445 29.3300 -44.8891 -0.821 0.006 0.571 100 95 92
94.2417 29.0728 -44.8906 -0.821 0.006 0.571 99 94 91
96.7639 28.7179 -46.2416 -0.125 -0.841 0.526 120 111 112
96.7710 28.4598 -46.2484 -0.194 -0.582 0.790 120 111 112
97.8488 16.6077 -46.9600 -0.958 -0.090 0.274 124 116 114
100.3874 12.3245 -48.3648 0.012 -0.342 0.940 114 104 103
100.3861 12.0726 -48.3670 -0.067 -0.240 0.969 114 104 103
101.2476 11.0296 -48.8391 0.115 -0.432 0.895 116 110 110
95.8495 6.4135 -46.0093 -0.867 0.393 0.305 109 101 99
94.5521 5.9170 -45.3221 -0.663 0.203 0.721 116 106 105
93.8527 5.5476 -44.9529 -0.639 -0.232 0.733 122 112 111
97.5110 1.1151 -46.9574 -0.786 0.154 0.599 128 118 117
102.9214 1.1335 -49.8465 -0.793 0.430 0.432 112 100 100
103.5336 0.7202 -50.1782 -0.402 0.036 0.915 106 94 94
105.7043 -5.4797 -51.4086 -0.245 -0.677 0.694 117 104 99
100.4596 -6.4759 -48.6192 -0.085 -0.654 0.751 114 103 101
104.5294 -11.9977 -50.8560 -0.316 -0.525 0.790 128 114 111
104.3152 -12.2300 -50.7443 -0.304 -0.455 0.837 131 117 114
104.4747 -12.4672 -50.8322 -0.262 -0.546 0.796 131 117 114
106.2514 -21.8680 -51.8888 -0.143 -0.755 0.640 117 112 109
106.6859 -22.1487 -52.1241 -0.141 -0.743 0.655 127 122 119
105.5404 -24.9491 -51.5445 0.050 -0.268 0.962 134 129 133
105.9448 -26.1331 -51.7741 0.028 -0.774 0.632 104 99 103
92.5837 -27.7828 -44.6577 -0.958 0.176 -0.227 159 164 170
