ply
format ascii 1.0
element vertex 866
property float x
property float y
property float z
property float nx
property float ny
property float nz
property uchar diffuse_red
property uchar diffuse_green
property uchar diffuse_blue
end_header
429.7844 75.8231 -2.2061 -0.439 -0.442 0.782 129 129 141
360.8442 58.7852 -3.4444 0.038 -0.477 0.878 124 127 136
382.5069 61.1832 -3.4740 -0.011 -0.441 0.898 121 124 133
403.8517 59.5489 -4.0692 0.066 -0.992 0.110 82 82 94
180.1922 138.7308 10.6804 -0.475 -0.871 -0.123 67 63 78
199.0462 159.8404 13.2822 -0.292 -0.837 -0.463 54 46 67
251.5360 176.7572 14.6668 0.154 -0.962 0.226 87 75 89
376.7889 161.5329 10.1884 0.260 -0.606 0.752 77 73 87
360.9690 143.6950 7.9877 -0.865 -0.460 0.200 87 81 91
367.9627 146.6223 8.2665 -0.791 -0.417 -0.447 82 76 86
384.7927 152.4214 8.7629 -0.795 -0.252 -0.551 86 80 90
413.0125 156.0551 8.7428 -0.600 -0.197 0.775 96 86 93
395.9918 143.4631 7.2990 -0.602 -0.438 0.667 102 93 102
394.2693 142.0355 7.1314 -0.367 -0.418 0.831 91 86 93
394.6881 141.5593 7.0569 -0.217 -0.436 0.873 79 76 85
372.5351 130.0213 5.8568 -0.110 -0.930 -0.350 93 87 101
373.6525 129.9030 5.8193 -0.110 -0.930 -0.350 97 93 107
378.7439 116.2720 3.8157 -0.903 0.079 0.423 76 73 80
372.3762 109.0923 2.9299 -0.665 0.002 0.747 87 81 95
370.8861 108.0491 2.8118 -0.564 -0.077 0.822 87 80 96
351.9160 101.0308 2.1847 -0.830 0.163 0.534 86 79 95
365.7528 94.8548 1.0609 -0.002 -0.332 0.943 103 99 113
383.9267 98.1906 1.1873 -0.172 -0.492 0.854 96 92 106
385.3514 97.5795 1.0750 -0.222 -0.486 0.845 102 98 112
352.5876 86.9315 0.1984 -0.131 -0.492 0.860 104 101 110
343.1503 82.2074 -0.2861 -0.686 0.021 0.727 102 96 106
342.1998 81.5384 -0.3620 -0.683 0.020 0.730 98 95 104
358.2000 83.6068 -0.3722 0.068 -0.664 0.744 88 82 92
392.1856 87.4094 -0.4768 0.170 -0.929 -0.328 120 112 123
393.1249 86.6587 -0.5994 -0.920 0.362 0.151 142 138 147
390.7929 79.0387 -1.6225 -0.695 0.062 0.716 113 112 118
379.3251 59.9499 -4.0799 -0.963 -0.266 -0.041 99 99 109
393.3738 59.4573 -4.4121 -0.917 -0.253 0.309 114 114 126
149.7493 145.8216 12.0054 0.188 -0.982 0.015 26 37 57
410.6156 218.0566 16.6674 0.212 -0.575 0.790 91 79 81
380.5587 151.0466 8.0115 -0.888 -0.063 -0.455 82 72 81
406.2724 158.7630 8.5535 -0.441 -0.378 0.814 95 89 87
396.1496 144.9286 6.8466 -0.497 -0.491 0.715 113 107 110
391.0757 141.3320 6.4527 -0.568 -0.472 0.675 95 88 95
391.3693 140.8071 6.3741 -0.364 -0.624 0.692 82 77 84
392.4572 140.6319 6.3276 -0.282 -0.502 0.817 70 67 76
393.5638 140.4617 6.2815 -0.288 -0.349 0.892 74 70 83
396.8409 140.5713 6.2297 -0.144 -0.384 0.912 86 80 94
374.0578 114.0461 3.0258 -0.691 -0.156 0.706 74 71 78
400.7996 89.4957 -0.9170 0.173 -0.976 -0.129 152 145 155
394.2208 86.4582 -1.2028 -0.891 0.248 -0.380 174 173 179
363.2944 77.9594 -1.7465 -0.948 0.158 -0.275 165 164 170
371.6293 78.5387 -1.8367 0.183 -0.910 -0.373 101 100 106
400.4606 78.7019 -2.4033 0.117 -0.673 -0.731 77 76 84
423.7573 73.8724 -3.5475 0.053 -0.763 0.644 76 74 85
264.1953 131.4463 7.2693 0.309 -0.848 0.432 137 135 143
227.0378 84.0547 1.6139 -0.183 -0.532 0.827 70 59 65
408.1071 181.3589 10.9065 -0.267 -0.812 0.519 102 96 110
408.2544 179.8210 10.6931 -0.281 -0.798 0.532 96 88 103
380.4093 145.6707 6.6415 -0.949 -0.028 -0.315 92 87 84
375.3258 140.0202 5.9817 -0.125 -0.748 0.652 90 85 83
378.0459 140.6496 6.0075 -0.172 -0.730 0.661 88 82 84
392.3773 142.6243 5.9602 -0.737 -0.390 0.552 101 95 97
366.9324 129.4619 4.7242 -0.592 -0.366 0.718 77 74 85
366.4531 128.6613 4.6254 -0.741 -0.306 0.598 82 78 92
393.9017 139.3533 5.4794 -0.656 -0.330 0.679 96 89 105
399.8897 137.9809 5.1592 -0.178 -0.586 0.790 81 75 89
370.9530 99.9309 0.5988 -0.660 0.024 0.750 95 89 101
367.9353 98.0062 0.4025 -0.335 -0.215 0.917 87 81 93
372.0994 98.2867 0.3487 0.143 -0.957 -0.252 94 90 104
368.3534 92.3314 -0.3824 0.206 -0.831 0.517 119 115 129
344.6388 83.9244 -1.0067 -0.890 0.314 -0.331 101 98 107
425.6812 75.2011 -3.9927 -0.422 -0.720 0.551 90 88 99
425.1830 74.6257 -4.0603 0.054 -0.852 0.521 89 87 98
423.2759 73.8173 -4.1286 0.078 -0.819 0.568 89 87 98
405.5338 67.2366 -4.6354 -0.296 -0.751 0.590 87 90 99
403.8035 66.5264 -4.6942 -0.108 -0.508 -0.855 83 86 95
388.0959 61.2327 -5.0701 -0.021 -0.802 -0.596 74 76 88
398.0007 210.5080 14.3477 0.195 -0.562 0.804 95 88 91
409.5150 214.6517 14.6328 0.300 -0.626 0.720 122 116 118
402.5244 188.0806 11.2115 0.042 -0.948 -0.316 80 71 76
378.5750 163.4298 8.4536 -0.838 -0.524 -0.152 110 99 115
384.9078 151.2806 6.6621 -0.955 -0.253 -0.157 107 97 105
378.2651 146.6716 6.1981 -0.977 0.148 -0.152 100 94 95
377.6411 141.1555 5.4681 -0.882 -0.323 -0.344 90 85 83
378.4800 140.9043 5.4142 -0.876 -0.265 -0.404 88 82 85
375.6516 138.9548 5.2183 -0.906 -0.062 -0.419 95 89 93
374.8953 137.9751 5.1041 -0.901 -0.075 -0.427 106 100 104
372.2789 134.9145 4.7531 -0.736 -0.090 -0.671 131 125 129
371.1207 133.7787 4.6274 -0.912 0.084 -0.401 117 111 115
392.6530 141.4803 5.1542 -0.614 -0.461 0.641 79 76 83
393.8214 140.0238 4.9297 -0.612 -0.473 0.634 107 101 117
394.3164 139.5846 4.8586 -0.616 -0.460 0.639 107 101 117
396.3544 137.2012 4.4882 -0.581 -0.477 0.659 81 77 91
371.1988 112.0026 1.6850 0.096 -0.633 0.768 77 74 81
375.5130 113.0089 1.7181 0.129 -0.685 0.717 85 82 89
350.2468 100.5625 0.6396 -0.923 0.106 0.370 95 88 104
379.9327 99.6698 -0.1884 0.211 -0.977 -0.028 88 85 97
336.6881 80.5480 -1.7399 -0.871 -0.047 -0.490 86 80 90
356.7253 84.6197 -1.6676 -0.839 -0.026 -0.544 85 81 91
382.3526 80.9774 -2.7701 0.172 -0.951 -0.255 88 89 94
446.1165 90.6466 -2.9840 0.101 -0.592 -0.800 71 71 79
401.4001 63.5717 -5.5744 -0.473 -0.505 -0.722 75 77 89
395.4726 61.0421 -5.7747 -0.912 -0.405 -0.063 59 59 71
419.5110 291.5135 23.8357 -0.124 -0.406 0.905 169 164 170
411.4981 274.4825 21.7687 0.213 -0.553 0.806 144 140 138
334.7043 194.9804 13.1254 -0.997 0.052 -0.055 128 120 117
360.2170 209.6930 14.4365 0.256 -0.738 0.625 139 133 135
358.9238 207.7775 14.2140 -0.061 -0.996 -0.061 138 132 134
387.0247 224.2184 15.6894 -0.885 0.166 0.434 111 100 97
376.2427 214.0622 14.6101 -0.882 -0.410 0.233 117 105 103
393.3661 207.4028 13.2848 0.194 -0.563 0.803 87 81 83
399.2946 209.6552 13.4338 0.194 -0.563 0.803 68 62 64
387.5413 181.5998 9.9919 0.069 -0.971 0.228 86 77 82
415.7097 181.6272 9.2765 -0.631 -0.594 0.499 117 108 124
381.4051 145.5973 5.3467 -0.664 -0.326 -0.673 84 79 76
375.1611 138.1489 4.5126 -0.901 -0.075 -0.427 81 72 77
374.8555 137.3803 4.4179 -0.867 -0.066 -0.495 75 66 71
392.5499 137.5778 3.9926 -0.584 -0.789 -0.191 88 84 98
393.1168 137.1750 3.9244 -0.584 -0.789 -0.191 84 80 94
394.2641 137.0170 3.8740 -0.596 -0.787 -0.159 79 75 89
371.8814 125.7872 2.9476 -0.766 -0.527 0.369 82 76 90
370.8507 108.7157 0.6970 -0.939 0.209 0.272 130 124 139
367.0033 96.8096 -0.7928 0.223 -0.970 -0.093 86 81 88
380.2054 98.7670 -0.8688 -0.959 -0.083 -0.271 85 80 88
364.5135 77.4578 -3.3103 0.054 -0.366 0.929 108 109 114
407.5216 86.1074 -3.2546 0.197 -0.949 -0.247 98 99 104
392.3833 63.5555 -5.8760 0.068 -0.593 -0.802 80 83 92
407.9652 64.5355 -6.1431 -0.591 -0.450 -0.669 70 72 84
405.2859 63.7138 -6.1843 -0.526 -0.509 -0.682 59 59 71
393.0304 60.3138 -6.3249 -0.518 -0.363 -0.774 59 59 71
392.8596 59.8786 -6.3786 -0.365 -0.546 -0.754 59 59 71
210.4644 295.2498 29.0817 -0.674 -0.626 -0.391 73 72 86
405.3842 265.7451 19.8881 0.332 -0.570 0.751 134 130 127
420.5825 275.3473 20.7391 0.330 -0.576 0.748 134 130 127
422.3692 275.6772 20.7339 0.347 -0.580 0.737 133 128 124
331.5678 191.6752 12.1413 -0.950 0.102 -0.295 94 88 88
376.2426 220.6754 14.7449 0.017 -1.000 0.007 92 82 80
389.3805 208.3219 12.7599 -0.057 -0.437 0.898 103 95 92
412.3381 180.6698 8.4925 -0.213 -0.875 0.435 110 102 117
415.6415 181.6626 8.5333 -0.447 -0.787 0.425 109 100 117
380.1711 151.0838 5.4712 -0.911 -0.058 -0.408 81 71 82
383.8740 151.5692 5.4343 -0.658 -0.250 -0.711 90 80 89
380.3251 149.1316 5.2099 -0.922 -0.025 -0.386 98 88 95
366.0435 140.1783 4.4194 -0.801 -0.404 -0.441 78 73 70
370.0688 141.4979 4.4836 -0.818 -0.510 -0.266 77 72 69
374.1628 138.3697 3.9601 -0.861 -0.037 -0.508 79 73 77
374.1424 137.1051 3.7941 -0.465 -0.770 -0.437 71 65 69
365.0555 128.1910 2.8673 -0.931 -0.321 -0.172 117 113 128
396.2634 137.2648 3.2128 -0.512 -0.760 -0.401 67 63 77
403.3979 121.8674 0.9904 -0.577 -0.786 0.223 133 130 137
323.3972 75.1401 -2.9864 -0.898 0.213 -0.384 73 67 77
397.3248 84.8527 -3.7199 0.100 -0.593 -0.799 122 123 128
418.9529 88.6633 -3.8068 0.115 -0.604 -0.789 108 109 114
398.7343 65.3831 -6.3228 0.069 -0.603 -0.795 83 86 95
416.1783 65.7371 -6.7512 -0.132 -0.519 -0.844 67 67 79
404.6782 280.6149 20.9708 -0.351 -0.877 0.329 155 149 158
389.9057 256.7862 18.2988 0.026 -0.702 0.711 101 97 95
379.1933 245.1735 17.0983 0.312 -0.553 0.772 109 105 102
418.9238 274.0532 19.7052 0.335 -0.576 0.746 106 102 99
350.0838 205.2308 12.7452 0.224 -0.727 0.649 83 77 79
347.8228 201.6803 12.3488 0.251 -0.722 0.645 93 87 89
359.2537 208.2233 12.8692 -0.100 -0.974 0.202 94 88 89
382.6987 222.9861 14.1111 -0.025 -0.993 0.112 59 48 44
381.1996 218.0395 13.5111 -0.870 -0.418 0.264 79 68 65
388.2089 205.7967 11.7159 -0.064 -0.475 0.878 80 74 77
391.5802 202.7922 11.2276 -0.618 -0.277 0.736 65 56 59
391.8679 202.1057 11.1300 0.052 -0.984 -0.169 62 53 58
413.0742 208.9003 11.4003 -0.895 -0.000 -0.447 106 96 105
381.4339 165.9442 6.7285 -0.533 -0.565 0.629 99 91 106
411.7716 180.4307 7.7351 -0.213 -0.875 0.435 105 97 112
409.8788 169.1320 6.3203 -0.838 -0.176 -0.516 81 71 80
386.6370 147.5373 4.1839 -0.784 -0.056 -0.618 56 51 48
378.0254 141.4947 3.6471 -0.901 -0.187 -0.390 59 53 52
379.0925 141.3484 3.5972 -0.848 -0.276 -0.453 75 69 72
374.1307 137.1509 3.1948 -0.474 -0.759 -0.446 77 71 75
364.8419 128.7314 2.3684 -0.919 -0.283 -0.275 107 101 113
396.5206 137.4240 2.5826 -0.512 -0.760 -0.401 79 73 87
399.4453 138.0002 2.5729 -0.556 -0.753 0.353 70 64 78
372.0825 125.3775 1.7227 -0.439 -0.392 0.808 70 64 78
372.3706 124.9130 1.6540 -0.439 -0.392 0.808 71 63 78
382.7012 124.3668 1.2841 0.134 -0.803 0.580 77 69 82
420.9362 74.0089 -6.3718 0.115 -0.951 0.288 84 82 93
422.1396 73.7283 -6.4431 -0.420 -0.837 0.352 82 82 92
392.4797 259.1905 17.6978 -0.851 -0.364 0.380 87 83 81
383.3243 235.4009 14.9234 -0.923 -0.096 0.372 83 75 72
382.6616 233.8474 14.7442 -0.404 -0.433 0.806 69 63 63
349.8966 206.0390 12.1769 -0.351 -0.730 0.587 67 61 61
358.9885 208.1047 12.1637 -0.100 -0.974 0.202 81 75 76
383.7390 208.0914 11.4039 0.304 -0.951 -0.061 93 83 81
384.5761 205.1178 10.9965 0.201 -0.957 0.207 95 87 85
390.5887 202.2069 10.4385 -0.908 -0.117 0.402 90 81 84
414.2920 207.9331 10.4478 -0.910 0.009 -0.414 98 90 103
388.8772 184.2427 8.1842 -0.686 -0.524 -0.504 88 79 84
384.3447 178.3123 7.5615 -0.902 0.182 -0.391 83 74 79
383.4961 177.0244 7.4221 -0.900 0.173 -0.401 78 69 74
381.1818 174.1079 7.1185 -0.904 0.161 -0.396 74 65 70
376.1546 166.6907 6.3200 -0.555 -0.176 0.813 74 65 70
408.7749 168.6314 5.5701 0.112 -0.848 0.518 81 71 80
381.5599 143.2038 3.1386 -0.979 -0.120 -0.165 61 55 55
396.7785 137.5837 1.9508 -0.512 -0.760 -0.401 74 68 80
349.6004 107.3477 -0.4868 -0.009 -0.797 0.604 78 70 81
361.9597 111.4454 -0.3392 -0.423 -0.785 0.453 79 71 82
357.2006 108.6434 -0.5532 0.155 -0.969 -0.193 78 71 79
425.8145 116.5875 -1.6346 0.193 -0.929 -0.317 58 52 62
363.3691 95.3262 -2.4522 -0.969 -0.035 0.244 77 73 74
375.9311 80.9990 -4.6767 0.176 -0.845 -0.505 157 158 163
398.6689 63.2642 -7.6504 -0.540 -0.287 -0.791 60 60 72
206.7516 282.2145 25.7809 -0.925 -0.208 0.317 77 76 92
390.9942 269.3654 18.1958 -0.154 -0.957 0.247 87 81 91
386.2388 259.2926 17.0728 -0.980 0.092 -0.178 93 88 92
389.7589 260.2395 17.0790 -0.976 0.087 -0.201 102 97 101
392.1673 259.0349 16.8485 -0.851 -0.364 0.380 78 74 72
383.9901 239.1205 14.5887 -0.879 -0.039 0.476 112 104 101
384.5955 235.5440 14.1158 -0.749 -0.218 0.625 61 55 55
387.6001 228.9715 13.1856 -0.988 0.021 0.154 74 64 62
384.1540 223.3566 12.5853 -0.990 0.032 0.138 62 51 47
391.0200 219.9718 11.9343 -0.831 -0.120 0.543 84 68 78
390.5960 218.7095 11.7880 -0.886 -0.388 0.255 89 73 83
379.1838 206.6809 10.6323 -0.731 -0.663 -0.164 89 80 76
406.2289 223.3610 11.8722 -0.555 -0.263 0.789 77 67 65
408.2159 220.8910 11.4949 -0.695 -0.414 0.588 92 84 83
390.2741 202.0794 9.6905 -0.908 -0.117 0.402 95 86 89
410.7118 201.2318 8.9224 -0.937 0.113 0.331 124 116 129
384.2560 177.5500 6.7760 -0.892 -0.010 -0.452 77 68 73
406.2253 179.1255 6.2654 -0.199 -0.882 0.427 67 59 72
393.5547 160.8770 4.3620 0.320 -0.934 0.162 81 71 80
387.5995 154.2946 3.7202 -0.960 -0.056 -0.276 78 71 78
403.0042 159.0631 3.8266 -0.162 -0.851 0.499 65 56 59
375.6335 139.2068 2.1947 -0.965 -0.159 -0.207 71 61 66
376.2158 138.2092 2.0494 -0.893 -0.095 -0.440 77 66 72
395.8129 136.5814 1.2095 -0.550 -0.489 0.677 66 58 67
398.9901 120.4372 -0.9395 -0.687 -0.705 0.177 51 44 52
371.2377 105.3321 -1.9568 -0.938 -0.334 0.090 70 63 70
371.2929 102.7770 -2.2825 -0.227 -0.329 0.916 55 49 59
361.9657 99.2812 -2.4240 -0.730 -0.104 0.675 59 53 63
350.0363 94.0747 -2.6983 -0.924 -0.171 0.342 54 49 55
410.1370 103.8073 -3.4077 0.214 -0.814 0.539 72 64 75
403.3609 60.0905 -8.7298 -0.033 -0.461 0.887 75 73 86
237.0331 182.1746 11.6741 -0.591 -0.648 -0.482 83 75 92
389.7758 268.3596 17.2571 -0.145 -0.957 0.253 89 83 93
411.8924 286.4597 18.7686 -0.706 -0.525 -0.476 83 78 84
385.0628 228.0533 12.3755 -0.241 -0.932 0.271 81 71 70
387.4086 228.9229 12.4044 -0.983 0.037 0.177 81 71 69
387.0849 227.6853 12.2606 -0.980 0.023 0.196 75 65 63
389.9604 220.2294 11.2301 -0.829 -0.090 0.552 83 68 78
389.9837 219.2974 11.1127 -0.829 -0.090 0.552 84 69 79
407.6864 220.6150 10.6751 -0.695 -0.414 0.588 91 82 83
385.0372 203.8470 9.3483 0.023 -0.960 0.280 90 81 84
412.5523 204.2664 8.4644 -0.480 -0.314 0.819 130 122 135
405.9519 196.5933 7.7292 -0.986 0.155 -0.066 103 96 104
396.9697 188.5220 7.0252 -0.191 -0.935 -0.298 99 90 95
398.8776 188.0177 6.8972 -0.193 -0.925 -0.328 91 82 87
372.7779 167.8016 5.2565 -0.581 -0.448 0.679 79 72 79
377.1250 168.1179 5.1481 -0.469 -0.546 0.695 95 88 95
415.2564 180.1060 5.3501 -0.462 -0.371 0.805 79 71 84
396.4797 163.1800 3.8718 -0.172 -0.511 -0.842 75 68 75
415.7618 169.2251 3.9718 -0.881 -0.001 0.474 64 58 62
372.7006 136.6486 1.3621 -0.994 -0.104 -0.044 70 57 64
373.0853 136.2022 1.2932 -0.993 -0.116 -0.029 75 62 69
371.3218 130.5256 0.6431 0.081 -0.766 -0.638 78 73 81
405.3883 141.9871 0.9175 0.155 -0.851 -0.502 68 61 69
392.6830 135.3205 0.5160 -0.553 -0.425 0.717 65 58 66
391.6312 134.2450 0.4172 -0.471 -0.411 0.781 67 60 68
359.6676 109.6271 -1.5745 0.138 -0.960 -0.243 69 62 70
391.6620 116.7250 -1.7755 -0.404 -0.908 0.113 69 62 70
371.4190 105.4292 -2.4996 -0.993 -0.049 -0.112 55 48 55
361.6880 99.2262 -2.9444 -0.767 -0.122 0.630 74 68 78
350.8576 94.3643 -3.1840 -0.829 -0.175 -0.531 55 50 56
358.9043 94.9871 -3.3799 -0.966 -0.164 0.202 56 51 56
364.0481 95.5958 -3.4788 -0.983 -0.007 0.184 56 51 55
348.9603 90.1465 -3.6470 -0.682 0.121 0.721 57 52 56
228.9346 157.7122 8.4961 -0.718 -0.293 0.632 53 52 31
368.4153 323.9016 24.0252 0.341 -0.916 0.214 54 43 41
390.6210 265.8107 16.0613 -0.577 -0.726 0.375 93 86 93
392.9852 254.4563 14.5753 -0.744 0.048 0.666 61 57 56
388.1492 247.0478 13.8337 -0.196 -0.541 0.818 78 73 69
385.9765 224.9713 11.1863 -0.991 -0.032 -0.132 67 57 55
387.9854 202.4495 8.3346 -0.634 -0.298 0.714 82 71 77
393.5070 203.5533 8.2735 -0.046 -0.758 0.651 65 56 61
383.3178 194.1369 7.4753 -0.900 0.119 0.420 74 65 70
402.6323 188.6834 6.1120 -0.931 -0.358 -0.067 59 52 59
375.9474 167.5056 4.4515 -0.484 -0.447 0.752 77 70 78
410.4675 179.1921 4.6605 0.100 -0.971 -0.217 73 69 84
409.8575 178.0529 4.5416 -0.872 -0.434 0.226 76 70 85
412.9011 178.9010 4.5376 -0.945 0.169 0.281 83 77 90
407.5659 167.4436 3.3140 0.120 -0.825 0.552 68 62 64
375.7939 112.2952 -2.3578 -0.561 -0.755 0.340 62 55 63
360.9761 103.4861 -2.9157 -0.839 -0.163 -0.520 52 45 52
371.9679 105.6487 -3.0415 -0.989 -0.069 -0.130 54 47 55
389.6189 109.3090 -3.2205 -0.924 -0.182 -0.336 67 62 69
333.6502 84.7871 -4.2473 -0.924 0.138 0.358 66 62 63
397.7840 372.1317 27.8918 -0.258 -0.130 0.957 45 41 30
410.6457 279.4474 16.1237 -0.678 -0.684 0.270 48 42 46
382.0668 236.8144 12.0021 -0.381 -0.319 0.868 76 68 66
384.3148 237.6689 12.0219 -0.548 -0.353 0.759 74 66 64
405.0479 249.4482 12.6802 -0.575 -0.282 0.767 79 73 75
411.4552 252.4477 12.8056 -0.153 -0.954 0.259 98 92 94
414.4364 220.6524 8.8221 0.087 -0.595 0.799 61 50 58
396.1700 204.5421 7.5441 -0.368 -0.370 0.853 56 46 53
381.9799 193.3287 6.7099 -0.965 0.241 0.107 56 47 51
413.1806 205.7425 7.0535 -0.624 -0.074 0.778 71 61 70
383.2791 181.9035 5.2699 -0.988 -0.150 0.015 66 56 64
375.2171 167.1507 3.7753 -0.489 -0.440 0.754 63 58 65
404.3755 181.5343 4.4352 -0.930 0.296 -0.219 74 71 80
403.2165 170.6130 3.1486 -0.044 -0.708 -0.705 80 70 81
364.2350 110.8562 -2.6688 -0.785 -0.298 -0.543 64 57 65
368.9335 112.0373 -2.7009 -0.703 -0.196 -0.684 64 57 65
368.4391 111.3216 -2.7695 -0.712 -0.191 -0.675 68 61 69
366.6648 103.4096 -3.6666 -0.878 -0.020 -0.478 54 47 54
396.3036 112.6533 -3.6506 -0.996 0.043 -0.081 55 50 56
222.3155 268.2578 21.2456 -0.597 -0.645 -0.477 89 90 108
408.1275 325.8402 20.8891 -0.314 -0.949 -0.000 77 67 82
386.9362 242.0335 11.6522 -0.271 -0.703 0.658 69 63 63
416.0191 255.1218 12.0859 -0.318 -0.948 0.020 93 84 87
384.2856 226.7653 9.9220 -0.951 -0.249 -0.184 92 84 84
385.1954 226.5060 9.8553 -0.944 -0.263 -0.197 85 77 75
394.3981 188.8392 4.9707 -0.517 -0.636 -0.573 78 71 78
399.1568 189.2523 4.8341 -0.155 -0.920 -0.361 56 49 56
401.1426 188.7806 4.6997 -0.153 -0.924 -0.350 66 60 64
412.8122 189.7777 4.3627 -0.998 0.002 -0.059 73 68 75
374.4446 166.7713 3.1011 -0.486 -0.441 0.754 59 54 61
383.7078 161.7522 2.1356 -0.862 -0.237 0.448 81 73 84
398.4882 163.6675 1.7872 -0.380 -0.725 -0.574 56 50 54
412.4576 145.8401 -0.9009 0.267 -0.888 -0.374 94 86 97
412.5126 145.1707 -0.9835 0.164 -0.863 -0.477 116 109 117
395.2932 135.2796 -1.4976 -0.941 -0.037 0.335 99 92 100
401.7664 136.6555 -1.5857 -0.934 0.052 0.354 88 81 89
359.0276 108.9884 -3.2360 -0.698 -0.436 -0.568 64 57 65
347.5391 99.9412 -3.8730 0.055 -0.966 -0.252 56 49 56
349.2562 100.0528 -3.9268 0.055 -0.966 -0.252 57 50 57
370.4951 105.2313 -4.1361 -0.203 -0.710 -0.674 53 48 54
369.3185 104.3244 -4.1990 -0.170 -0.796 -0.581 54 49 55
380.7192 106.4945 -4.3846 -0.749 -0.406 -0.524 68 63 70
325.9427 78.2625 -5.6316 -0.955 0.298 -0.006 57 49 62
322.5690 76.9654 -5.6554 -0.953 0.300 0.048 61 55 65
398.5575 87.7986 -7.3284 0.159 -0.742 -0.651 80 81 86
420.6332 350.1068 22.2739 -0.637 -0.242 -0.732 88 78 79
420.9846 348.9532 22.1229 -0.594 -0.277 -0.755 82 71 75
407.9397 325.8058 19.9139 -0.326 -0.945 -0.026 71 61 79
418.3771 312.8287 17.9504 -0.464 -0.142 0.875 69 62 56
414.5622 307.6946 17.4981 -0.955 -0.227 -0.191 76 69 63
412.5521 278.9986 14.1811 -0.829 -0.356 0.431 59 49 57
412.8594 252.7064 11.0541 -0.468 -0.030 0.883 73 64 67
385.8983 228.1400 9.2454 -0.994 -0.027 -0.101 85 76 77
385.9357 227.1889 9.1312 -0.994 -0.027 -0.101 78 70 68
400.9725 235.9180 9.5510 -0.833 -0.495 0.247 67 59 57
401.6063 233.3524 9.2212 -0.826 -0.467 0.316 69 60 64
399.4269 177.2750 2.6677 -0.962 0.138 -0.237 126 122 139
400.9769 177.3525 2.6136 -0.352 -0.798 0.490 101 97 114
407.0824 178.3513 2.4825 0.218 -0.882 -0.417 109 105 120
409.7892 179.0352 2.4529 0.218 -0.882 -0.417 95 91 105
406.8239 175.0242 2.0989 -0.807 -0.484 0.337 80 72 83
366.3158 117.6773 -3.0394 -0.968 -0.243 -0.068 79 71 84
364.7794 115.9797 -3.1777 -0.842 -0.417 0.343 69 61 74
349.1843 102.4748 -4.1404 -0.855 0.119 -0.504 81 76 82
353.1914 102.9023 -4.2534 -0.824 0.107 -0.557 62 55 62
380.5520 106.4774 -4.9475 -0.932 -0.206 -0.299 69 64 70
324.1544 78.1832 -5.9954 -0.897 0.234 -0.374 72 68 80
316.0592 75.2292 -6.0147 -0.787 -0.102 -0.609 77 74 83
375.4511 81.5020 -7.6976 0.084 -0.944 -0.318 79 80 85
360.5090 76.7831 -7.6462 0.148 -0.689 0.709 79 80 85
357.7329 75.3276 -7.7052 0.118 -0.605 0.788 79 80 85
413.6892 348.6653 21.3602 0.043 -0.959 0.279 84 71 55
398.3669 321.2476 18.8101 -0.372 -0.701 0.609 67 57 58
398.7702 310.6183 17.5515 -0.683 -0.498 -0.535 68 62 60
411.2078 319.5302 18.0631 -0.664 -0.505 -0.551 66 63 45
415.3523 314.0715 17.2492 -0.454 -0.161 0.876 69 62 43
386.0039 228.3255 8.4837 -0.997 -0.039 -0.060 79 70 71
412.1562 247.9061 9.6577 -0.483 -0.105 0.869 74 66 64
412.1783 246.8469 9.5330 -0.702 -0.025 0.712 68 60 58
384.8105 197.1631 4.8949 0.105 -0.741 0.663 57 46 52
376.8904 172.0547 2.2995 -0.872 -0.109 0.477 76 71 78
401.4082 179.2622 2.0980 -0.959 0.221 -0.179 105 101 116
405.0273 176.4931 1.6206 -0.382 -0.654 0.653 71 67 81
361.5524 128.8241 -2.0968 -0.962 0.244 0.119 55 45 53
371.7281 122.6937 -3.2458 -0.910 -0.192 0.367 70 63 71
371.8149 122.1537 -3.3125 -0.910 -0.192 0.367 85 77 88
364.5670 117.0346 -3.6020 -0.538 -0.833 0.129 73 65 78
363.7367 115.6175 -3.7321 -0.769 -0.394 0.504 68 60 73
363.9346 115.1504 -3.7951 -0.769 -0.394 0.504 69 61 74
387.5654 122.4573 -3.9473 0.030 -0.581 0.814 69 61 72
376.5244 106.7862 -5.3077 -0.589 -0.685 -0.427 59 52 59
330.9604 84.5159 -5.9699 0.130 -0.917 -0.377 54 51 58
327.0243 79.3856 -6.4015 -0.589 0.129 0.798 75 73 84
374.7511 83.1812 -7.9891 0.173 -0.815 -0.553 93 94 99
407.7327 90.5267 -8.5347 0.162 -0.767 -0.621 89 90 95
175.9758 183.9188 11.8869 -0.365 -0.343 0.865 58 57 65
400.5565 318.1873 17.4056 -0.224 -0.783 0.581 64 54 72
411.3859 321.2827 17.2826 -0.574 -0.410 -0.709 69 65 52
414.8901 309.6744 15.7911 -0.453 -0.093 0.887 71 64 58
386.5885 243.1191 9.3812 -0.181 -0.374 0.910 65 59 59
407.9671 249.0128 9.1136 -0.451 -0.024 0.892 95 86 89
412.6364 245.1721 8.4648 -0.727 0.014 0.687 62 54 52
405.7922 189.2730 2.3320 -0.500 -0.651 -0.571 67 62 69
406.8587 186.5489 1.9712 -0.356 -0.171 0.919 74 69 76
376.1619 165.0313 0.8525 -0.546 -0.317 0.775 98 94 109
405.7735 176.9734 0.9168 -0.202 -0.119 0.972 68 64 78
406.1013 176.3570 0.8314 -0.202 -0.117 0.972 66 62 76
361.1169 144.5953 -0.8344 -0.143 -0.832 -0.535 71 62 65
404.2945 155.7620 -1.4598 -0.543 -0.322 0.775 55 45 53
404.5381 155.1583 -1.5400 -0.543 -0.322 0.775 54 44 52
396.3702 149.9073 -1.7831 -0.486 -0.467 0.739 61 48 55
362.0136 129.0778 -2.6606 -0.964 0.242 0.111 56 46 54
361.7571 128.3773 -2.7299 -0.972 0.188 0.143 62 52 60
371.9997 122.8476 -3.8198 -0.891 -0.195 0.409 61 53 64
371.6542 122.1335 -3.8868 -0.905 -0.200 0.375 68 60 71
367.3987 118.7432 -4.0888 -0.669 0.102 0.736 81 73 84
363.3155 116.5862 -4.1564 -0.469 -0.876 0.112 82 74 85
362.7466 115.2755 -4.2821 -0.736 -0.485 0.472 72 64 75
362.9859 114.8263 -4.3444 -0.422 -0.638 0.644 70 62 73
359.1250 112.8093 -4.4057 -0.727 -0.401 0.557 71 63 74
354.5650 110.5459 -4.4645 -0.902 -0.058 -0.427 72 64 75
354.1608 109.8758 -4.5238 -0.818 -0.240 -0.523 71 65 75
382.5135 63.9499 -11.0660 -0.549 -0.414 -0.726 63 63 73
386.9935 60.5212 -11.6590 -0.395 -0.633 -0.666 59 57 70
386.9781 59.7072 -11.7521 -0.633 -0.627 -0.455 59 57 70
379.5777 55.9694 -11.8549 0.066 -0.856 0.513 64 62 75
266.1190 388.9037 30.6546 -0.013 -0.939 -0.342 35 35 43
295.3491 390.7840 29.5244 0.235 -0.889 -0.394 53 46 54
187.4608 135.0533 5.4667 0.343 -0.887 0.308 49 41 54
245.3414 206.1907 10.8779 -0.479 -0.364 0.799 64 58 58
413.1859 312.2008 15.1914 -0.430 -0.099 0.898 72 65 47
389.4365 235.2705 7.5541 -0.592 -0.094 0.800 99 90 93
381.9085 198.7940 3.7613 -0.885 -0.440 -0.153 57 44 54
406.7303 159.1723 -1.8754 -0.092 -0.794 0.601 57 48 53
361.4362 128.2817 -3.2985 -0.969 0.216 0.120 58 48 56
359.8293 126.9874 -3.3715 -0.963 0.199 0.181 59 52 59
359.6163 126.3164 -3.4378 -0.959 0.183 0.217 63 56 63
360.3802 126.0758 -3.5002 -0.898 0.181 0.401 66 59 66
363.2407 126.7454 -3.5557 -0.823 -0.212 -0.527 71 64 71
371.7669 122.7982 -4.3955 -0.477 -0.473 0.741 67 61 71
372.1023 122.3574 -4.4609 -0.477 -0.473 0.741 86 78 89
358.5401 112.0971 -5.0017 -0.854 -0.178 -0.489 79 71 82
404.2453 128.2242 -5.2727 0.191 -0.798 0.572 83 81 87
398.1746 68.1643 -11.8084 -0.404 -0.386 -0.829 68 68 78
393.6915 62.7354 -12.2184 -0.886 0.081 -0.456 60 58 71
385.1682 60.6908 -12.0586 -0.929 -0.206 -0.309 59 57 70
384.8381 59.8366 -12.1403 -0.424 -0.629 -0.652 60 58 71
382.2005 58.6771 -12.1507 -0.294 -0.743 -0.601 58 56 69
244.3790 203.9302 10.1677 -0.709 -0.145 0.691 65 55 60
411.8938 323.5584 15.5565 -0.574 -0.410 -0.709 70 66 57
409.8059 314.3975 14.6318 -0.542 -0.255 0.801 68 62 41
413.0267 306.7854 13.6272 -0.940 -0.245 -0.240 65 58 51
390.5638 236.2862 6.8161 -0.755 0.012 0.655 92 83 86
402.8569 213.2680 3.6566 -0.969 -0.041 -0.243 57 44 53
395.1176 166.7047 -1.1803 -0.933 -0.061 -0.353 99 89 98
394.8461 165.8116 -1.2673 -0.920 -0.265 -0.290 74 64 73
392.7911 163.9826 -1.3738 -1.000 0.019 -0.023 69 59 68
391.4936 162.5649 -1.4704 -0.999 0.006 -0.053 61 51 60
364.7711 144.0046 -2.2716 0.025 -0.995 -0.101 79 70 73
400.0786 156.7353 -2.5315 -0.249 -0.549 0.798 66 57 62
389.1151 147.9792 -2.9877 0.209 -0.910 0.359 56 47 52
390.3044 147.1827 -3.1335 -0.097 -0.686 0.721 59 49 57
392.8675 147.6995 -3.1979 -0.045 -0.723 0.690 65 55 63
371.7920 136.6393 -3.4297 -0.442 -0.535 0.720 78 68 76
241.5330 75.8101 -4.0208 -0.706 -0.106 -0.701 75 65 73
393.9406 137.5434 -4.3845 0.279 -0.899 -0.338 83 78 82
361.7064 115.4957 -5.3128 -0.815 -0.410 0.409 69 62 70
359.0488 112.8601 -5.4808 -0.560 -0.669 0.488 80 72 83
358.5012 111.5951 -5.5961 -0.834 -0.153 -0.530 99 95 102
339.4550 66.4969 -9.7302 0.081 -0.636 -0.767 90 90 98
334.3889 65.1292 -9.6416 0.119 -0.782 -0.612 91 91 99
399.1223 69.2292 -12.2693 0.016 -0.992 0.125 67 67 77
388.7697 67.0876 -12.0152 -0.723 -0.246 -0.646 68 68 78
397.1400 67.5802 -12.3591 -0.972 0.233 0.009 67 67 77
401.4337 66.9390 -12.6355 -0.298 -0.853 0.429 63 63 73
394.0229 64.0746 -12.6025 -0.162 -0.948 0.272 63 63 73
401.6070 64.7705 -12.8862 -0.757 -0.241 -0.607 63 63 73
412.0244 322.4433 14.4438 -0.746 -0.318 -0.586 65 61 50
416.2834 318.4187 13.7902 -0.623 -0.217 0.751 60 53 36
393.2911 219.7578 4.0593 -0.960 -0.241 0.143 82 72 80
393.9419 219.2834 3.9749 -0.953 -0.274 0.127 73 63 71
400.9203 213.8894 3.0362 -0.692 -0.516 -0.505 65 54 59
393.7951 171.3639 -1.2956 -0.503 -0.355 -0.788 57 49 62
394.7303 168.0694 -1.7046 -0.894 -0.164 -0.417 58 48 56
392.0659 164.4032 -1.9769 -0.142 -0.508 -0.850 79 70 75
392.7463 164.0234 -2.0523 -0.566 -0.354 -0.744 72 62 70
403.7938 157.8746 -3.2750 -0.163 -0.690 0.705 84 75 78
388.6575 147.8190 -3.6351 0.217 -0.913 0.347 87 78 83
389.6603 147.6142 -3.7072 -0.070 -0.713 0.698 67 58 63
389.9857 147.0894 -3.7810 -0.077 -0.704 0.706 61 54 62
390.9207 146.8492 -3.8537 -0.091 -0.707 0.701 65 58 66
370.1816 135.9488 -4.0301 -0.468 -0.497 0.731 72 65 73
350.9091 118.7371 -4.9740 -0.526 -0.793 0.306 75 70 76
362.1825 115.7225 -5.8628 -0.824 -0.421 0.378 62 55 63
361.4620 114.3617 -5.9771 -0.356 -0.678 0.643 65 58 66
361.9873 114.0257 -6.0400 -0.356 -0.678 0.643 88 78 87
359.3515 112.4853 -6.0795 -0.828 -0.169 -0.535 107 100 108
360.5203 112.3987 -6.1468 -0.898 -0.320 -0.301 120 116 123
345.9931 99.1397 -6.8897 -0.871 0.052 -0.488 80 73 80
330.2041 83.1785 -7.8680 -0.214 -0.727 -0.652 128 127 135
328.4513 82.2671 -7.8818 -0.948 0.205 0.244 129 128 136
360.2307 71.4697 -10.6403 0.098 -0.719 -0.688 99 99 107
401.8157 70.6009 -12.7895 0.122 -0.924 0.362 67 67 75
392.8382 66.4804 -12.8000 -0.889 -0.077 -0.451 78 78 86
389.1681 65.4726 -12.7298 -0.804 -0.214 -0.555 74 74 82
386.7164 64.6677 -12.6973 -0.945 -0.214 -0.246 72 72 80
389.0874 64.6158 -12.8201 0.091 -0.995 -0.042 70 70 78
400.1350 65.4449 -13.2744 0.117 -0.981 0.156 68 68 76
369.6616 57.3974 -12.6559 -0.898 -0.440 0.029 83 82 90
359.8887 54.6168 -12.4796 0.057 -0.562 0.825 75 74 82
371.8284 55.7988 -12.9390 -0.074 -0.537 0.840 76 75 83
170.7254 136.4889 5.6186 0.166 -0.855 -0.492 25 28 37
218.1528 179.1510 7.8232 0.284 -0.873 0.397 44 45 41
410.0922 326.2581 13.9741 -0.731 -0.373 -0.572 84 76 88
407.4738 246.9133 5.5011 -0.386 -0.029 0.922 67 58 59
407.4606 233.3212 4.0274 -0.884 -0.285 0.371 87 80 87
396.6164 224.2419 3.5966 -0.932 0.243 0.267 89 82 89
397.0331 220.6835 3.1893 -0.962 -0.240 0.132 67 56 64
401.6222 223.0567 3.2123 -0.691 -0.714 0.113 67 56 64
401.5457 214.4156 2.2789 -0.740 -0.362 -0.566 72 61 63
401.7076 213.5924 2.1813 -0.866 -0.278 -0.415 71 61 63
400.1683 189.5729 -0.3455 -0.777 0.039 -0.628 86 79 86
411.3118 182.7606 -1.6538 -0.883 -0.199 -0.426 64 57 64
412.0006 182.3215 -1.7366 -0.946 -0.142 -0.292 59 49 58
398.8930 170.3786 -2.3624 -0.713 -0.267 -0.648 90 81 84
366.4041 146.8919 -3.2502 -0.867 -0.282 0.411 61 52 55
370.9898 147.9189 -3.3731 -0.951 0.146 0.273 67 56 60
403.0195 157.5608 -3.9636 -0.165 -0.646 0.745 76 67 70
388.2003 146.3089 -4.4270 -0.611 -0.211 0.763 68 62 69
368.3912 135.7907 -4.5559 -0.450 -0.509 0.734 63 58 65
369.5229 135.6961 -4.6240 -0.468 -0.497 0.731 63 58 65
384.5628 138.7278 -5.0635 0.218 -0.946 -0.239 63 58 62
388.5919 136.0052 -5.5647 0.207 -0.895 -0.395 71 67 68
381.8435 131.2606 -5.7346 -0.234 -0.491 -0.839 71 66 74
359.5310 113.6580 -6.5041 -0.348 -0.682 0.643 65 55 64
363.4791 114.0975 -6.6581 -0.892 -0.351 -0.284 118 112 120
361.5511 112.8288 -6.6972 -0.918 -0.324 -0.230 135 131 138
361.7304 112.3638 -6.7568 -0.918 -0.324 -0.230 135 134 140
351.6504 99.6656 -7.6192 -0.858 -0.009 -0.514 70 65 71
357.9424 100.3079 -7.8710 -0.966 0.091 -0.241 76 70 72
299.3255 60.3359 -9.2122 -0.946 -0.297 -0.127 104 104 112
372.8815 73.6330 -11.5278 0.084 -0.693 -0.716 90 90 98
367.1692 67.9674 -11.8505 0.132 -0.905 0.404 70 71 76
377.9123 69.5048 -12.2326 0.142 -0.863 0.485 69 70 75
385.1559 67.8090 -12.7866 -0.069 -0.701 -0.709 78 78 86
390.1798 68.2254 -12.9981 0.085 -0.991 -0.100 91 91 99
389.5584 67.2614 -13.0709 -0.213 -0.976 0.035 115 115 123
388.3674 66.6398 -13.0775 -0.967 0.011 -0.255 119 119 127
387.4444 66.0663 -13.0926 -0.976 0.003 -0.217 118 118 126
388.2455 65.7714 -13.1655 -0.973 0.011 -0.232 114 114 122
385.6667 64.5254 -13.1689 -0.948 -0.184 -0.259 95 95 103
403.2779 63.7493 -14.1528 -0.749 -0.079 -0.658 83 82 88
376.6155 58.7571 -13.3322 -0.528 -0.413 -0.742 83 82 88
410.6076 322.6976 12.5809 -0.767 -0.261 0.586 65 54 66
386.8492 281.2784 9.4115 -0.997 0.047 -0.068 53 43 53
387.5294 280.7328 9.3173 -0.980 -0.143 0.138 53 43 53
387.2633 279.2568 9.1737 -0.982 -0.138 0.127 56 46 56
396.3217 220.2608 2.3943 -0.919 -0.322 0.227 72 61 67
385.8362 210.7775 1.9350 -0.492 -0.799 0.345 68 57 63
390.8236 213.4530 1.9574 -0.555 -0.462 0.692 48 37 43
385.2967 208.5739 1.7281 -0.643 -0.170 0.746 50 39 45
401.6063 214.5499 1.5053 -0.799 -0.293 -0.525 122 113 114
401.4466 213.5037 1.4020 -0.915 -0.203 -0.348 140 131 132
399.9447 211.5390 1.2714 -0.985 0.084 -0.150 136 127 128
379.1005 193.8118 0.4786 -0.829 -0.126 -0.545 57 48 51
400.2139 181.4322 -1.9584 -0.853 -0.454 -0.260 60 55 61
400.5627 180.8245 -2.0418 -0.853 -0.454 -0.260 60 55 62
404.0457 179.5761 -2.3590 -0.839 -0.491 -0.234 57 52 59
401.1212 172.4229 -2.9686 -0.824 -0.549 -0.141 60 51 56
396.3217 165.2908 -3.4769 -0.220 -0.528 -0.820 100 91 96
398.0263 165.4352 -3.5515 -0.235 -0.502 -0.833 87 78 83
394.6251 161.4517 -3.7974 -0.840 -0.499 -0.214 62 51 55
404.5668 163.5460 -4.0986 -0.095 -0.816 -0.570 68 57 61
388.5051 147.8594 -4.9260 0.149 -0.936 0.318 68 57 63
390.3593 147.3764 -5.0755 -0.708 -0.258 0.658 72 65 73
389.5371 146.3159 -5.1454 -0.674 -0.166 0.720 67 60 68
388.6205 145.2182 -5.2142 -0.875 -0.196 0.442 61 54 62
388.7232 144.5973 -5.2859 -0.875 -0.196 0.442 57 50 58
388.9731 140.0925 -5.7803 0.112 -0.919 -0.377 63 59 60
386.4798 137.6998 -5.9042 -0.465 -0.733 -0.496 64 60 61
387.5566 137.5287 -5.9793 -0.459 -0.740 -0.491 68 64 65
399.1261 139.2457 -6.4068 0.253 -0.860 -0.443 66 61 67
360.0038 116.0359 -6.8201 -0.578 -0.206 0.790 109 102 110
360.1405 114.4699 -6.9946 -0.400 -0.500 0.768 53 46 54
358.4857 113.2952 -7.0327 -0.671 -0.443 0.595 70 63 71
365.5023 114.9091 -7.2308 -0.220 -0.975 -0.029 117 111 119
364.4252 113.9576 -7.2756 -0.900 -0.276 0.337 129 125 132
345.2570 97.0804 -8.0661 -0.815 0.083 -0.573 69 63 67
349.8300 98.1358 -8.1948 -0.939 0.343 -0.037 67 61 65
386.6105 68.9350 -13.2557 -0.956 -0.236 0.171 87 88 93
382.5364 67.3885 -13.2057 -0.665 -0.199 0.720 81 81 89
383.7688 64.2505 -13.6060 -0.960 -0.031 -0.278 107 107 115
374.1315 58.4321 -13.7186 -0.542 -0.403 -0.737 83 82 88
371.0600 57.6255 -13.6425 -0.677 -0.551 -0.488 83 82 88
359.5546 54.2491 -13.3957 -0.763 -0.611 -0.208 86 85 91
360.6308 54.0291 -13.4760 -0.917 -0.383 0.113 86 85 91
358.5627 53.4104 -13.4329 -0.927 -0.372 -0.047 85 84 90
169.9850 185.5971 10.3015 -0.995 -0.013 -0.102 42 44 57
420.7206 345.5130 13.4475 -0.975 -0.207 0.078 58 48 57
386.9171 281.4844 8.5581 -0.997 0.047 -0.068 80 70 81
390.7938 266.2159 6.7415 -0.940 -0.237 0.245 86 80 84
386.5792 256.7363 5.9745 -0.688 -0.024 -0.725 57 51 54
400.2734 255.3967 5.0872 -0.200 -0.191 0.961 54 45 48
399.9228 253.9962 4.9591 -0.277 -0.107 0.955 65 56 59
400.9698 240.9080 3.5259 -0.440 -0.046 0.897 36 28 26
401.8456 233.3514 2.6836 -0.967 -0.202 0.154 60 51 54
398.6463 225.9503 2.0799 -0.598 -0.631 -0.493 46 37 42
399.1421 225.3375 1.9884 -0.606 -0.628 -0.488 45 36 41
401.0450 222.8324 1.6213 -0.685 -0.721 0.099 60 49 53
402.0098 214.9226 0.7371 -0.797 -0.293 -0.529 131 122 123
399.6947 170.9461 -3.7605 -0.859 -0.353 -0.372 67 58 63
397.5847 169.0450 -3.8453 -0.460 -0.384 -0.800 72 63 68
398.1188 168.5694 -3.9245 -0.460 -0.384 -0.800 86 77 82
396.5877 166.9974 -4.0063 -0.132 -0.517 -0.846 103 94 99
397.1881 166.5622 -4.0848 -0.129 -0.519 -0.845 98 89 94
398.1269 166.3040 -4.1631 -0.224 -0.517 -0.826 94 85 90
399.9266 166.4930 -4.2413 -0.235 -0.509 -0.828 89 80 85
397.0617 162.7676 -4.4768 -0.777 -0.540 -0.324 63 52 56
386.5797 146.3305 -5.6337 -0.380 -0.375 0.846 96 87 92
389.5965 147.0748 -5.7199 -0.642 -0.364 0.675 88 81 89
387.9977 145.6536 -5.7821 -0.884 -0.161 0.440 77 70 78
388.0981 145.0310 -5.8531 -0.866 -0.211 0.454 64 57 65
388.3708 144.4895 -5.9249 -0.865 -0.197 0.462 57 50 58
388.2227 143.7560 -5.9939 -0.875 -0.194 0.443 63 56 64
388.4062 143.1768 -6.0648 -0.863 -0.205 0.462 65 58 66
388.5139 142.5646 -6.1351 -0.863 -0.205 0.462 69 62 70
407.3770 142.1155 -7.2105 0.267 -0.878 -0.398 66 60 70
385.1700 132.1363 -7.0492 -0.365 -0.473 -0.802 67 61 71
363.7908 122.0441 -6.9449 0.050 -0.777 -0.628 67 61 71
383.0225 128.7872 -7.2843 -0.177 -0.440 0.881 78 72 82
368.3376 122.2041 -7.1760 -0.472 -0.832 0.291 83 77 87
392.2897 130.0755 -7.6540 -0.962 -0.106 0.250 115 107 118
358.0876 113.1818 -7.5658 -0.671 -0.443 0.595 102 95 103
366.0566 115.1614 -7.7921 -0.198 -0.980 0.001 99 92 100
365.3413 114.3453 -7.8389 -0.907 -0.329 0.262 93 89 96
365.1189 113.7199 -7.8925 -0.826 -0.388 0.409 83 82 88
346.2199 96.9685 -8.6236 -0.991 0.042 -0.127 64 58 62
362.3628 66.7380 -12.6820 0.133 -0.854 0.503 57 58 63
377.5906 68.2345 -13.3548 0.065 -0.840 0.538 83 84 89
383.1735 67.9411 -13.6899 -0.966 -0.192 -0.175 60 60 68
383.8176 67.6274 -13.7580 -0.658 -0.215 0.722 63 63 71
387.3860 67.8026 -13.9341 0.087 -0.996 0.012 79 79 87
389.1688 67.6711 -14.0451 0.101 -0.986 0.134 97 97 105
389.0010 67.2145 -14.0840 0.057 -0.954 -0.296 109 109 117
397.2186 68.1232 -14.4364 -0.904 0.166 -0.393 112 112 120
396.4551 67.5604 -14.4539 -0.904 0.165 -0.394 111 111 119
387.3362 64.4094 -14.2882 -0.870 -0.187 -0.456 82 82 90
375.5873 56.7214 -14.4561 -0.792 -0.235 -0.564 76 75 81
368.2674 55.0213 -14.2358 -0.735 -0.579 -0.352 74 73 79
319.5313 342.0925 17.7458 -0.168 -0.863 -0.476 40 37 32
409.3283 271.3326 5.3755 -0.129 -0.963 -0.237 72 66 66
405.5744 253.3244 3.7232 -0.561 0.212 0.800 105 100 97
385.8951 234.0533 2.8355 -0.982 -0.140 0.122 85 80 77
385.2613 232.5335 2.7139 -0.983 -0.135 0.121 78 73 70
386.8698 210.7924 0.3738 -0.521 -0.406 0.751 101 90 94
385.7069 209.0478 0.2587 -0.902 -0.041 0.430 98 87 91
403.7652 216.2358 -0.0128 -0.966 0.027 0.256 130 121 122
403.2826 214.9576 -0.1179 -0.953 0.021 0.301 125 116 117
400.5872 212.1627 -0.2556 -0.958 0.025 -0.284 127 118 119
410.6796 197.9466 -2.2940 -0.862 0.151 -0.484 83 77 81
398.2369 169.4620 -4.5419 -0.462 -0.380 -0.801 62 53 56
399.4755 168.5969 -4.7010 -0.238 -0.498 -0.834 48 39 44
398.0279 167.0714 -4.7775 -0.225 -0.516 -0.826 48 39 44
398.9444 166.7990 -4.8572 -0.225 -0.516 -0.826 63 54 59
400.7855 167.0075 -4.9391 -0.232 -0.516 -0.825 85 76 81
395.9496 161.5243 -5.2346 -0.745 -0.544 -0.387 96 87 90
386.4616 146.3304 -6.2733 -0.015 -0.879 0.477 100 91 96
389.9886 147.3147 -6.3698 -0.616 -0.379 0.691 94 87 95
388.0576 145.0672 -6.4938 -0.868 -0.200 0.455 87 80 88
388.1636 144.4487 -6.5637 -0.868 -0.200 0.455 83 76 84
387.9789 143.6985 -6.6310 -0.863 -0.205 0.462 63 56 64
391.9758 138.2563 -7.4188 0.079 -0.750 -0.657 79 75 76
397.6750 139.3924 -7.6217 0.209 -0.854 -0.476 69 64 68
401.7160 140.4479 -7.7396 0.209 -0.854 -0.476 73 68 74
386.5274 132.1299 -7.7464 -0.397 -0.568 -0.721 74 68 78
386.1766 131.3624 -7.8061 -0.380 -0.555 -0.740 73 67 77
387.4603 130.6518 -7.9518 -0.431 -0.657 -0.619 73 67 77
390.3639 131.2157 -8.0567 -0.809 -0.491 0.324 77 71 81
362.0421 114.2089 -8.2242 0.024 -0.992 0.126 77 70 78
365.9856 115.1754 -8.3459 -0.198 -0.980 0.001 75 68 76
366.4517 114.8070 -8.4102 -0.261 -0.964 -0.057 72 67 74
366.0160 114.0984 -8.4590 -0.949 0.157 -0.272 64 62 68
350.1432 97.3599 -9.2986 -0.947 0.317 -0.044 85 76 81
337.8312 90.6646 -9.2992 -0.669 0.054 -0.741 88 79 82
342.1517 81.6944 -10.4703 0.025 -0.656 -0.755 145 142 151
343.3429 81.5964 -10.5474 -0.056 -0.610 -0.791 148 145 154
341.9186 80.8050 -10.5492 -0.424 -0.271 -0.864 145 144 152
364.0153 67.0584 -13.2139 -0.068 -0.423 -0.903 92 93 98
388.7435 65.0696 -14.8100 -0.910 -0.029 -0.414 65 65 73
390.7578 60.7751 -15.3676 0.027 -0.402 0.915 85 84 90
391.4454 58.0004 -15.6934 -0.191 -0.927 0.322 73 72 78
381.9638 56.3978 -15.3261 -0.616 -0.775 0.139 74 73 79
412.2639 324.9430 9.7693 -0.670 -0.479 -0.566 79 68 82
388.4495 273.6244 5.9244 -0.939 -0.021 0.344 64 57 65
388.6880 267.9874 5.3367 -0.569 -0.323 0.756 87 80 87
385.5150 233.8504 2.0452 -0.978 -0.140 0.151 76 71 68
386.1259 210.3480 -0.3829 -0.521 -0.406 0.751 101 90 94
385.2599 207.0155 -0.6720 -0.921 0.003 0.389 83 72 76
404.1111 216.5697 -0.7914 -0.967 0.028 0.254 138 132 132
382.6109 194.7273 -1.7695 -0.766 0.002 -0.642 59 50 53
407.0808 195.8189 -3.0760 -0.094 -0.538 0.837 54 47 54
402.6348 192.2349 -3.1833 -0.639 -0.396 0.659 67 60 67
396.8279 187.0249 -3.3773 -0.828 -0.346 0.442 76 69 76
399.2762 173.1795 -4.9287 -0.818 -0.442 -0.368 71 64 72
401.4241 167.4072 -5.6408 -0.456 -0.431 -0.779 98 89 94
396.9738 162.1117 -5.9221 -0.742 -0.579 -0.337 110 100 103
381.0919 145.1722 -6.7265 0.105 -0.434 0.895 91 82 85
387.8505 144.3589 -7.2009 -0.868 -0.200 0.455 106 99 107
382.2749 139.1960 -7.4035 0.175 -0.845 -0.505 83 76 84
389.4008 132.1200 -8.5367 -0.905 0.004 0.426 64 59 66
389.3683 131.4816 -8.5998 -0.905 0.004 0.426 67 61 71
364.8361 114.7778 -8.8791 -0.182 -0.983 0.025 71 64 72
368.0160 115.4413 -8.9958 -0.840 -0.396 0.371 69 64 71
365.0027 113.7569 -8.9927 -0.954 0.193 -0.231 57 54 61
347.1373 95.9400 -9.7715 -0.917 0.370 -0.146 113 104 109
342.8663 82.3297 -10.9097 0.075 -0.686 -0.724 141 136 143
343.3564 81.2108 -11.0520 -0.389 -0.305 -0.870 124 121 130
369.1396 68.0077 -13.8899 -0.062 -0.430 -0.901 100 101 106
368.9591 67.5689 -13.9241 -0.074 -0.418 -0.906 106 107 112
392.7206 66.5723 -15.4021 0.033 -0.971 0.236 73 73 81
389.6628 65.6591 -15.3180 -0.182 -0.956 -0.228 57 57 65
386.2641 62.2150 -15.4717 0.076 -0.556 0.828 87 86 92
411.3965 338.7909 10.2189 -0.732 -0.121 0.671 63 53 62
410.3102 336.1000 10.0142 -0.721 -0.152 0.676 70 60 69
410.4567 334.7816 9.8735 -0.721 -0.152 0.676 80 70 79
390.6271 308.9146 8.4660 -0.925 0.309 0.222 95 84 98
389.1916 306.0182 8.2616 -0.927 0.309 0.214 84 73 87
411.2495 319.7958 8.3256 -0.548 -0.407 0.730 68 60 70
386.8745 278.2141 5.6155 -0.981 -0.144 0.128 81 71 82
387.5376 267.0413 4.4572 -0.554 -0.349 0.756 60 53 61
389.0152 266.1085 4.2756 -0.561 -0.345 0.752 91 85 89
400.0710 250.0979 2.0130 -0.178 -0.193 0.965 79 73 72
383.5600 233.3700 1.3227 -0.954 -0.244 0.171 82 77 74
384.6892 232.2808 1.1463 -0.982 -0.142 0.126 75 70 67
381.6915 206.3498 -1.2716 -0.900 -0.003 0.437 92 81 85
384.0492 206.2452 -1.4227 -0.941 -0.014 0.338 82 71 75
383.9067 204.3645 -1.6025 -0.796 0.173 0.580 87 78 79
383.2060 195.2075 -2.4777 -0.766 0.002 -0.642 59 50 53
395.8888 189.0243 -3.8533 -0.202 -0.413 -0.888 52 47 53
396.8738 188.7929 -3.9353 -0.147 -0.454 -0.879 57 50 57
397.4669 188.3203 -4.0180 -0.197 -0.412 -0.890 58 51 58
398.4499 188.0830 -4.1004 -0.200 -0.414 -0.888 57 50 58
395.7379 185.6186 -4.1854 -0.246 -0.386 -0.889 55 48 56
397.0735 184.7766 -4.3494 -0.042 -0.482 -0.875 50 43 51
405.9590 181.7574 -5.1817 -0.899 -0.226 -0.376 106 100 110
401.1003 174.2492 -5.6437 0.250 -0.646 0.721 93 86 93
398.1708 171.0959 -5.7848 -0.834 -0.502 0.231 95 86 91
400.5946 170.8628 -5.9527 -0.759 -0.643 -0.101 71 62 65
396.2890 167.7919 -6.0034 0.059 -0.776 0.628 76 67 72
400.4393 167.7168 -6.2584 -0.857 -0.490 -0.161 80 71 76
403.5319 168.5759 -6.3569 -0.536 -0.772 -0.342 96 87 92
387.6479 145.6563 -7.7046 -0.880 -0.174 0.442 90 83 91
387.7376 145.0287 -7.7728 -0.880 -0.174 0.442 95 88 96
387.5380 144.2692 -7.8369 -0.868 -0.200 0.455 92 85 93
387.6443 143.6536 -7.9049 -0.868 -0.200 0.455 74 67 75
387.4507 142.9028 -7.9685 -0.863 -0.205 0.462 78 71 79
383.6297 139.8601 -8.0453 0.175 -0.845 -0.505 88 81 89
395.7507 139.3313 -8.8212 0.031 -0.803 -0.595 73 69 70
389.7633 132.9467 -9.1034 -0.938 -0.043 0.344 52 45 53
389.8953 131.7461 -9.2315 -0.923 -0.038 0.383 62 56 64
391.5700 131.1776 -9.3884 -0.946 -0.197 0.258 73 66 74
390.0829 128.7188 -9.5459 -0.964 -0.008 0.265 75 65 74
365.2379 114.9721 -9.4405 -0.365 -0.147 0.919 79 70 78
344.1823 94.0933 -10.2754 -0.919 0.380 -0.108 102 91 99
348.9022 92.8485 -10.6816 -0.577 -0.019 -0.817 59 52 59
385.8544 77.7276 -14.3998 0.174 -0.785 0.594 103 102 108
373.8843 68.8892 -14.5709 -0.064 -0.428 -0.901 85 86 91
388.0577 66.6997 -15.6355 0.101 -0.994 0.039 126 126 134
382.0462 57.2289 -16.2253 0.053 -0.406 0.912 72 71 77
398.8711 356.7682 11.7468 -0.807 0.099 0.582 52 46 48
409.6638 335.5618 8.9964 -0.895 -0.080 0.438 78 68 77
390.4418 308.8729 7.5478 -0.926 0.311 0.216 93 82 96
388.9442 305.9086 7.3478 -0.927 0.309 0.214 87 76 90
388.1933 303.7674 7.1831 -0.927 0.309 0.214 79 68 82
410.9468 322.4626 7.6278 -0.750 -0.284 0.598 70 59 73
386.3275 269.5147 3.9248 -0.915 -0.163 -0.369 80 73 81
388.1762 266.6103 3.5253 -0.978 -0.198 -0.062 91 84 90
389.4931 263.2385 3.1125 -0.923 -0.292 0.252 60 54 58
395.8461 249.9343 1.4127 -0.282 -0.106 0.954 70 61 64
383.2221 233.1996 0.5394 -0.960 -0.225 0.164 70 65 62
384.9431 233.5971 0.4730 -0.981 -0.137 0.137 56 51 48
383.3752 205.8553 -2.1625 -0.796 0.181 0.577 75 64 68
396.9414 208.0948 -2.7744 -0.914 -0.379 -0.144 103 94 95
397.2364 189.9305 -4.5811 -0.202 -0.413 -0.888 65 58 64
379.3533 165.2941 -5.9097 -0.985 0.140 -0.100 71 65 73
405.1019 173.3530 -6.6961 0.202 -0.724 0.659 72 61 67
393.8973 165.8306 -6.7493 0.058 -0.763 0.644 83 74 79
368.6766 139.9853 -7.7467 0.075 -0.362 0.929 88 77 81
372.7610 140.6641 -7.9305 0.119 -0.432 0.894 84 75 80
387.6138 143.6940 -8.5435 -0.880 -0.174 0.442 79 69 77
383.3681 138.5063 -8.7938 -0.230 -0.553 0.801 88 82 84
389.6410 131.6904 -9.8498 -0.923 -0.038 0.383 57 49 57
390.0597 130.6138 -9.9816 -0.808 -0.486 0.332 66 59 67
361.2164 107.1709 -10.5201 -0.019 -0.397 -0.918 72 65 72
338.8681 94.6507 -10.3817 -0.914 0.180 -0.363 76 66 74
347.1349 96.0043 -10.7556 -0.905 0.280 -0.319 77 66 74
345.0652 94.4099 -10.7857 -0.904 0.311 -0.294 76 65 73
339.4054 92.1390 -10.6620 -0.657 0.067 -0.751 75 64 72
334.4792 90.1269 -10.5578 -0.611 0.024 -0.791 73 62 70
349.3329 84.1293 -12.0598 0.032 -0.632 -0.775 73 66 74
353.0119 84.2492 -12.2738 -0.003 -0.610 -0.792 78 73 80
362.0015 85.2892 -12.7230 0.127 -0.843 -0.523 77 76 84
314.0622 62.8867 -11.9874 0.198 -0.966 0.166 82 81 87
381.9678 71.6689 -15.2892 -0.311 -0.342 -0.887 85 86 91
360.9294 65.3884 -14.6168 -0.720 0.090 -0.689 86 87 92
357.0149 63.1727 -14.5947 0.073 -0.803 0.591 101 101 109
360.2458 63.3362 -14.7769 0.068 -0.819 0.570 111 111 119
386.0541 66.3953 -16.0592 0.150 -0.899 0.412 114 114 122
361.3362 59.7170 -15.2002 0.073 -0.574 0.816 81 81 89
363.6059 59.3058 -15.3799 0.013 -0.383 0.924 80 79 85
378.2451 59.4917 -16.2599 -0.313 -0.886 -0.342 72 71 77
358.3168 54.8885 -15.4904 0.068 -0.462 0.884 66 65 71
367.9157 55.7889 -15.9907 0.075 -0.465 0.882 65 64 70
355.1487 53.4122 -15.4413 0.048 -0.814 -0.578 65 64 70
408.0535 311.2797 5.7446 -0.766 -0.322 0.556 63 56 64
408.2872 308.8025 5.4900 -0.814 -0.311 0.491 62 55 63
389.0296 267.5328 2.7099 -0.981 -0.194 -0.023 74 67 73
388.8650 262.7901 2.2612 -0.793 -0.451 0.409 55 49 53
384.2473 232.1330 -0.4151 -0.962 -0.114 0.247 65 57 55
382.3529 204.3302 -2.9869 -0.750 0.183 0.635 73 62 66
382.7271 203.7098 -3.0706 -0.753 0.202 0.627 82 72 73
403.6883 193.9763 -5.3349 -0.268 -0.301 0.915 69 58 62
406.2710 190.4132 -5.8427 -0.080 -0.478 -0.874 95 85 89
398.5295 169.8882 -7.3412 0.159 -0.710 0.685 93 82 88
400.7395 168.0073 -7.6626 -0.843 -0.536 -0.054 66 55 61
402.9323 168.3951 -7.7634 -0.853 -0.518 -0.064 65 54 60
401.2636 160.0503 -8.4659 -0.845 -0.512 -0.157 55 43 47
397.0840 152.2745 -8.9550 -0.058 -0.526 0.849 78 67 73
388.6283 145.5527 -9.0723 -0.272 -0.588 -0.762 79 70 75
391.3589 144.7972 -9.3176 -0.291 -0.563 -0.774 78 69 74
380.9300 138.1055 -9.3076 -0.163 -0.534 0.830 65 59 63
371.0727 133.0623 -9.1740 -0.005 -0.995 0.096 69 63 65
388.1876 131.1428 -10.4393 -0.870 -0.261 0.419 58 48 56
388.5926 130.0671 -10.5690 -0.852 -0.416 0.319 69 59 67
348.4258 95.5264 -11.3790 -0.910 0.177 -0.374 67 56 64
354.1929 95.0213 -11.7917 -0.503 -0.115 -0.857 77 67 76
357.6791 85.5196 -12.9313 0.040 -0.647 -0.762 65 62 69
360.8065 85.9023 -13.0915 0.040 -0.647 -0.762 60 57 66
361.0121 71.8134 -14.4683 0.179 -0.885 0.431 81 80 86
408.1627 78.9789 -16.7486 -0.464 -0.332 0.821 91 92 97
384.0311 71.6415 -15.9368 -0.357 -0.360 -0.862 63 64 69
372.6893 67.8928 -15.5843 -0.920 0.359 0.155 72 73 78
356.2607 63.0648 -15.0154 0.056 -0.813 0.580 85 85 93
358.9080 63.1317 -15.1759 0.056 -0.813 0.580 96 96 104
362.3907 63.3298 -15.3764 0.068 -0.832 0.551 102 102 110
363.9299 63.1975 -15.4863 0.136 -0.781 0.609 101 101 109
345.6795 58.4156 -14.7981 0.077 -0.571 0.818 80 80 88
364.1909 59.0343 -15.9058 0.016 -0.892 0.452 63 62 68
376.6272 59.6764 -16.6280 -0.019 -0.996 -0.093 61 60 66
374.5634 58.2178 -16.6390 -0.918 -0.368 -0.147 60 59 65
389.0800 325.8127 7.3963 -0.755 0.017 -0.655 58 48 50
392.5343 328.3450 7.4134 -0.869 -0.463 -0.171 57 47 48
391.1200 323.8518 7.0776 -0.967 -0.197 -0.161 60 49 52
389.1306 306.4243 5.5487 -0.931 0.310 0.191 78 67 81
388.8304 302.1091 5.1576 -0.839 -0.384 -0.385 81 70 84
388.1758 292.3443 4.2711 -0.980 0.136 -0.145 65 58 67
389.4350 292.3634 4.1914 -0.858 -0.379 -0.348 57 50 58
389.1980 289.5870 3.9426 -0.873 -0.366 -0.322 61 54 63
387.6312 281.8040 3.3037 -0.931 0.362 0.038 75 65 75
391.5887 270.0451 1.9287 -0.985 -0.143 -0.099 52 46 51
396.9479 244.6470 -0.8345 -0.067 -0.344 0.936 59 50 49
402.7456 192.6205 -6.1593 -0.264 -0.517 0.814 90 76 79
403.5134 192.2351 -6.2457 -0.121 -0.570 0.813 100 86 89
401.5860 190.2152 -6.3130 -0.824 -0.352 0.444 100 85 88
400.7707 188.8807 -6.3871 -0.234 -0.383 -0.893 100 86 88
408.6720 191.9241 -6.6095 -0.086 -0.475 -0.876 96 81 84
409.1499 191.3528 -6.6948 -0.084 -0.476 -0.875 101 87 90
401.8104 169.4042 -8.3072 -0.829 -0.557 -0.058 91 80 86
400.2960 167.8401 -8.3579 -0.823 -0.566 0.055 87 76 82
403.2108 168.6075 -8.4737 -0.846 -0.532 -0.021 89 76 83
401.3330 160.1470 -9.1569 -0.845 -0.512 -0.157 71 56 61
395.2351 151.4540 -9.5888 -0.058 -0.526 0.849 67 56 64
392.3279 145.2953 -9.9863 -0.064 -0.581 -0.812 96 87 92
376.6577 136.2360 -9.8329 -0.695 -0.349 0.629 79 73 77
385.2185 128.7462 -11.1000 0.072 -0.667 0.742 69 59 67
314.0364 86.8321 -10.4754 -0.802 -0.073 0.593 77 67 75
317.6486 87.6374 -10.6328 -0.860 -0.180 0.477 81 71 79
357.1611 84.0847 -13.5307 -0.185 -0.729 -0.659 66 66 74
385.0283 74.0493 -16.2908 0.093 -0.776 0.623 66 67 72
