ply
format ascii 1.0
element vertex 865
property float x
property float y
property float z
property float nx
property float ny
property float nz
property uchar diffuse_red
property uchar diffuse_green
property uchar diffuse_blue
end_header
-14.4459 72.9755 -44.0165 -0.270 0.188 0.944 44 35 43
-14.3119 72.4044 -43.9240 -0.229 0.156 0.961 35 30 36
-14.6565 67.7653 -42.3623 -0.901 0.345 0.263 36 28 39
-14.0989 68.2233 -42.8126 -0.966 0.043 -0.255 34 26 37
-14.1832 67.7393 -42.6224 -0.957 0.021 -0.290 36 28 39
-14.4780 66.9540 -42.2242 -0.963 0.023 -0.270 36 26 37
-14.5637 66.4769 -42.0352 -0.960 0.035 -0.278 44 32 44
-14.6548 65.9955 -41.8419 -0.953 0.003 -0.304 47 35 47
-14.7045 65.5767 -41.6903 -0.953 0.003 -0.304 51 39 51
-14.0321 61.8133 -40.9618 -0.682 0.022 0.731 124 129 110
-13.9153 61.6445 -40.9782 -0.712 0.022 0.702 105 113 90
-13.8713 61.3806 -40.9253 -0.712 0.022 0.702 94 104 77
-13.7368 61.2357 -40.9587 -0.553 -0.289 0.782 79 91 66
-13.6374 61.0453 -40.9587 -0.553 -0.289 0.782 69 82 56
-13.5117 60.8893 -40.9839 -0.550 -0.292 0.782 79 89 62
-13.0036 60.2729 -41.0897 -0.804 -0.050 0.592 67 83 48
-12.8866 60.1065 -41.1068 -0.997 -0.073 0.012 66 84 41
-34.5963 97.1678 -40.0047 -0.308 0.216 0.927 41 51 43
-34.4091 97.1486 -40.1053 -0.227 0.016 0.974 42 51 44
-34.0630 96.9971 -40.2569 -0.274 0.088 0.958 47 57 49
-33.9661 96.6371 -40.2050 -0.264 0.080 0.961 60 70 61
-31.7119 93.5661 -40.5739 0.007 -0.038 0.999 73 60 69
-28.4738 96.0211 -43.1410 -0.129 0.144 0.981 80 66 79
-26.6320 93.8839 -43.5527 -0.079 0.036 0.996 96 80 91
-23.7458 89.8958 -44.0083 -0.880 0.014 0.475 106 88 100
-21.4588 90.9940 -45.6327 -0.507 -0.305 0.806 108 90 106
-21.2745 90.8775 -45.7028 -0.629 -0.000 0.778 108 90 106
-21.1271 90.6751 -45.7265 -0.655 0.011 0.756 106 88 104
-20.5204 90.9847 -46.1628 -0.662 -0.220 0.717 106 88 104
-21.0517 82.6743 -43.3953 0.475 -0.644 0.600 114 98 109
-20.8577 82.6027 -43.4842 0.449 -0.590 0.671 116 100 111
-20.3441 82.7159 -43.8095 0.450 -0.591 0.670 111 95 106
-20.7014 79.6593 -42.6997 -0.120 -0.825 -0.552 93 77 88
-19.8814 79.0260 -42.9774 0.185 -0.310 0.933 94 78 89
-15.3735 73.1607 -43.7968 -0.073 -0.202 0.977 53 42 50
-14.8114 67.2585 -42.3647 -0.906 0.312 0.286 35 27 38
-14.5103 66.9853 -42.4546 -0.978 0.146 -0.150 38 28 39
-14.5785 66.5327 -42.2816 -0.987 0.064 -0.145 40 30 41
-14.5113 66.2777 -42.2441 -0.978 0.039 -0.204 44 32 44
-14.5598 65.8587 -42.0922 -0.978 0.039 -0.204 45 33 47
-14.6271 65.4159 -41.9226 -0.979 0.038 -0.199 48 34 48
-13.9728 61.3139 -41.0770 -0.672 0.007 0.740 119 127 102
-13.7764 61.2499 -41.1696 -0.425 -0.253 0.869 105 115 92
-13.6569 61.0853 -41.1886 -0.419 -0.272 0.866 97 106 83
-13.5204 60.9429 -41.2238 -0.405 -0.276 0.872 87 96 71
-13.4134 60.7627 -41.2311 -0.405 -0.276 0.872 84 92 67
-13.3598 60.5148 -41.1880 -0.375 -0.303 0.876 77 86 62
-13.3224 60.2473 -41.1298 -0.382 -0.314 0.869 70 83 55
-12.9200 60.1272 -41.3227 -0.771 0.221 0.597 66 84 45
-12.8780 59.8673 -41.2695 -0.826 0.229 0.516 66 84 45
-12.5353 59.6701 -41.4055 -0.857 0.173 0.486 68 86 46
-34.6200 96.5897 -40.0750 -0.226 0.011 0.974 43 50 40
-34.4573 96.4802 -40.1351 0.035 -0.387 0.921 44 51 41
-34.3008 96.3467 -40.1845 -0.369 0.062 0.927 48 56 45
-34.1803 96.0784 -40.1729 -0.359 0.057 0.932 54 62 50
-34.0882 95.7074 -40.1146 -0.359 0.057 0.932 58 66 53
-33.9637 95.4580 -40.1111 -0.187 0.007 0.982 70 78 65
-33.7196 94.9453 -40.0971 -0.172 -0.000 0.985 105 108 101
-33.2071 94.0214 -40.1132 -0.149 -0.078 0.986 153 147 151
-33.0773 93.7988 -40.1207 -0.000 0.003 1.000 152 146 150
-25.6146 89.2270 -43.0093 0.146 -0.667 0.731 96 80 90
-25.2405 89.0744 -43.1770 -0.384 -0.863 0.328 99 81 93
-25.1652 87.0848 -42.6254 -0.132 -0.792 0.596 103 85 97
-24.9844 86.9974 -42.7024 -0.108 -0.793 0.599 106 88 100
-24.6192 86.8285 -42.8601 -0.108 -0.793 0.599 108 90 102
-26.9557 80.6408 -39.6792 -0.030 -0.998 0.063 108 90 102
-21.2879 81.8294 -43.2656 0.273 -0.431 0.860 110 94 105
-21.0169 81.9218 -43.4478 0.452 -0.606 0.655 101 85 96
-20.7776 81.9454 -43.5913 0.452 -0.606 0.655 99 83 94
-22.9343 76.5939 -40.7626 -0.193 -0.938 -0.286 98 82 93
-20.7601 79.6608 -42.9186 -0.162 -0.819 -0.550 92 76 87
-16.5179 72.1771 -43.1011 -0.191 0.059 0.980 69 58 66
-16.1358 72.4093 -43.3883 -0.417 -0.044 0.908 66 55 63
-15.6741 72.7664 -43.7582 -0.078 -0.177 0.981 57 46 54
-15.6465 72.0278 -43.5532 -0.464 0.131 0.876 58 47 55
-16.6109 68.2424 -41.8723 0.259 -0.645 0.719 34 29 35
-15.5886 68.7142 -42.5962 0.233 -0.663 0.712 31 26 32
-15.5383 65.9194 -41.7897 -0.974 0.185 0.130 35 27 38
-14.4274 66.8284 -42.6947 -0.972 0.186 -0.143 32 22 31
-14.5052 66.3633 -42.5114 -0.977 0.035 -0.208 33 23 32
-14.5054 66.0124 -42.4064 -0.979 0.038 -0.199 36 26 36
-14.5522 65.5975 -42.2558 -0.979 0.038 -0.199 40 29 40
-14.7673 64.9475 -41.9389 -0.970 0.058 -0.234 51 40 50
-14.8319 64.5144 -41.7727 -0.972 0.059 -0.228 46 34 44
-14.5489 64.5706 -41.9508 -0.944 0.078 -0.319 40 28 40
-14.7433 63.9605 -41.6577 -0.978 0.051 -0.203 55 41 54
-14.8086 62.5388 -41.1956 -0.196 -0.002 0.981 171 150 166
-14.7248 62.3244 -41.1794 -0.196 -0.002 0.981 163 145 156
-14.6261 62.1309 -41.1778 -0.208 0.006 0.978 155 142 150
-14.3023 61.5900 -41.2008 0.021 -0.187 0.982 143 142 136
-14.2043 61.3973 -41.1991 0.017 -0.181 0.983 144 146 134
-13.8541 60.8951 -41.2487 -0.392 -0.283 0.875 136 140 126
-13.6923 60.7863 -41.3085 -0.407 -0.212 0.889 120 123 106
-13.5932 60.5966 -41.3083 -0.407 -0.212 0.889 113 116 99
-13.5515 60.3341 -41.2536 -0.369 -0.281 0.886 103 107 92
-12.9927 59.7862 -41.4085 -0.794 0.217 0.569 68 84 48
-12.6917 59.8495 -41.5990 -0.838 0.111 0.534 67 83 46
-12.5554 59.7069 -41.6341 -0.894 0.154 0.421 71 87 49
-12.4082 59.5777 -41.6794 -0.011 -0.064 0.998 73 90 48
-12.5057 59.1492 -41.4958 -0.045 -0.032 0.998 73 90 46
-34.7089 95.7691 -40.0330 0.041 -0.391 0.919 43 51 37
-34.4074 96.1855 -40.3309 0.061 -0.438 0.897 44 52 37
-34.2571 95.3173 -40.1557 -0.359 0.057 0.932 48 56 41
-34.1576 94.9784 -40.1107 -0.178 0.005 0.984 59 67 52
-34.0264 94.7580 -40.1195 -0.186 0.003 0.983 72 83 67
-33.3711 93.6662 -40.1660 -0.149 -0.078 0.986 149 144 148
-33.2684 93.3515 -40.1302 -0.132 -0.085 0.988 135 130 134
-32.3524 93.1639 -40.5981 -0.003 -0.031 1.000 111 105 109
-26.1130 89.2148 -42.9814 0.155 -0.678 0.719 97 81 91
-25.3077 89.0643 -43.3971 -0.392 -0.825 0.407 99 81 93
-25.4100 87.7073 -42.9302 -0.425 -0.566 0.707 103 85 97
-24.8955 86.8360 -42.9626 -0.124 -0.790 0.600 109 91 103
-19.9235 77.8425 -43.1026 0.180 -0.345 0.921 108 88 100
-17.0839 72.9113 -43.2443 -0.038 -0.096 0.995 82 69 76
-16.9313 72.7694 -43.2890 -0.171 0.071 0.983 84 71 78
-16.9987 72.2621 -43.0977 -0.336 0.060 0.940 82 69 78
-15.8625 71.7720 -43.6007 -0.464 0.135 0.875 62 50 58
-15.8998 68.6893 -42.6518 0.222 -0.640 0.736 32 27 33
-15.7211 68.5952 -42.7257 0.224 -0.640 0.735 34 27 35
-15.4487 68.6429 -42.8960 0.182 -0.603 0.777 33 26 34
-15.8521 67.6673 -42.3715 0.329 -0.674 0.661 33 26 34
-14.5598 66.3618 -42.7185 -0.989 0.132 -0.060 36 29 36
-14.4960 66.1022 -42.6769 -0.982 0.142 -0.123 34 29 35
-14.5264 65.3628 -42.4370 -0.974 0.186 -0.127 32 25 32
-14.6023 64.9112 -42.2577 -0.974 0.182 -0.138 33 25 32
-14.3551 64.9153 -42.4004 -0.943 0.064 -0.326 35 27 35
-14.4435 64.4503 -42.2099 -0.929 0.071 -0.362 39 30 39
-14.5995 63.8951 -41.9536 -0.939 0.083 -0.334 40 28 39
-14.7824 61.6641 -41.1776 -0.222 0.046 0.974 155 148 155
-13.7420 59.5297 -41.1309 -0.643 0.307 0.702 96 100 85
-13.2476 59.5299 -41.4140 -0.741 0.224 0.633 79 92 61
-13.1561 59.3341 -41.4074 -0.791 0.187 0.582 72 85 52
-12.8217 58.8232 -41.4451 -0.046 -0.034 0.998 75 89 47
-13.1621 58.1034 -41.0337 -0.853 0.110 0.511 72 86 45
-34.6809 96.1153 -40.4082 0.053 -0.438 0.897 43 52 35
-34.5362 95.9399 -40.4382 0.062 -0.431 0.900 39 48 31
-34.1601 96.6294 -40.8633 0.112 -0.478 0.871 36 46 29
-34.4246 94.9303 -40.1964 -0.359 0.057 0.932 40 49 32
-34.3162 94.6267 -40.1668 -0.242 0.068 0.968 51 60 43
-34.1097 94.6840 -40.3028 -0.258 0.063 0.964 61 72 55
-34.0701 94.1325 -40.1585 -0.172 -0.000 0.985 68 74 64
-33.4315 92.9998 -40.1823 -0.132 -0.085 0.988 146 144 147
-33.3197 92.7212 -40.1621 -0.124 -0.035 0.992 158 156 159
-26.5866 88.6957 -42.8122 0.160 -0.663 0.731 100 84 94
-26.3708 88.7039 -42.9387 0.155 -0.669 0.727 99 83 93
-25.4928 88.7529 -43.4581 -0.432 -0.692 0.578 104 86 98
-25.3019 88.6868 -43.5478 -0.452 -0.691 0.565 105 87 99
-20.5541 78.5020 -43.1907 0.162 -0.266 0.950 104 88 99
-17.3973 72.4799 -43.1804 -0.154 -0.085 0.984 88 73 80
-17.1788 72.4505 -43.2970 -0.171 0.072 0.983 90 74 84
-17.2550 71.9299 -43.0955 -0.143 0.035 0.989 88 72 82
-17.0758 71.8355 -43.1699 -0.144 0.035 0.989 85 69 80
-16.1980 71.7108 -43.6366 -0.504 0.116 0.856 70 54 65
-16.0204 71.6090 -43.7079 -0.376 0.074 0.924 66 51 61
-16.2127 69.0295 -42.8158 -0.243 0.008 0.970 44 34 43
-15.5771 67.4401 -42.6995 0.300 -0.654 0.694 33 23 32
-15.2673 67.5422 -42.9085 0.262 -0.686 0.678 31 21 30
-14.9999 67.5786 -43.0733 0.297 -0.659 0.691 32 22 31
-14.2687 65.4555 -42.8502 -0.923 0.053 -0.380 28 25 27
-14.3242 65.0325 -42.6902 -0.923 0.054 -0.382 28 25 28
-14.3644 64.6336 -42.5462 -0.942 0.054 -0.331 28 25 29
-14.4138 64.2246 -42.3939 -0.939 0.083 -0.334 33 26 33
-14.5403 63.7122 -42.1659 -0.939 0.083 -0.334 32 23 32
-14.2922 59.8271 -41.1314 0.007 -0.075 0.997 149 138 147
-13.6641 59.6910 -41.4512 -0.751 0.223 0.621 106 105 98
-13.4511 59.6480 -41.5606 -0.744 0.231 0.627 95 102 81
-13.4165 59.3807 -41.4995 -0.737 0.222 0.638 86 95 72
-13.4299 58.1385 -41.1153 -0.737 -0.116 0.665 78 87 51
-13.3607 57.9208 -41.0892 -0.815 0.049 0.577 71 80 45
-13.2977 57.6964 -41.0574 -0.817 0.136 0.560 78 87 53
-13.2017 57.5126 -41.0569 -0.812 0.149 0.564 84 90 63
-12.8865 57.5921 -41.2621 -0.795 0.092 0.600 84 90 62
0.1553 51.0515 -46.7759 0.053 -0.760 0.648 70 84 63
0.3877 50.9740 -46.8860 0.053 -0.760 0.648 65 78 58
-34.6640 95.6970 -40.5457 0.062 -0.431 0.900 40 53 33
-34.3197 95.5545 -40.7009 -0.163 -0.073 0.984 41 54 34
-34.2369 95.1512 -40.6256 -0.287 0.111 0.951 42 55 35
-34.1524 94.7579 -40.5543 -0.287 0.111 0.951 42 55 38
-34.2079 93.8592 -40.2482 -0.205 0.034 0.978 56 63 53
-33.2194 91.9582 -40.2386 0.037 -0.165 0.986 140 140 142
-33.0685 91.8188 -40.2832 0.032 -0.151 0.988 137 137 139
-32.7321 91.6548 -40.4273 0.056 -0.158 0.986 133 126 133
-32.5934 91.4727 -40.4517 0.003 -0.094 0.996 104 94 102
-20.4902 77.4134 -43.1465 0.031 -0.017 0.999 109 91 103
-20.3358 77.2739 -43.1930 0.165 -0.279 0.946 106 88 100
-20.2068 77.0854 -43.2099 0.161 -0.277 0.947 107 87 99
-18.7057 73.9429 -43.1174 -0.017 -0.174 0.985 136 117 123
-18.5873 73.7436 -43.1249 -0.025 -0.169 0.985 124 107 115
-17.2006 71.3324 -43.1894 -0.208 0.098 0.973 82 64 76
-16.9730 71.3180 -43.3164 -0.396 0.147 0.906 80 62 74
-16.4220 71.4396 -43.6714 -0.478 0.126 0.869 75 57 69
-16.3588 70.3893 -43.3875 0.127 -0.262 0.957 61 48 58
-16.6942 69.4792 -42.9163 -0.091 -0.234 0.968 56 46 55
-16.6009 69.2523 -42.9009 -0.092 -0.230 0.969 52 42 51
-16.5209 69.0054 -42.8718 -0.098 -0.158 0.983 49 39 47
-16.4393 68.7619 -42.8445 -0.164 -0.022 0.986 51 41 50
-15.8211 67.5155 -42.8210 0.247 -0.681 0.689 43 33 42
-15.6533 67.4068 -42.8847 0.254 -0.686 0.682 39 29 37
-15.4282 67.3831 -43.0074 0.262 -0.686 0.678 36 26 34
-14.8139 67.5732 -43.4198 0.261 -0.640 0.723 35 25 34
-14.5257 65.1678 -42.8523 -0.979 0.155 -0.130 27 25 26
-14.3768 64.6897 -42.7924 -0.977 0.142 -0.160 26 26 28
-14.5857 63.7213 -42.3764 -0.977 0.142 -0.160 38 33 40
-14.6666 63.2749 -42.1935 -0.971 0.104 -0.216 36 31 38
-14.7207 62.8682 -42.0382 -0.936 0.028 -0.351 46 41 48
-14.8836 60.6997 -41.2826 -0.077 -0.023 0.997 152 141 149
-14.8010 60.4907 -41.2666 -0.043 -0.092 0.995 150 137 144
-14.4588 59.9897 -41.3112 -0.060 -0.048 0.997 155 144 152
-14.3479 59.8192 -41.3232 -0.269 0.155 0.950 152 140 149
-14.2639 59.6145 -41.3092 -0.273 0.158 0.949 145 133 143
-13.6256 57.6570 -41.0803 -0.670 0.318 0.671 80 85 55
-13.7109 56.6608 -40.7272 -0.722 0.415 0.554 84 89 66
-13.7751 56.2901 -40.5771 -0.712 0.332 0.618 84 90 62
36.9456 58.9654 -70.6604 -0.789 -0.302 -0.535 55 75 40
37.7571 59.1089 -71.1724 -0.814 -0.284 -0.507 55 75 40
37.8300 58.8144 -71.1246 -0.814 -0.284 -0.507 56 76 41
-34.5723 95.5622 -40.8123 -0.287 0.186 0.940 41 56 35
-34.5570 94.9060 -40.6195 -0.299 0.202 0.932 41 56 35
-34.4063 94.7585 -40.6616 -0.293 0.184 0.938 41 56 35
-34.2437 93.9564 -40.5094 -0.299 0.130 0.945 62 70 60
-34.2682 93.1783 -40.2562 -0.178 -0.006 0.984 77 81 78
-33.3613 91.6832 -40.3223 0.028 -0.142 0.989 148 148 150
-29.2324 87.4541 -41.4152 0.032 -0.137 0.990 99 83 94
-27.2337 87.8685 -42.7005 -0.602 -0.725 0.335 104 88 98
-26.9153 88.1564 -42.9734 0.137 -0.788 0.600 109 93 103
-26.7900 87.9305 -42.9766 0.059 -0.795 0.604 113 97 107
-25.7427 86.7980 -43.2354 -0.433 -0.560 0.706 112 94 106
-20.8120 76.9015 -43.0520 0.036 -0.022 0.999 106 89 99
-17.5965 71.1589 -43.1508 -0.195 0.086 0.977 86 68 80
-17.2300 70.9887 -43.3109 -0.384 0.136 0.913 82 61 76
-17.0345 70.9223 -43.4038 -0.315 0.020 0.949 82 61 76
-17.0148 70.5701 -43.3070 -0.337 0.072 0.939 80 59 74
-16.6205 70.8237 -43.6133 -0.297 0.032 0.954 74 56 70
-15.0729 72.5267 -45.0331 0.164 -0.325 0.931 64 51 64
-16.7900 69.0407 -42.9675 0.030 -0.230 0.973 56 46 57
-16.7998 68.6539 -42.8430 -0.119 -0.079 0.990 54 42 52
-14.9438 63.9710 -42.4797 -0.988 0.117 -0.103 26 25 30
-14.6367 64.0604 -42.6851 -0.981 0.192 0.038 23 20 27
-14.5147 63.8912 -42.7038 -0.972 0.123 -0.199 23 18 25
-14.7240 63.2669 -42.3908 -0.981 0.099 -0.165 29 21 32
-14.7616 62.8825 -42.2510 -0.983 0.096 -0.159 33 26 36
-14.8068 62.4903 -42.1043 -0.982 0.091 -0.163 39 34 41
-14.8431 62.1128 -41.9673 -0.965 0.090 -0.246 46 43 50
-14.9411 60.3719 -41.3758 -0.953 -0.229 -0.197 159 145 154
-13.9061 57.0753 -40.9627 -0.707 0.328 0.626 87 89 68
-13.9504 56.7252 -40.8295 -0.707 0.328 0.626 84 88 71
-14.2200 55.5255 -40.3048 -0.694 0.349 0.629 86 92 62
-34.9345 93.7306 -40.2903 -0.504 0.288 0.814 41 56 35
-35.0117 92.7466 -39.9411 -0.503 0.282 0.817 41 56 35
-34.8562 92.6315 -39.9959 -0.303 0.145 0.942 41 55 38
-32.7815 88.1199 -39.8073 -0.239 -0.167 0.956 70 60 69
-29.9781 91.9882 -42.6343 0.259 -0.282 0.924 67 55 65
-27.0280 88.0226 -43.1237 0.137 -0.788 0.600 109 95 104
-26.6778 88.3902 -43.4411 0.200 -0.809 0.553 113 97 107
-26.5866 88.0724 -43.3959 0.055 -0.776 0.628 113 97 107
-26.4246 87.9408 -43.4494 0.060 -0.783 0.619 113 97 107
-25.3575 81.2071 -41.9875 -0.063 -0.513 0.856 108 90 104
-21.2779 76.1082 -42.7835 0.045 -0.044 0.998 101 85 95
-20.9978 76.2192 -42.9807 0.060 -0.046 0.997 99 83 93
-20.9101 75.9572 -42.9506 0.172 -0.271 0.947 94 78 88
-17.7061 70.6829 -43.1831 -0.193 0.081 0.978 82 64 76
-17.5170 70.6090 -43.2702 -0.395 0.111 0.912 80 62 74
-17.4233 70.3788 -43.2534 -0.395 0.110 0.912 84 66 78
-17.3373 70.1370 -43.2287 -0.372 0.083 0.924 81 63 75
-16.7235 70.3648 -43.6562 0.181 -0.329 0.927 73 58 69
-15.0729 63.5262 -42.5013 -0.967 0.132 -0.217 27 22 28
-14.9239 63.3973 -42.5481 -0.965 0.115 -0.235 27 22 28
-14.7633 63.2840 -42.6064 -0.982 0.148 -0.120 29 22 30
-14.8327 62.8556 -42.4335 -0.986 0.098 -0.137 24 17 25
-14.7249 62.6716 -42.4393 -0.983 0.095 -0.156 28 23 30
-14.7797 62.2677 -42.2826 -0.983 0.118 -0.140 34 31 38
-14.8568 61.8364 -42.1043 -0.983 0.118 -0.140 36 33 40
-14.9248 61.4205 -41.9361 -0.984 0.128 -0.125 49 44 51
-14.9317 61.0889 -41.8296 -0.960 0.147 -0.239 68 61 69
-15.0042 60.3544 -41.5602 -0.945 -0.238 -0.223 114 101 110
-15.1068 59.9037 -41.3612 0.028 -0.148 0.989 123 111 121
-15.0555 59.3448 -41.2181 -0.248 0.156 0.956 134 122 134
-14.0678 56.9371 -41.0480 -0.666 0.309 0.679 99 100 84
-14.0300 56.6867 -40.9926 -0.866 0.249 0.434 87 89 75
-14.0542 56.3628 -40.8783 -0.897 0.071 0.436 85 88 71
-14.3820 54.8149 -40.2089 -0.960 0.122 0.253 90 95 63
-35.2085 92.2441 -39.9183 -0.501 0.287 0.816 41 56 35
-29.9610 91.6131 -42.7861 0.230 -0.242 0.943 91 79 89
-29.4560 91.2904 -42.9806 -0.084 0.025 0.996 60 48 58
-27.1022 87.9905 -43.3276 0.138 -0.794 0.592 109 96 105
-25.6066 82.7440 -42.5673 -0.995 0.035 -0.088 114 98 111
-25.7967 81.7916 -42.1597 -0.918 -0.313 0.244 112 96 109
-25.7543 81.3972 -42.0616 0.079 -0.560 0.825 107 91 104
-25.3732 80.8196 -42.1044 -0.055 -0.537 0.842 96 80 93
-18.9282 72.2344 -43.1947 0.200 -0.164 0.966 84 67 77
-17.9914 70.3031 -43.1404 -0.194 0.064 0.979 83 65 77
-17.7735 70.2787 -43.2600 -0.333 0.057 0.941 82 64 76
-17.6389 70.1169 -43.2882 -0.398 0.109 0.911 86 68 80
-17.5561 69.8711 -43.2601 -0.358 0.078 0.930 83 65 77
-17.4836 69.6097 -43.2211 -0.327 0.048 0.944 79 61 73
-16.9518 68.9576 -43.3285 -0.533 0.172 0.829 55 48 56
-15.7758 61.9603 -41.8365 -0.868 -0.383 -0.316 28 21 29
-14.6049 62.9050 -42.8143 -0.982 0.099 -0.160 26 21 28
-14.6013 62.2494 -42.6123 -0.959 0.153 -0.237 30 25 32
-14.7732 61.6917 -42.3383 -0.961 0.146 -0.234 35 30 37
-14.8059 61.3238 -42.2046 -0.960 0.143 -0.240 38 31 39
-14.8870 60.8942 -42.0235 -0.967 0.010 -0.253 44 34 43
-15.1980 59.5355 -41.4188 -0.985 0.072 -0.155 77 65 77
-15.1338 59.3070 -41.3852 -0.975 0.118 -0.187 113 101 113
-15.1327 58.9981 -41.2897 -0.979 0.151 -0.138 146 134 144
-15.1211 58.7044 -41.2050 -0.249 0.150 0.957 174 162 172
-14.4810 57.0855 -41.0746 -0.197 -0.037 0.980 148 139 134
-14.1928 56.8432 -41.1675 -0.670 0.311 0.674 124 120 112
-14.1428 56.6079 -41.1234 -0.900 0.072 0.431 104 106 99
-14.0318 56.4470 -41.1382 -0.927 0.094 0.364 88 92 80
-13.6967 55.1004 -40.9145 -0.866 0.173 0.469 77 85 52
-13.5107 55.0299 -41.0012 -0.881 0.210 0.425 83 94 60
6.8570 30.4269 -45.2342 -0.686 -0.305 0.660 42 56 39
-34.8964 91.5685 -40.1370 -0.046 -0.195 0.980 52 53 51
-33.1089 88.0587 -40.0847 -0.109 -0.042 0.993 127 117 126
-33.0556 87.6197 -39.9783 -0.273 0.096 0.957 96 86 95
-27.5060 87.6366 -43.2371 -0.475 -0.385 0.791 104 88 98
-27.2769 87.6906 -43.3884 -0.459 -0.394 0.796 110 94 105
-27.1395 87.4990 -43.4089 -0.472 -0.389 0.791 113 97 107
-26.8195 81.9668 -41.8622 -0.264 -0.479 0.837 118 102 113
-25.5665 82.9827 -42.9153 -0.994 0.078 -0.080 111 95 106
-25.4108 82.8494 -42.9648 -0.998 0.061 -0.018 107 91 102
-25.4429 82.2720 -42.7650 -0.997 0.079 0.008 106 90 101
-25.3382 82.0211 -42.7477 -0.528 -0.731 0.432 103 87 98
-19.3160 72.8565 -43.4054 -0.115 -0.111 0.987 95 75 84
-18.4700 69.6025 -42.8813 -0.158 0.060 0.986 86 68 82
-18.1033 69.8270 -43.1667 -0.175 0.091 0.980 84 66 78
-14.7833 62.4015 -42.7853 -0.940 0.312 0.135 26 21 28
-14.7895 62.0645 -42.6760 -0.970 0.241 0.025 30 25 32
-14.8353 61.6764 -42.5275 -0.971 0.238 -0.007 34 27 35
-14.5659 61.7118 -42.6965 -0.959 0.060 -0.278 42 32 41
-14.6897 60.9015 -42.3700 -0.934 -0.298 -0.199 53 41 51
-15.0046 60.1681 -41.9555 -0.920 -0.251 -0.300 62 50 62
-15.2372 58.9263 -41.4298 -0.960 0.168 -0.222 115 104 112
-14.5157 57.1018 -41.2809 -0.233 0.044 0.971 161 147 150
-14.1733 56.6288 -41.3333 -0.905 0.033 0.424 134 137 131
-14.0445 56.4891 -41.3650 -0.921 0.081 0.381 117 123 112
-14.0879 56.1430 -41.2310 -0.894 -0.410 0.180 104 111 95
-14.0158 55.9368 -41.2087 -0.887 -0.419 0.193 81 88 69
-14.1119 55.5320 -41.0255 -0.978 -0.061 0.198 72 80 58
-13.9051 54.9118 -40.9523 -0.852 0.198 0.485 78 87 57
-13.7625 54.7921 -40.9984 -0.876 0.245 0.415 75 88 53
3.2738 36.8856 -45.3728 -0.964 -0.023 0.264 46 59 33
3.3613 36.7235 -45.3733 -0.974 -0.028 0.224 46 59 33
3.3791 36.5230 -45.3209 -0.974 -0.028 0.224 46 59 33
3.4728 36.3651 -45.3264 -0.970 -0.010 0.244 49 62 36
-35.0148 91.3591 -40.2483 -0.195 0.031 0.980 50 50 50
-34.8457 91.2992 -40.3289 -0.141 -0.004 0.990 50 48 52
-34.0053 89.6583 -40.3057 -0.186 0.027 0.982 123 123 125
-33.9188 89.3139 -40.2480 -0.175 0.009 0.985 139 135 141
-33.7868 89.1265 -40.2665 -0.176 0.005 0.984 142 134 142
-33.3427 88.1045 -40.2054 -0.108 -0.049 0.993 170 160 169
-33.2846 87.6796 -40.1055 -0.115 -0.036 0.993 142 132 141
-26.3976 83.1480 -42.7290 -0.160 -0.384 0.909 115 99 110
-26.3363 82.2814 -42.4916 -0.650 0.043 0.759 111 95 106
-25.3939 83.0323 -43.2832 -0.998 0.061 -0.018 101 85 96
-25.4320 82.4388 -43.0735 -0.997 0.079 0.008 104 88 99
-25.3941 82.0293 -42.9665 -0.977 0.101 -0.190 102 86 97
-25.4823 81.3285 -42.6935 -0.988 0.125 -0.093 99 83 94
-22.2646 74.9428 -42.5721 0.097 -0.158 0.983 95 82 92
-18.6936 69.3225 -42.9002 -0.158 0.060 0.986 85 67 81
-18.5170 69.2358 -42.9768 -0.153 0.066 0.986 83 65 77
-18.1005 69.1634 -43.1991 -0.086 0.004 0.996 78 60 72
-17.9846 68.9758 -43.2081 -0.085 -0.013 0.996 74 56 68
-17.9915 68.5907 -43.0825 0.070 -0.149 0.986 70 54 65
-15.1848 68.8888 -44.8286 -0.356 0.164 0.920 54 44 55
-15.1418 68.5844 -44.7578 -0.356 0.164 0.920 55 45 54
-15.3402 67.9200 -44.4314 -0.328 0.174 0.928 54 44 53
-16.3199 64.6974 -42.8377 -0.139 0.072 0.988 34 29 33
-15.0717 61.7521 -42.6429 -0.969 0.245 0.017 31 26 33
-14.8554 61.7176 -42.7593 -0.970 0.242 -0.005 35 28 36
-14.7227 60.9244 -42.5871 -0.889 -0.348 -0.297 33 23 34
-15.0140 60.2212 -42.1937 -0.975 0.026 -0.222 40 30 41
-14.9875 59.9397 -42.1204 -0.963 0.108 -0.248 43 33 42
-15.0608 59.5300 -41.9480 -0.970 0.164 -0.181 52 40 49
-15.0472 59.2355 -41.8631 -0.969 0.154 -0.192 57 46 54
-15.2040 58.4159 -41.5121 -0.957 -0.090 -0.276 79 65 81
-15.2697 57.4212 -41.1595 -0.992 -0.127 -0.001 141 122 143
-15.1763 57.2383 -41.1568 -0.993 -0.116 -0.012 159 140 160
-15.0143 57.1411 -41.2214 -0.207 -0.054 0.977 164 146 161
-14.1368 56.1413 -41.4224 -0.946 -0.113 0.303 155 159 145
-14.2149 55.7557 -41.2548 -0.950 -0.107 0.294 149 153 137
-14.2057 55.4764 -41.1720 -0.951 -0.111 0.287 117 121 103
-14.1628 55.2384 -41.1221 -0.951 -0.111 0.287 79 83 63
-13.9634 55.1852 -41.2227 -0.857 0.169 0.487 76 81 57
-13.9442 54.9207 -41.1505 -0.841 0.196 0.505 87 93 65
-13.8636 54.7288 -41.1374 -0.841 0.206 0.500 82 93 59
-13.4448 54.9284 -41.4469 -0.171 0.025 0.985 80 90 57
-13.1155 54.7355 -41.5799 -0.120 0.008 0.993 75 86 52
-5.9402 45.2487 -42.8092 0.264 -0.951 -0.162 51 68 34
-6.8485 43.8082 -41.8200 0.478 -0.851 0.218 57 76 48
2.8629 36.6747 -45.2847 -0.937 -0.003 0.351 50 63 37
3.0642 36.5773 -45.3725 -0.964 0.076 0.256 49 62 36
2.9800 36.3210 -45.2420 -0.962 0.162 0.218 49 62 36
2.0923 34.8088 -44.2423 0.234 -0.793 0.562 62 75 49
20.4204 35.8843 -55.3695 -0.697 0.162 0.699 42 56 39
-35.0725 90.6967 -40.2506 -0.156 0.028 0.987 46 45 50
-34.8835 90.7114 -40.3669 -0.063 -0.139 0.988 46 45 50
-33.9296 88.8456 -40.3378 -0.164 0.006 0.986 140 133 141
-33.8051 88.6352 -40.3445 -0.150 -0.019 0.988 142 132 143
-33.6607 87.8686 -40.1863 -0.168 -0.015 0.986 156 149 156
-32.4932 86.7827 -40.5312 -0.057 -0.046 0.997 58 46 60
-29.1448 87.9963 -42.8954 0.112 -0.581 0.806 96 82 99
-28.9193 88.0586 -43.0484 0.125 -0.596 0.793 99 85 102
-28.8183 87.7692 -43.0162 0.141 -0.612 0.778 102 88 104
-27.7250 83.5884 -42.3339 -0.418 -0.082 0.905 113 97 110
-28.0309 81.2631 -41.4144 -0.456 -0.351 0.818 113 96 112
-27.8107 81.3119 -41.5600 -0.429 -0.357 0.830 113 97 110
-26.4274 82.7105 -42.8218 -0.162 -0.398 0.903 108 92 103
-26.2876 82.0393 -42.6912 -0.328 -0.325 0.887 101 85 95
-25.3539 83.2710 -43.6342 -0.997 0.072 -0.004 94 78 89
-25.4210 82.6063 -43.3834 -0.997 0.079 0.008 103 87 98
-25.4116 82.1282 -43.2370 -0.995 0.100 -0.025 102 86 97
-25.6195 81.1454 -42.8020 -0.980 0.149 -0.129 99 83 94
-22.5029 74.5849 -42.5593 0.237 -0.342 0.909 94 81 91
-19.4544 72.4072 -43.6688 0.223 -0.216 0.950 75 55 64
-19.3718 72.1518 -43.6365 0.207 -0.208 0.956 72 52 63
-18.6931 69.0351 -43.0474 -0.278 0.262 0.924 82 64 76
-18.4572 68.6706 -43.0709 -0.276 0.241 0.930 74 56 68
-18.1845 67.9962 -43.0178 0.190 -0.213 0.958 69 56 66
-15.5999 67.9762 -44.5387 -0.174 -0.013 0.985 59 49 58
-15.9474 60.3167 -41.9000 -0.908 0.357 0.220 35 28 35
-15.8993 60.0635 -41.8479 -0.916 0.345 0.204 37 30 37
-14.8908 60.7686 -42.6679 -0.995 0.015 -0.101 41 31 40
-14.9085 60.4258 -42.5485 -0.875 0.387 0.291 44 34 43
-15.0497 59.9233 -42.3054 -0.875 0.387 0.291 45 35 44
-14.9389 59.7531 -42.3168 -0.955 0.291 0.053 50 40 48
-15.0224 59.3314 -42.1335 -0.950 0.311 -0.004 62 53 58
-15.0167 59.0276 -42.0403 -0.978 0.106 -0.181 59 47 57
-15.0694 58.6507 -41.8894 -0.975 0.047 -0.216 43 31 45
-15.0264 58.3982 -41.8346 -0.843 -0.198 -0.500 62 48 67
-15.1479 57.6353 -41.5204 -0.962 -0.038 -0.272 99 83 102
-15.1662 57.3110 -41.4066 -0.982 0.189 -0.023 119 104 121
-15.1791 56.9954 -41.2987 -0.200 -0.034 0.979 146 132 145
-15.0337 56.2856 -41.1591 -0.192 0.124 0.974 156 145 151
-14.9790 56.0588 -41.1194 -0.192 0.124 0.974 166 156 161
-14.2884 55.4340 -41.3290 -0.936 -0.166 0.312 153 152 144
-14.2172 55.2295 -41.3060 -0.951 -0.111 0.287 135 135 125
-14.0788 55.1047 -41.3482 -0.849 0.176 0.498 111 111 97
-14.0625 54.8370 -41.2728 -0.849 0.194 0.491 96 97 78
-14.0373 54.5811 -41.2064 -0.816 0.161 0.556 90 95 68
2.5955 36.5442 -45.3045 -0.967 -0.121 -0.223 52 65 39
6.3983 30.6448 -45.6774 -0.696 -0.509 0.507 70 84 67
19.8100 35.6369 -55.1885 -0.723 0.173 0.669 39 53 36
-35.1124 90.1032 -40.2826 -0.061 -0.149 0.987 41 42 43
-33.8858 87.9373 -40.3176 -0.194 0.051 0.980 150 143 153
-33.7871 87.6458 -40.2830 -0.194 0.051 0.980 144 138 146
-33.6886 87.3553 -40.2484 -0.194 0.051 0.980 143 136 144
-33.5905 87.0656 -40.2140 -0.194 0.051 0.980 144 138 146
-32.5920 86.0662 -40.4868 -0.058 -0.045 0.997 54 43 59
-29.9405 88.7934 -42.9319 -0.165 0.058 0.985 85 71 88
-29.7982 88.6209 -42.9612 -0.160 0.054 0.986 85 71 88
-28.8525 87.2758 -43.0920 0.130 -0.473 0.872 101 87 102
-27.8939 83.3065 -42.3912 -0.426 -0.079 0.901 113 97 110
-27.7931 83.0433 -42.3668 -0.426 -0.079 0.901 113 97 110
-28.2094 80.9584 -41.4531 -0.423 -0.345 0.838 112 96 109
-27.9571 81.0901 -41.6449 -0.345 -0.385 0.856 110 94 107
-26.4195 81.8633 -42.8044 -0.328 -0.325 0.887 96 80 91
-22.9034 74.3304 -42.4811 -0.981 -0.090 0.169 99 86 96
-22.7040 74.2993 -42.5894 0.271 -0.352 0.896 100 87 97
-22.5292 74.2185 -42.6672 0.271 -0.352 0.896 104 88 98
-22.3241 74.1960 -42.7817 0.145 -0.241 0.960 105 89 99
-22.0063 74.3904 -43.0324 0.067 -0.103 0.992 105 89 99
-19.4876 72.0463 -43.7769 0.205 -0.202 0.958 70 53 63
-18.7549 68.2727 -43.0047 -0.316 0.275 0.908 71 53 65
-15.7978 67.7596 -44.5949 -0.177 -0.010 0.984 62 51 60
-16.0069 63.5884 -43.1368 -0.159 0.129 0.979 32 26 30
-15.8933 63.4115 -43.1476 -0.152 0.124 0.980 32 26 30
-15.4021 60.7961 -42.6026 -0.800 -0.147 -0.581 29 24 30
-15.5465 60.2834 -42.3529 -0.801 -0.189 -0.569 30 24 31
-15.8245 59.5976 -41.9686 -0.884 -0.087 -0.460 30 23 30
-15.2021 60.1047 -42.5000 -0.843 0.336 0.419 30 23 30
-15.1204 59.8958 -42.4817 -0.875 0.387 0.291 31 25 31
-14.8681 59.9101 -42.6360 -0.980 0.137 -0.143 35 29 36
-14.6406 59.8906 -42.7647 -0.948 0.043 -0.316 36 30 34
-14.8178 59.3475 -42.4858 -0.953 0.022 -0.304 36 29 36
-14.7382 59.1383 -42.4662 -0.846 -0.182 -0.501 38 29 40
-14.7312 58.8372 -42.3741 -0.845 -0.183 -0.502 51 40 53
-14.8128 58.4253 -42.1939 -0.845 -0.195 -0.498 40 29 43
-15.2412 56.9774 -41.4767 -0.974 0.226 -0.009 132 123 132
-15.3932 56.1956 -41.1365 -0.981 0.192 -0.038 160 150 158
-15.1928 56.1484 -41.2403 -0.260 0.004 0.966 159 149 157
-15.1852 55.8645 -41.1540 -0.131 -0.006 0.991 165 155 163
-14.2930 55.1954 -41.4693 -0.858 0.131 0.496 158 152 155
-14.2252 54.9876 -41.4431 -0.841 0.198 0.504 133 127 128
-14.1923 54.7397 -41.3833 -0.848 0.191 0.495 112 107 102
-14.1456 54.5091 -41.3372 -0.807 0.126 0.577 98 97 77
-14.1263 54.2477 -41.2651 -0.806 0.130 0.578 97 97 76
-14.2716 53.7980 -41.0350 -0.967 0.173 0.187 97 97 75
1.1481 36.9946 -44.8085 -0.729 -0.479 0.490 59 74 45
1.9627 37.2570 -45.3757 -0.941 -0.017 -0.338 59 74 45
2.0642 36.8930 -45.3195 -0.944 0.032 -0.328 63 76 50
1.3991 35.0748 -44.3434 -0.988 0.145 0.045 61 74 48
6.1092 30.9120 -45.8063 -0.696 -0.509 0.507 83 97 80
6.2084 30.7646 -45.8180 -0.696 -0.509 0.507 78 92 75
6.3075 30.6173 -45.8297 -0.696 -0.509 0.507 74 88 71
6.8574 30.6674 -46.1719 -0.674 -0.284 0.682 59 73 56
-35.1926 89.3695 -40.2433 -0.047 -0.200 0.979 38 43 38
-34.1000 87.4167 -40.2653 -0.160 -0.014 0.987 137 131 141
-33.8921 87.4935 -40.4139 -0.161 -0.013 0.987 139 135 145
-33.8888 86.8880 -40.2209 -0.129 -0.001 0.992 145 139 149
-32.9344 85.7650 -40.4277 -0.144 0.003 0.990 54 43 60
-29.3379 87.2225 -43.0390 0.005 -0.124 0.992 93 79 96
-29.3205 86.7029 -42.8820 0.063 -0.349 0.935 96 82 99
-28.8561 83.5803 -42.1534 -0.202 0.041 0.979 121 105 116
-28.4826 80.9170 -41.5184 -0.451 0.027 0.892 109 93 106
-28.1667 80.7084 -41.6393 -0.377 -0.387 0.841 99 83 96
-26.9768 82.1599 -42.8153 -0.341 -0.495 0.799 96 80 91
-26.8340 82.0047 -42.8504 -0.341 -0.495 0.799 100 84 95
-23.5091 75.3781 -42.6972 -0.161 -0.921 0.354 97 84 94
-23.3275 75.3128 -42.7844 -0.161 -0.921 0.354 97 84 94
-23.2926 74.5197 -42.5498 -0.864 -0.301 0.402 98 85 95
-23.0118 74.6535 -42.7601 -0.981 -0.090 0.170 100 87 97
-22.9447 74.3594 -42.7054 -0.981 -0.090 0.169 103 90 100
-22.8468 74.1280 -42.6892 -0.937 -0.120 0.329 104 91 101
-22.7738 73.8485 -42.6427 0.230 -0.340 0.912 104 88 98
-22.5478 73.8690 -42.7839 0.231 -0.342 0.911 106 90 100
-22.0072 74.0750 -43.1722 0.041 -0.371 0.928 111 95 105
-21.7256 73.7756 -43.2435 0.037 -0.367 0.929 123 107 117
-21.6202 73.5587 -43.2365 0.053 -0.428 0.902 120 107 117
-19.5056 71.7138 -43.9019 0.142 -0.163 0.976 73 56 64
-18.8197 68.2545 -43.1967 -0.298 0.266 0.917 73 56 66
-20.8930 64.5120 -40.7570 -0.663 -0.035 0.748 69 53 63
-16.5905 64.5309 -43.3256 -0.017 -0.176 0.984 52 41 49
-16.0683 62.9011 -43.1119 -0.143 -0.909 0.391 36 28 35
-16.0320 61.6285 -42.7238 0.095 -0.911 0.401 28 23 29
-15.7396 61.3774 -42.8171 -0.325 -0.356 0.876 28 23 29
-15.2212 59.5142 -42.5260 -0.979 0.179 -0.097 32 30 35
-15.2795 59.1257 -42.3662 -0.973 0.220 -0.068 34 31 34
-15.2041 58.9125 -42.3425 -0.995 -0.028 -0.101 35 31 35
-15.1328 58.6948 -42.3149 -0.966 -0.169 -0.196 35 30 36
-15.0301 58.5181 -42.3191 -0.989 -0.084 -0.120 44 38 45
-15.0602 58.1729 -42.1901 -0.989 -0.091 -0.114 37 31 38
-15.0818 57.8408 -42.0703 -0.982 0.179 -0.063 45 40 46
-15.2755 56.6961 -41.5864 -0.981 0.189 -0.045 128 122 128
-15.2801 55.8060 -41.2971 -0.192 -0.053 0.980 172 165 173
-14.2465 54.4456 -41.4747 -0.805 0.133 0.578 137 134 119
-14.2342 54.1763 -41.3954 -0.805 0.133 0.578 121 118 101
-14.3047 53.8129 -41.2364 -0.966 0.175 0.189 102 99 82
-14.3383 53.4943 -41.1138 -0.966 0.175 0.189 92 89 72
-12.9032 51.5252 -41.3345 -0.254 -0.291 0.922 75 87 46
1.1865 37.0378 -45.0619 -0.713 -0.492 0.500 62 77 48
1.2777 36.8807 -45.0656 -0.381 -0.813 0.441 62 77 48
1.3082 36.6889 -45.0220 -0.230 -0.889 0.397 62 77 48
1.5043 36.5926 -45.1078 -0.220 -0.842 0.492 66 79 53
2.0430 36.6909 -45.4603 -0.237 -0.414 0.879 65 78 52
2.4212 36.6956 -45.6870 -0.242 -0.375 0.895 61 74 48
2.5099 36.5356 -45.6883 -0.248 -0.396 0.884 57 70 44
-35.2414 88.7536 -40.2578 -0.242 0.125 0.962 39 45 35
-34.2901 86.9752 -40.2502 -0.157 -0.016 0.988 133 127 139
-34.0557 87.1443 -40.4452 -0.161 -0.013 0.987 137 134 143
-33.9492 86.8833 -40.4242 -0.105 -0.078 0.991 135 132 141
-33.7761 86.8438 -40.5149 0.015 -0.098 0.995 134 131 140
-32.7543 84.7578 -40.4499 -0.182 0.034 0.983 49 38 55
-32.6437 84.5225 -40.4398 -0.187 0.038 0.982 51 40 57
-30.1134 86.8965 -42.7220 -0.297 0.208 0.932 83 69 84
-29.0335 85.9868 -43.0729 -0.037 -0.057 0.998 115 99 110
-29.2106 80.7137 -41.2581 -0.601 0.112 0.791 102 86 97
-29.1914 80.2560 -41.1213 -0.409 0.032 0.912 101 85 98
-28.2484 80.6480 -41.8121 -0.391 -0.356 0.849 95 79 92
-27.0810 82.0482 -42.9639 -0.327 -0.488 0.809 97 81 92
-26.9488 81.8674 -42.9843 -0.341 -0.495 0.799 103 87 98
-24.1255 75.0975 -42.4785 0.096 -0.871 0.481 96 80 93
-22.4103 73.8244 -43.0915 0.047 -0.373 0.927 107 91 101
-22.1592 73.8900 -43.2629 0.055 -0.396 0.916 111 95 105
-22.0152 73.7474 -43.3028 0.041 -0.371 0.928 110 94 104
-21.7027 73.5083 -43.4121 0.041 -0.371 0.928 103 90 100
-21.1527 72.8866 -43.5395 0.271 -0.325 0.906 100 83 91
-20.0557 71.6395 -43.7913 0.209 -0.198 0.958 86 69 77
-19.8586 67.7448 -42.6470 -0.132 0.061 0.989 86 69 79
-18.8967 68.2166 -43.3750 -0.337 0.231 0.913 76 59 69
-20.9818 64.4502 -40.9078 -0.823 0.025 0.568 72 56 66
-15.6576 63.8923 -43.9103 -0.065 0.017 0.998 42 32 37
-16.7546 62.0055 -42.6430 0.167 -0.859 0.484 41 32 39
-14.5891 62.6833 -44.1574 -0.001 -0.658 0.753 32 27 31
-15.5235 59.1837 -42.4646 -0.880 -0.340 -0.331 32 31 36
-15.4499 58.9681 -42.4388 -0.880 -0.340 -0.331 32 32 34
-15.3353 58.8063 -42.4549 -0.856 -0.421 -0.301 32 32 32
-15.2437 58.6152 -42.4477 -0.856 -0.421 -0.301 33 31 33
-15.2170 58.3416 -42.3750 -0.875 -0.383 -0.295 34 32 35
-14.8173 58.5438 -42.6795 -0.971 0.239 -0.014 33 31 34
-14.8380 58.2105 -42.5591 -0.961 0.271 -0.062 39 37 40
-14.9974 57.7047 -42.2999 -0.961 0.271 -0.062 49 47 50
-15.1853 57.1671 -42.0134 -0.971 0.231 -0.058 53 51 54
-15.3886 56.3183 -41.6167 -0.975 0.216 -0.053 88 83 89
-14.3851 53.7732 -41.3919 -0.970 0.180 0.165 125 122 109
-14.3750 53.5047 -41.3110 -0.966 0.175 0.189 112 108 96
-14.4082 53.1881 -41.1885 -0.966 0.175 0.189 96 93 80
-14.7127 51.4799 -40.4529 -0.902 0.358 0.243 84 90 63
-13.0105 51.7274 -41.5508 -0.235 -0.304 0.923 93 99 70
-12.9564 51.5163 -41.5148 -0.239 -0.375 0.896 79 89 52
0.4800 36.8549 -44.7972 -0.433 -0.634 0.640 66 81 52
1.0989 37.0074 -45.2167 -0.713 -0.492 0.500 66 81 52
1.3034 36.4976 -45.1738 -0.167 -0.859 0.484 68 82 56
1.7103 36.5215 -45.4248 -0.236 -0.419 0.877 67 81 55
1.9929 36.4730 -45.5781 -0.235 -0.453 0.860 64 78 52
2.0641 36.3045 -45.5660 -0.240 -0.452 0.859 60 74 48
1.9740 33.2238 -44.5138 -0.908 0.135 -0.398 74 86 62
-35.2430 88.3103 -40.3543 -0.474 0.145 0.869 43 49 37
-34.0976 85.9753 -40.2802 -0.145 -0.041 0.989 131 128 137
-34.0315 85.5891 -40.1939 -0.142 -0.034 0.989 139 136 143
-33.6778 86.1444 -40.5874 -0.206 0.079 0.975 140 137 144
-33.0485 84.0251 -40.2737 -0.208 0.089 0.974 51 42 59
-32.9543 83.7442 -40.2387 -0.222 0.121 0.968 56 47 64
-30.5046 86.5101 -42.6113 0.076 -0.082 0.994 95 81 98
-29.4824 86.0247 -43.0666 -0.117 0.008 0.993 103 89 104
-29.5228 85.3531 -42.8233 0.043 -0.163 0.986 110 94 106
-29.3176 84.2699 -42.5931 -0.122 -0.026 0.992 120 104 116
-28.9355 81.5814 -41.9454 -0.629 0.198 0.752 96 80 93
-24.2016 75.0559 -42.6584 -0.168 -0.570 0.804 95 82 91
-23.5013 74.3248 -42.8403 -0.644 -0.684 0.344 93 80 89
-22.2094 73.9012 -43.4775 0.202 -0.325 0.924 110 94 105
-22.0434 73.8008 -43.5444 0.187 -0.306 0.934 105 89 100
-21.7588 73.9266 -43.7563 0.181 -0.287 0.941 104 88 99
-21.5947 73.8200 -43.8200 0.178 -0.284 0.942 104 88 99
-21.4553 73.6662 -43.8535 0.198 -0.286 0.937 104 88 99
-19.9491 71.1309 -43.9306 0.200 -0.163 0.966 87 70 76
-16.3513 64.6875 -43.9884 -0.273 -0.145 0.951 47 39 45
-15.9438 62.5519 -43.5364 -0.003 -0.310 0.951 42 37 43
-15.8903 62.2943 -43.4845 0.025 -0.357 0.934 42 37 43
-15.9852 61.8329 -43.2770 0.251 -0.796 0.551 43 38 44
-16.0456 57.3431 -41.7762 -0.998 0.062 0.026 27 25 30
-14.9784 58.4010 -42.7619 -0.978 0.205 -0.024 35 30 36
-15.0130 58.0506 -42.6268 -0.978 0.209 -0.029 38 33 39
-14.9342 57.8452 -42.6071 -0.962 0.266 -0.069 39 34 40
-15.1336 57.2920 -42.3070 -0.970 0.234 -0.060 45 40 46
-15.0641 57.0782 -42.2789 -0.963 0.178 -0.201 39 34 40
-15.2036 56.6063 -42.0413 -0.964 0.086 -0.253 43 36 43
-15.3353 56.1476 -41.8126 -0.964 0.072 -0.257 63 56 63
-15.4103 55.7618 -41.6417 -0.974 0.072 -0.217 100 93 100
-14.5784 53.3236 -41.3458 -0.924 0.095 0.370 150 146 137
-14.4448 53.1984 -41.3851 -0.966 0.175 0.189 123 119 110
-14.6204 51.3634 -40.6812 -0.896 0.302 0.325 84 89 66
-13.6164 52.2014 -41.5572 -0.134 0.002 0.991 84 89 67
-13.4906 51.7963 -41.5005 -0.263 -0.355 0.897 89 94 71
-13.3460 51.6834 -41.5505 -0.277 -0.309 0.910 94 99 75
-13.0764 51.4357 -41.6315 -0.208 -0.386 0.899 81 91 58
-5.7188 40.0971 -42.3493 -0.928 0.204 0.312 60 68 37
1.4679 36.4033 -45.4582 -0.428 -0.322 0.844 71 84 58
1.7049 36.3297 -45.5765 -0.160 -0.768 0.621 68 81 55
-34.3982 85.7776 -40.2734 -0.157 -0.007 0.988 122 119 128
-34.2542 85.6500 -40.3183 -0.181 -0.025 0.983 129 126 135
-34.0975 85.5636 -40.3844 -0.129 -0.075 0.989 138 135 144
-33.9700 85.3810 -40.4012 -0.129 -0.080 0.988 141 138 145
-33.8729 85.1001 -40.3675 -0.085 -0.120 0.989 140 134 144
-33.7411 84.9329 -40.3920 -0.135 -0.072 0.988 145 137 150
-33.6244 84.7177 -40.3917 -0.135 -0.072 0.988 156 145 162
-33.4910 84.5564 -40.4191 -0.201 0.054 0.978 144 132 152
-33.3728 84.3475 -40.4218 -0.200 0.053 0.978 104 93 110
-33.3586 83.8130 -40.2548 -0.163 -0.006 0.987 73 62 79
-33.2502 83.5773 -40.2428 -0.226 0.052 0.973 55 44 61
-32.9413 83.3923 -40.3682 -0.221 0.100 0.970 67 56 73
-29.4362 79.9170 -41.3393 -0.506 -0.128 0.853 98 82 95
-29.2275 79.4515 -41.3122 -0.344 -0.280 0.896 100 84 97
-24.8688 74.6514 -42.3627 -0.224 -0.645 0.731 97 81 94
-22.6920 73.4934 -43.2943 0.268 -0.359 0.894 106 90 101
-22.5141 73.4195 -43.3772 0.268 -0.359 0.894 107 91 102
-22.0254 73.5238 -43.7059 0.104 -0.219 0.970 101 85 96
-21.8765 73.3907 -43.7519 0.104 -0.219 0.970 100 84 95
-21.2944 73.6587 -44.1907 0.141 -0.242 0.960 99 83 93
-20.0778 67.9287 -43.0425 -0.020 -0.816 0.578 86 69 77
-19.8949 67.8618 -43.1308 -0.020 -0.816 0.578 86 69 77
-19.6890 67.8319 -43.2450 -0.019 -0.783 0.621 87 70 78
-19.1636 67.9549 -43.6020 -0.439 0.056 0.897 85 65 74
-16.5033 64.5420 -44.0845 -0.050 -0.058 0.997 47 38 43
-16.7396 62.8371 -43.3824 -0.076 0.034 0.997 47 38 41
-16.7324 62.5127 -43.2803 -0.059 0.016 0.998 47 38 43
-15.4129 60.0895 -43.2797 0.229 -0.805 0.548 32 30 33
-15.1692 60.0934 -43.4279 -0.065 -0.218 0.974 33 31 34
-15.1256 57.6651 -42.6569 -0.987 0.129 0.095 37 32 38
-15.2352 57.2249 -42.4463 -0.985 0.167 0.039 28 23 29
-15.0335 57.1763 -42.5519 -0.966 0.100 -0.237 32 27 33
-15.0836 56.8144 -42.4029 -0.962 0.059 -0.267 38 33 39
-15.1745 56.4044 -42.2135 -0.962 0.062 -0.264 39 32 39
-15.2795 55.9801 -42.0110 -0.965 0.062 -0.255 45 38 45
-14.5926 52.8047 -41.3823 -0.847 0.231 0.479 126 121 115
-14.6925 52.1433 -41.1049 -0.897 0.336 0.286 83 79 71
-14.8187 51.7303 -40.8933 -0.992 0.111 0.067 87 91 73
-14.8082 51.4726 -40.8150 -0.961 0.192 0.199 87 92 72
-14.8445 51.1644 -40.6920 -0.961 0.192 0.199 86 91 71
-5.8935 39.9992 -42.4200 -0.935 0.182 0.304 58 64 36
-35.5782 86.8947 -40.1673 -0.175 0.054 0.983 41 47 33
-34.3049 85.0715 -40.3350 -0.144 -0.042 0.989 148 145 154
-34.1691 84.9194 -40.3669 -0.083 -0.109 0.991 138 135 144
-34.0228 84.8016 -40.4165 -0.085 -0.120 0.989 138 132 142
-33.9176 84.5503 -40.3971 -0.123 -0.075 0.990 143 135 150
-33.8123 84.3010 -40.3784 -0.134 -0.077 0.988 148 137 154
-33.6622 84.1958 -40.4344 -0.201 0.054 0.978 144 132 152
-33.5950 83.8276 -40.3534 -0.239 0.062 0.969 125 114 131
-33.5160 83.4996 -40.2928 -0.232 0.066 0.970 98 87 104
-33.4258 83.2092 -40.2514 -0.232 0.066 0.970 62 51 68
-33.0139 82.7808 -40.3591 -0.098 -0.082 0.992 72 61 78
-29.4884 82.5169 -42.4045 -0.336 0.073 0.939 96 80 91
-29.6148 79.6003 -41.3642 -0.625 -0.025 0.780 108 92 103
-29.4233 79.0942 -41.3129 -0.328 -0.290 0.899 110 94 105
-29.3188 78.3727 -41.1377 -0.434 -0.185 0.882 114 96 110
-25.3244 74.6794 -42.3335 -0.335 -0.424 0.842 100 84 95
-25.1652 74.5799 -42.3969 -0.314 -0.374 0.872 97 81 92
-23.9515 74.0677 -42.9619 -0.552 -0.756 0.352 88 75 82
-21.3884 69.9536 -43.1528 0.039 0.002 0.999 88 71 79
-20.1876 68.2085 -43.3025 0.035 -0.790 0.612 86 69 77
-20.0020 68.1458 -43.3942 0.035 -0.790 0.612 87 70 78
-19.8732 67.9871 -43.4196 0.018 -0.791 0.611 88 71 79
-19.0762 68.9393 -44.2164 0.195 -0.190 0.962 90 73 81
-21.0729 64.1986 -41.4420 -0.746 0.025 0.666 76 62 69
-17.7742 63.4368 -43.1857 -0.054 -0.010 0.998 63 50 60
-17.3379 63.7389 -43.5495 -0.072 -0.010 0.997 58 47 55
-16.3770 64.1120 -44.2540 -0.042 -0.072 0.996 49 38 44
-18.1464 60.8974 -42.1214 0.163 -0.981 0.108 48 39 44
-15.5665 61.2370 -43.7942 -0.042 -0.097 0.994 32 27 33
-15.3882 61.1531 -43.8744 -0.046 -0.100 0.994 31 29 32
-15.1393 60.1988 -43.7096 0.177 -0.772 0.610 37 35 38
-15.7731 57.5117 -42.4383 -0.993 -0.099 -0.061 29 24 30
-15.2215 57.3025 -42.7028 -0.985 0.168 0.035 28 23 29
-15.0127 57.2624 -42.8159 -0.986 0.161 -0.046 30 25 31
-15.0116 56.6645 -42.6190 -0.963 0.070 -0.262 37 30 37
-15.1785 56.1622 -42.3520 -0.966 0.067 -0.248 38 31 38
-15.2671 55.7597 -42.1654 -0.962 0.115 -0.246 44 34 43
-15.3841 53.6118 -41.3848 -0.197 -0.058 0.979 152 143 149
-14.7362 52.4180 -41.3823 -0.848 0.255 0.465 147 142 139
-14.8588 51.7353 -41.0825 -0.992 0.091 0.090 101 104 89
-12.8916 52.0015 -42.3606 -0.629 0.059 0.775 95 100 80
0.4485 35.6566 -45.0291 -0.216 -0.721 0.658 76 90 58
-35.7460 86.5056 -40.1744 -0.202 -0.057 0.978 43 49 37
-35.5787 86.4648 -40.2624 -0.107 -0.195 0.975 44 50 41
-34.5511 85.0490 -40.4156 -0.142 -0.044 0.989 138 135 144
-34.3039 84.6670 -40.4387 -0.086 -0.105 0.991 138 135 144
-34.1814 84.4731 -40.4486 -0.086 -0.105 0.991 139 133 145
-34.0705 84.2425 -40.4392 -0.123 -0.075 0.990 132 124 139
-33.9217 84.1350 -40.4938 -0.142 0.011 0.990 137 126 143
-33.8010 83.9371 -40.5013 -0.223 0.063 0.973 140 127 147
-33.7423 83.5432 -40.4060 -0.225 0.062 0.972 131 118 136
-33.6505 83.2571 -40.3666 -0.225 0.062 0.972 118 107 124
-33.4875 83.1954 -40.4450 -0.219 0.095 0.971 77 66 83
-33.4019 82.8921 -40.3961 -0.219 0.095 0.971 50 39 56
-33.3303 82.5479 -40.3251 -0.220 0.090 0.971 52 41 58
-33.1902 82.4162 -40.3664 -0.059 -0.116 0.991 76 63 81
-33.0178 82.3825 -40.4599 -0.025 -0.142 0.990 79 66 84
-25.4070 74.6216 -42.5006 -0.312 -0.383 0.870 102 86 97
-24.6696 74.8669 -43.0300 -0.260 -0.342 0.903 93 80 89
-21.2404 69.1481 -43.2104 -0.033 -0.081 0.996 91 74 80
-20.9972 68.4258 -43.1179 -0.458 0.260 0.850 110 93 99
-20.0405 67.7964 -43.4896 0.094 -0.792 0.603 101 84 92
-19.2330 68.7685 -44.3032 0.276 -0.320 0.906 98 81 89
-18.9259 68.8998 -44.5334 0.261 -0.276 0.925 94 77 85
-19.4106 67.7248 -43.8482 0.264 -0.287 0.921 93 73 82
-18.9605 62.7615 -42.4709 -0.023 -0.048 0.999 68 54 69
-17.3586 63.4427 -43.6702 -0.083 0.007 0.997 57 48 53
-18.5666 60.6900 -42.0211 -0.206 0.109 0.972 51 42 47
-15.5661 60.6585 -43.8327 0.106 -0.577 0.810 44 44 46
-15.3156 60.6718 -43.9893 0.103 -0.571 0.814 40 38 41
-15.2367 60.1363 -43.8591 0.181 -0.772 0.609 41 39 42
-15.3324 56.9230 -42.7323 -0.971 -0.085 -0.225 29 24 30
-15.2528 56.7231 -42.7142 -0.969 -0.095 -0.229 33 28 34
-15.2131 56.4744 -42.6556 -0.982 -0.018 -0.189 37 30 37
-15.0843 56.3365 -42.6879 -0.965 0.131 -0.225 43 36 43
-15.2244 55.8697 -42.4476 -0.968 0.136 -0.211 45 35 44
-15.3271 55.4518 -42.2462 -0.968 0.136 -0.211 49 39 48
-15.3307 55.1569 -42.1460 -0.963 0.125 -0.237 63 53 64
-15.4991 54.3792 -41.7851 -0.941 0.081 -0.329 114 104 115
-15.5701 54.0101 -41.6192 -0.913 -0.009 -0.407 148 138 147
-7.2089 40.1826 -42.0979 -0.857 -0.093 0.506 71 76 55
-6.0329 40.3887 -42.8806 -0.925 0.282 0.255 52 57 36
2.7453 32.3104 -45.5247 -0.661 -0.250 0.707 74 87 59
-35.7121 86.1990 -40.3301 -0.107 -0.195 0.975 48 51 44
-35.5290 86.2144 -40.4468 -0.199 -0.092 0.976 53 53 52
-34.6296 84.3791 -40.3808 -0.373 0.129 0.919 137 134 143
-34.5103 84.1776 -40.3861 -0.368 0.140 0.919 140 137 146
-34.3419 84.1374 -40.4753 -0.091 -0.103 0.990 138 132 144
-34.2763 83.7617 -40.3895 -0.111 -0.062 0.992 127 119 134
-34.1264 83.6609 -40.4471 -0.128 -0.057 0.990 132 121 138
-33.9456 83.6586 -40.5566 -0.221 0.053 0.974 135 124 141
-33.8116 83.5055 -40.5871 -0.219 0.083 0.972 134 123 140
-33.7341 83.1740 -40.5234 -0.223 0.082 0.971 132 121 138
-33.6608 82.8318 -40.4535 -0.220 0.082 0.972 98 87 104
-33.5557 82.5915 -40.4371 -0.237 0.059 0.970 73 62 79
-33.4568 82.3332 -40.4110 -0.118 -0.056 0.991 64 53 70
-33.3560 82.0822 -40.3884 -0.041 -0.129 0.991 68 57 74
-33.1700 82.0924 -40.5052 -0.025 -0.142 0.990 74 61 78
-33.0055 82.0351 -40.5863 -0.081 -0.131 0.988 75 63 79
-32.8954 81.8134 -40.5792 -0.085 -0.123 0.989 78 64 79
-29.6389 82.9592 -42.9480 0.087 -0.138 0.987 104 88 98
-29.5020 82.7958 -42.9768 0.095 -0.146 0.985 105 89 99
-21.2021 68.1630 -43.1387 -0.181 0.055 0.982 108 91 97
-21.1388 67.5199 -42.9620 -0.302 0.129 0.945 97 80 86
-20.6014 68.0635 -43.4715 0.261 -0.270 0.927 101 84 92
-20.3501 67.7393 -43.5162 0.094 -0.792 0.603 101 84 92
-20.1592 67.6868 -43.6150 0.094 -0.792 0.603 101 84 92
-19.4291 68.5319 -44.3430 0.313 -0.370 0.875 97 82 89
-18.9646 68.5480 -44.6315 0.250 -0.266 0.931 92 72 81
-17.6184 62.7991 -43.5279 -0.417 0.245 0.875 54 48 52
-17.7203 62.3151 -43.3038 -0.415 0.248 0.875 51 45 49
-17.4568 60.7165 -42.9293 -0.819 -0.560 0.124 47 42 48
-16.1086 60.6383 -43.7251 0.158 -0.650 0.744 44 42 47
-15.6827 60.5694 -43.9617 0.106 -0.572 0.813 53 52 55
-15.4747 60.5266 -44.0741 0.100 -0.571 0.815 37 35 38
-15.4414 59.9319 -43.8954 0.178 -0.769 0.614 45 43 46
-15.2688 59.8419 -43.9705 0.152 -0.790 0.594 42 40 43
-15.9622 55.8995 -42.2281 -0.984 0.023 0.174 33 28 34
-15.5870 56.0706 -42.5142 -0.927 0.280 0.252 38 31 38
-15.1661 55.9989 -42.7467 -0.982 0.172 0.077 35 25 34
-15.0860 55.8028 -42.7299 -0.970 0.158 -0.185 37 27 36
-15.2396 55.3240 -42.4760 -0.971 0.162 -0.178 49 39 48
-15.5451 53.2500 -41.5956 -0.974 0.077 -0.212 161 155 159
-13.7045 51.2203 -42.0382 -0.982 -0.032 -0.184 101 104 93
-0.1756 34.5364 -44.7013 -0.582 0.003 0.813 69 83 50
2.0275 31.7802 -45.1218 -0.132 -0.411 0.902 75 88 60
2.7208 31.9269 -45.5935 -0.472 -0.293 0.831 78 91 63
-35.6687 85.9273 -40.5025 -0.199 -0.092 0.976 52 52 52
-35.5403 85.7514 -40.5218 -0.288 0.030 0.957 50 49 55
-35.4736 85.3617 -40.4313 -0.195 -0.061 0.979 49 46 55
-35.4133 84.9534 -40.3307 -0.111 -0.089 0.990 55 52 61
-35.2528 84.8918 -40.4082 -0.109 -0.116 0.987 63 60 69
-35.1503 84.6320 -40.3834 -0.237 0.000 0.971 67 66 72
-35.0482 84.3724 -40.3584 -0.237 0.000 0.971 77 74 83
-34.8887 84.3064 -40.4338 -0.271 0.039 0.962 100 99 107
-34.7934 84.0261 -40.3976 -0.373 0.129 0.919 130 129 137
-34.7085 83.7130 -40.3441 -0.370 0.143 0.918 144 141 150
-34.6229 83.4049 -40.2927 -0.352 0.123 0.928 136 133 144
-34.4610 83.3474 -40.3725 -0.109 -0.064 0.992 130 124 138
-34.3632 83.0812 -40.3426 -0.129 -0.054 0.990 132 123 140
-34.1843 83.0772 -40.4508 -0.190 0.064 0.980 133 122 139
-33.9940 83.1072 -40.5773 -0.223 0.082 0.971 133 122 139
-33.8757 82.9072 -40.5824 -0.230 0.066 0.971 132 123 140
-33.8147 82.5278 -40.4919 -0.228 0.061 0.972 119 110 127
-33.7281 82.2314 -40.4450 -0.128 -0.057 0.990 105 96 113
-33.6188 82.0075 -40.4365 -0.079 -0.102 0.992 75 67 82
-33.5070 81.7924 -40.4324 -0.041 -0.129 0.991 61 50 66
-33.3359 81.7594 -40.5261 -0.058 -0.115 0.992 71 60 76
-33.1925 81.6405 -40.5737 -0.098 -0.115 0.989 69 58 72
-33.0722 81.4520 -40.5839 -0.098 -0.115 0.989 75 61 74
-32.9373 81.3075 -40.6177 -0.164 0.017 0.986 78 64 77
-32.8052 81.1548 -40.6472 -0.147 0.004 0.989 77 63 76
-29.6754 82.4855 -43.0108 0.087 -0.138 0.987 108 92 102
-29.4444 82.0483 -43.0049 0.011 -0.043 0.999 110 94 104
-29.3959 79.6031 -42.2108 -0.185 -0.531 0.827 116 99 109
-28.7409 79.2752 -42.5012 0.017 -0.671 0.741 113 96 106
-28.5224 79.3281 -42.6528 -0.043 -0.610 0.791 111 93 105
-28.6465 78.5265 -42.3068 -0.086 -0.669 0.738 110 92 104
-28.4842 78.4409 -42.3773 -0.160 -0.654 0.740 108 90 104
-27.8962 79.3993 -43.0600 -0.047 -0.583 0.811 108 90 104
-27.6307 78.5821 -42.9472 -0.322 0.091 0.942 108 90 104
-21.4544 67.8172 -43.1007 -0.194 0.084 0.977 98 81 87
-20.7855 67.8402 -43.5177 0.262 -0.271 0.926 101 84 92
-20.3572 67.4438 -43.6463 -0.006 -0.809 0.587 101 84 92
-19.9886 67.6881 -43.9542 0.021 -0.792 0.610 96 81 88
-19.4696 68.1778 -44.4368 0.251 -0.260 0.932 93 76 84
-19.6620 66.7494 -43.8378 -0.471 -0.007 0.882 80 66 73
-17.7134 62.7348 -43.6780 -0.374 0.217 0.902 59 49 57
-17.2046 60.1698 -43.1253 -0.827 -0.561 0.047 43 34 42
-17.1313 59.9509 -43.0964 -0.773 -0.628 -0.093 44 36 43
-17.0317 59.7686 -43.0960 -0.783 -0.613 -0.107 48 41 48
-16.3157 60.4249 -43.7552 0.161 -0.648 0.744 52 46 50
-16.0527 60.4600 -43.9280 0.122 -0.612 0.781 65 59 63
-15.6504 55.4633 -42.4910 -0.987 0.140 0.074 40 33 40
-15.5688 55.2717 -42.4763 -0.996 0.092 -0.003 34 27 34
-15.1178 55.5286 -42.8389 -0.962 0.112 -0.249 37 30 37
-14.2578 50.9357 -41.8180 -0.991 0.133 0.030 123 122 116
-11.2235 50.9311 -43.6734 0.478 -0.528 0.702 95 99 67
-5.4940 40.6141 -43.7043 -0.952 0.291 0.091 49 53 39
-3.8696 40.2214 -44.5662 -0.010 -0.225 0.974 42 55 29
-35.5732 85.8393 -40.7685 -0.310 0.130 0.942 49 48 54
-35.5495 85.2985 -40.5997 -0.276 0.085 0.957 50 47 56
-35.5314 84.7441 -40.4229 -0.236 -0.005 0.972 51 48 57
-35.3189 84.8628 -40.5937 -0.271 0.026 0.962 49 46 53
