ply
format ascii 1.0
element vertex 843
property float x
property float y
property float z
property float nx
property float ny
property float nz
property uchar diffuse_red
property uchar diffuse_green
property uchar diffuse_blue
end_header
172.3092 71.3114 -47.2214 -0.641 -0.183 0.746 85 86 78
173.4643 69.9095 -48.1168 -0.567 -0.619 0.544 109 108 103
173.4707 69.6782 -48.1398 -0.551 -0.320 0.771 109 108 103
173.5556 69.5099 -48.2109 -0.552 -0.308 0.775 111 110 105
173.6047 69.3126 -48.2600 -0.561 -0.250 0.790 112 111 106
173.8030 68.9965 -48.4198 -0.564 -0.247 0.788 117 116 111
173.6331 68.6257 -48.3346 -0.594 -0.289 0.751 117 116 111
173.6346 68.3905 -48.3545 -0.603 -0.279 0.747 117 116 111
172.4606 65.3795 -47.8018 -0.168 0.485 0.858 93 93 81
175.5642 63.1640 -50.0828 -0.977 -0.195 0.091 85 77 74
174.1756 28.2666 -51.9535 -0.409 0.563 0.718 92 81 79
173.2631 26.2912 -51.4945 -0.620 -0.759 0.201 107 96 92
174.1086 26.0501 -52.0867 -0.487 -0.811 0.325 106 95 93
171.0708 16.3738 -50.8083 -0.145 -0.085 0.986 98 93 90
175.2064 1.7292 -54.7897 -0.485 -0.101 0.869 111 102 97
170.7841 -5.4400 -52.3715 -0.939 0.147 0.311 113 103 101
175.0254 -7.4966 -55.4104 -0.302 -0.115 0.946 104 94 93
175.0623 -7.7124 -55.4527 -0.472 0.181 0.863 96 86 85
174.7873 -8.0697 -55.2953 -0.416 -0.190 0.889 81 75 72
174.6256 -8.2418 -55.1995 -0.419 -0.233 0.877 80 75 72
173.2469 -11.3830 -54.5187 -0.226 -0.079 0.971 79 76 71
173.2757 -11.5923 -54.5550 -0.264 -0.450 0.853 82 79 74
174.3004 -18.5638 -55.8108 -0.106 -0.129 0.986 112 113 108
174.9859 -20.0246 -56.3928 -0.064 0.290 0.955 142 143 137
174.8140 -20.1639 -56.2877 -0.074 0.329 0.941 135 136 131
173.7467 -19.9683 -55.5489 -0.438 0.644 0.627 118 118 116
173.1062 -19.9274 -55.1117 -0.428 0.674 0.603 132 134 131
172.8534 -20.2266 -54.9645 -0.424 0.665 0.615 162 164 163
172.8470 -20.4212 -54.9759 -0.449 0.653 0.610 160 162 161
173.3525 -21.2094 -55.3818 -0.597 -0.756 0.270 148 150 149
174.0956 -21.6999 -55.9247 -0.196 -0.454 0.869 148 150 149
171.5158 -25.6800 -54.4977 -0.349 0.026 0.937 155 160 165
171.4970 -25.8624 -54.4997 -0.349 0.026 0.937 140 144 152
171.1862 -26.6685 -54.3541 -0.606 0.244 0.757 76 81 87
171.0699 -26.9920 -54.3014 -0.340 -0.671 0.659 100 105 111
172.3291 -28.7530 -55.2962 -0.033 -0.426 0.904 149 162 171
166.3410 -31.0498 -51.4247 -0.713 0.695 -0.093 40 49 61
166.0503 -31.0570 -51.2284 -0.545 0.789 0.283 40 49 59
165.9332 -31.1632 -51.1576 -0.545 0.789 0.283 39 48 58
170.9416 -34.6196 -54.8289 -0.560 0.795 0.233 39 46 57
170.5129 -34.7380 -54.5480 -0.564 0.728 0.389 33 35 47
170.4032 -34.8577 -54.4834 -0.564 0.728 0.389 32 35 45
173.9001 74.8885 -48.2790 -0.858 0.443 -0.260 35 42 26
173.5359 74.3338 -48.0756 -0.859 0.440 -0.262 30 37 21
173.1694 73.7795 -47.8706 -0.859 0.443 -0.256 38 45 29
172.0273 72.0948 -47.2285 -0.525 0.347 0.777 67 74 58
172.6489 72.1531 -47.6469 -0.766 -0.627 0.144 79 83 69
172.7311 71.9869 -47.7162 -0.766 -0.608 0.209 86 89 78
172.3678 71.4466 -47.5123 -0.875 0.396 0.278 91 92 84
174.0834 72.6464 -48.5838 -0.219 0.217 0.951 96 97 89
173.3265 69.8830 -48.2905 -0.567 -0.619 0.544 103 103 95
173.1749 69.5247 -48.2161 -0.586 -0.297 0.754 106 106 98
173.2713 69.3663 -48.2944 -0.594 -0.292 0.750 111 111 103
173.4329 69.0233 -48.4320 -0.557 0.139 0.819 122 122 114
173.6570 62.6087 -49.0997 -0.932 0.077 0.353 90 83 77
173.6345 62.3589 -49.1045 -0.932 0.077 0.353 89 81 78
173.7273 6.4819 -53.6555 -0.240 -0.960 -0.142 94 83 79
174.6201 5.3945 -54.3506 -0.755 0.330 0.567 108 97 93
173.4503 3.5617 -53.7015 -0.580 0.489 0.651 106 95 91
173.5710 2.0940 -53.9016 -0.154 0.133 0.979 106 97 92
172.6829 -4.1713 -53.8002 -0.391 -0.920 0.029 99 89 87
173.7230 -4.7583 -54.5554 -0.466 -0.750 0.469 89 81 78
174.1634 -7.3135 -55.0604 -0.303 -0.383 0.873 105 95 94
174.7575 -7.6435 -55.4913 -0.467 0.172 0.867 100 90 89
174.4535 -7.7868 -55.2959 -0.435 0.072 0.897 94 84 83
174.4258 -7.9875 -55.2932 -0.435 0.072 0.897 89 81 79
174.4012 -8.1886 -55.2926 -0.419 -0.233 0.877 84 79 76
175.4937 -9.2619 -56.1225 -0.859 0.362 -0.362 84 80 77
172.8564 -11.2794 -54.4893 -0.230 -0.084 0.970 78 75 70
172.8577 -11.4806 -54.5063 -0.230 -0.084 0.970 80 77 72
172.6486 -12.8245 -54.4719 -0.875 0.266 -0.405 124 121 114
177.6827 -18.7049 -58.3710 -0.127 0.543 0.830 87 83 82
176.5144 -18.5171 -57.5606 -0.213 0.673 0.709 87 83 80
176.1774 -18.6091 -57.3386 -0.211 0.667 0.715 91 87 84
172.9222 -18.2822 -55.0964 -0.109 0.239 0.965 117 116 111
172.8362 -18.8452 -55.0831 -0.114 0.214 0.970 120 119 114
172.9851 -19.2952 -55.2206 -0.109 0.247 0.963 140 141 135
173.2247 -19.5819 -55.4067 -0.463 0.638 0.615 136 137 131
172.8135 -20.0215 -55.1622 -0.439 0.674 0.595 140 142 139
172.7599 -20.1983 -55.1399 -0.430 0.657 0.619 146 148 147
173.0288 -20.6958 -55.3629 -0.944 -0.310 0.116 131 133 130
173.0639 -20.9069 -55.4037 -0.670 -0.687 0.280 145 147 144
173.5216 -21.4821 -55.7615 -0.770 -0.602 0.211 145 147 146
172.7087 -22.9267 -55.3242 -0.508 0.858 0.073 142 146 145
172.4099 -22.9969 -55.1264 -0.533 0.843 0.072 143 147 146
171.2760 -25.5820 -54.5622 -0.351 0.035 0.936 144 149 155
171.3227 -25.7943 -54.6110 -0.591 -0.121 0.798 134 138 147
170.9574 -26.1940 -54.3944 -0.597 0.512 0.618 88 93 99
171.0833 -26.4432 -54.5002 -0.668 0.419 0.615 69 74 80
170.8978 -27.1121 -54.4276 -0.286 -0.728 0.624 111 116 122
171.2704 -28.8103 -54.8176 0.018 -0.532 0.847 145 159 168
171.4342 -29.0829 -54.9510 0.021 -0.528 0.849 173 186 195
165.5371 -28.8752 -50.9200 -0.377 0.753 0.539 56 72 88
169.4962 -33.7927 -54.0100 -0.546 0.643 0.538 41 51 61
169.5094 -33.9831 -54.0343 -0.548 0.651 0.525 41 47 59
169.7588 -34.3131 -54.2306 -0.536 0.671 0.512 36 40 52
173.2731 74.1962 -48.1740 -0.882 0.313 -0.352 34 41 25
173.2662 73.9520 -48.1889 -0.887 0.304 -0.346 46 53 37
172.9710 73.4604 -48.0263 -0.882 0.294 -0.368 65 72 56
172.3355 72.2097 -47.6918 -0.862 -0.434 0.262 79 83 69
172.6516 72.2425 -47.9053 -0.772 -0.619 0.143 87 90 79
172.6926 72.0414 -47.9495 -0.776 -0.594 0.211 91 94 83
173.3346 72.3452 -48.3643 -0.431 -0.049 0.901 96 97 89
172.8374 69.8072 -48.2274 -0.558 -0.749 0.357 110 110 102
173.1890 69.8565 -48.4640 -0.567 -0.619 0.544 109 109 101
173.5870 10.5157 -53.4877 -0.751 -0.548 0.369 107 95 95
173.2323 2.1368 -53.9160 -0.160 0.127 0.979 106 97 92
172.9565 1.9532 -53.7421 -0.418 -0.188 0.889 107 98 93
171.2351 -3.3207 -52.9868 -0.393 -0.913 0.107 116 104 104
173.3502 -4.4808 -54.5265 -0.447 -0.881 0.154 94 86 83
174.7038 -8.0422 -55.7376 -0.319 -0.310 0.896 90 82 80
175.8300 -9.3345 -56.6114 -0.549 0.205 0.810 84 80 77
175.5422 -9.4783 -56.4261 -0.534 0.591 0.605 87 83 80
175.9832 -18.5471 -57.4538 -0.211 0.667 0.715 90 86 83
172.4702 -18.9153 -55.0804 -0.149 -0.532 0.834 136 135 130
172.6865 -19.1917 -55.2504 -0.150 -0.536 0.831 142 141 136
172.5734 -19.9377 -55.2328 -0.433 0.667 0.606 117 119 116
172.6049 -20.3431 -55.2868 -0.452 0.658 0.603 139 141 138
172.8098 -20.8159 -55.4648 -0.678 -0.692 0.246 149 151 148
173.3905 -21.4386 -55.9119 -0.157 -0.388 0.908 148 150 147
173.6659 -21.7462 -56.1250 -0.193 -0.454 0.870 147 149 146
170.8985 -26.1794 -54.5870 -0.603 0.513 0.611 88 93 99
170.9619 -26.3991 -54.6479 -0.683 0.725 0.087 82 87 93
170.7754 -27.2557 -54.5889 -0.341 -0.706 0.621 114 118 127
170.0317 -27.8271 -54.1260 -0.185 -0.240 0.953 163 175 187
170.4553 -28.4141 -54.4627 -0.180 -0.249 0.952 148 162 172
170.2309 -28.4876 -54.3151 -0.370 -0.350 0.861 164 177 186
169.7993 -34.7245 -54.5193 -0.544 0.732 0.410 40 44 55
172.6586 -36.6216 -56.6270 -0.068 -0.644 0.762 39 43 54
173.2008 74.2232 -48.3890 -0.851 0.231 -0.472 50 54 40
173.0785 73.8794 -48.3324 -0.844 0.236 -0.482 66 70 56
172.9990 73.5732 -48.3022 -0.845 0.228 -0.484 83 87 74
172.2435 72.4535 -47.8722 -0.907 -0.016 -0.421 94 97 86
172.3273 72.2900 -47.9429 -0.890 -0.016 -0.456 94 97 87
172.6157 72.2994 -48.1404 -0.850 -0.115 -0.515 96 99 88
172.6744 72.1132 -48.1956 -0.850 -0.115 -0.515 101 102 94
173.1141 72.2473 -48.4871 -0.426 -0.085 0.901 105 106 98
173.0863 71.9868 -48.4888 -0.630 -0.218 0.746 109 110 102
173.4437 72.0483 -48.7295 -0.616 -0.446 0.649 112 113 105
174.2261 72.4612 -49.2343 -0.408 -0.113 0.906 112 113 105
174.4931 72.4422 -49.4193 -0.436 -0.048 0.899 112 113 105
172.6039 69.9367 -48.3209 -0.558 -0.749 0.357 114 114 106
172.7256 69.8009 -48.4153 -0.558 -0.749 0.357 118 118 110
173.0658 69.8415 -48.6459 -0.569 -0.616 0.545 125 122 113
172.5836 67.3446 -48.5138 -0.970 0.105 0.220 124 121 112
172.3293 66.9131 -48.3735 -0.891 -0.217 -0.399 121 119 108
172.6419 66.2228 -48.6434 -0.898 -0.226 -0.378 101 99 87
173.2412 10.5291 -53.5011 -0.741 -0.571 0.352 107 95 95
172.8135 3.2201 -53.7906 -0.304 -0.265 0.915 112 101 97
172.7577 3.0172 -53.7685 -0.314 -0.231 0.921 99 89 87
172.6745 2.4041 -53.7602 -0.636 0.280 0.719 110 100 98
172.5849 2.2054 -53.7145 -0.573 0.171 0.801 113 104 99
172.4015 2.0153 -53.6036 -0.458 -0.117 0.882 112 103 98
277.2183 -8.0482 -126.4498 -0.989 0.130 -0.068 112 102 100
174.0921 -8.1124 -55.5740 -0.329 -0.349 0.877 84 79 76
172.1980 -11.3038 -54.5269 -0.387 -0.514 0.765 75 72 67
172.8697 -12.0848 -55.0510 -0.988 -0.151 0.040 109 106 99
172.6820 -12.4342 -54.9498 -0.737 -0.142 0.661 121 118 111
172.4312 -12.9629 -54.8196 -0.885 -0.436 -0.162 117 114 107
177.8398 -18.7672 -59.0004 -0.020 0.274 0.962 86 83 78
173.1220 -19.7554 -55.8367 -0.502 0.775 0.383 144 145 140
172.4628 -19.9029 -55.3953 -0.957 -0.278 0.077 108 110 107
172.7639 -20.2142 -55.6272 -0.928 -0.363 0.087 109 111 108
173.3855 -21.8419 -56.1843 -0.824 -0.475 0.309 154 158 157
173.5247 -22.0962 -56.3003 -0.887 -0.303 0.347 156 160 159
171.6477 -25.9707 -55.3195 -0.825 -0.473 -0.310 119 124 127
171.1170 -26.1054 -54.9655 -0.998 0.059 -0.038 93 98 101
169.8058 -26.0507 -54.0599 -0.527 -0.738 0.421 93 98 103
170.0737 -26.3660 -54.2692 -0.528 -0.739 0.419 95 100 106
168.5544 -26.0041 -53.1960 -0.425 -0.649 0.631 103 108 114
187.7493 -39.9487 -67.5023 -0.846 -0.170 -0.506 153 166 183
187.8754 -40.2476 -67.6128 -0.846 -0.170 -0.506 124 137 154
187.8878 -40.4854 -67.6403 -0.847 -0.177 -0.501 81 94 111
164.2347 -28.7057 -50.4427 -0.535 0.843 0.063 55 67 81
164.0968 -28.7990 -50.3554 -0.531 0.844 0.076 57 67 78
172.0392 -36.4614 -56.4260 -0.023 -0.675 0.738 43 47 56
180.3865 83.9518 -52.8445 -0.799 -0.280 -0.532 37 46 29
173.8056 74.5972 -49.0439 -0.884 0.044 -0.466 102 105 95
173.5396 74.1278 -48.8976 -0.859 0.229 -0.457 109 112 103
172.4737 72.9738 -48.2533 -0.835 -0.132 -0.534 112 115 107
172.4593 72.7256 -48.2631 -0.888 -0.022 -0.460 113 116 108
172.6560 72.1850 -48.4420 -0.610 -0.463 0.644 114 115 107
173.1714 72.3831 -48.7822 -0.662 -0.343 0.667 115 116 108
172.8954 71.9139 -48.6289 -0.620 -0.329 0.713 114 115 107
173.4227 72.1182 -48.9768 -0.602 -0.397 0.693 114 115 107
173.7334 72.1389 -49.1898 -0.698 -0.484 0.528 113 114 106
171.1640 66.5443 -47.8604 -0.924 0.040 0.380 124 121 112
172.2857 66.9605 -48.6020 -0.951 -0.303 0.064 120 118 106
173.2077 13.3054 -53.5085 -0.610 -0.546 0.573 88 80 78
173.3103 13.0991 -53.5958 -0.610 -0.546 0.573 88 80 78
173.4131 12.8924 -53.6833 -0.610 -0.546 0.573 103 95 93
172.2261 2.6601 -53.6778 -0.092 0.102 0.990 98 88 86
172.2746 2.4508 -53.7279 -0.086 0.076 0.993 111 101 99
172.1586 2.2552 -53.6634 -0.117 0.039 0.992 116 106 104
173.5939 -7.7951 -55.4544 -0.359 -0.378 0.854 88 83 80
173.7850 -8.0413 -55.6060 -0.332 -0.345 0.878 84 79 76
175.9864 -9.3623 -57.2315 -0.120 -0.807 0.578 84 80 77
177.5674 -9.9369 -58.3691 -0.194 -0.815 0.546 87 83 80
176.8921 -9.9947 -57.9073 -0.209 -0.792 0.574 91 87 84
175.3979 -10.0650 -56.8810 -0.229 -0.070 0.971 101 97 94
175.5303 -10.3057 -56.9916 -0.219 -0.206 0.954 107 103 100
175.4151 -10.4869 -56.9264 -0.219 -0.222 0.950 109 105 102
172.4180 -13.1590 -55.0692 -0.897 -0.417 -0.144 113 110 103
172.5409 -13.5938 -55.1886 -0.872 -0.281 -0.400 104 99 95
172.6485 -13.8253 -55.2814 -0.979 -0.199 -0.047 107 102 98
173.0881 -19.7495 -56.0564 -0.614 0.663 0.429 137 138 133
171.7907 -26.0500 -55.6618 -0.821 -0.466 -0.330 121 125 126
171.2572 -25.9934 -55.2888 -0.988 -0.030 -0.150 117 121 122
173.7652 -28.1512 -57.1926 -0.683 0.728 0.055 102 105 109
172.9965 -28.1724 -56.6635 -0.898 -0.425 0.119 104 107 111
164.0878 -28.8113 -50.5617 -0.534 0.842 0.076 68 78 89
163.8045 -28.8221 -50.3669 -0.533 0.840 0.100 67 77 86
168.2004 -33.9912 -53.8142 -0.112 -0.785 0.609 47 51 62
168.4939 -34.3474 -54.0452 -0.092 -0.774 0.627 46 50 61
171.7366 -36.4896 -56.4552 -0.012 -0.656 0.754 47 51 62
180.6103 83.9941 -53.2903 -0.798 -0.283 -0.531 39 46 29
180.6084 83.4655 -53.3308 -0.962 0.116 -0.248 42 49 34
180.6177 83.2106 -53.3576 -0.960 0.189 -0.206 44 50 36
173.9111 74.5380 -49.3915 -0.899 0.057 -0.434 115 116 110
172.7738 73.3199 -48.6989 -0.834 -0.143 -0.533 115 116 111
172.6799 73.0025 -48.6590 -0.889 -0.086 -0.449 115 116 111
172.7223 72.8019 -48.7043 -0.889 -0.086 -0.449 115 116 110
172.4679 72.3490 -48.5637 -0.574 -0.356 0.738 114 115 109
173.1822 72.7180 -49.0301 -0.515 -0.392 0.762 114 115 107
172.7366 71.8676 -48.7884 -0.620 -0.329 0.713 114 115 107
169.8207 65.3420 -47.2826 -0.930 -0.328 0.165 124 121 112
170.3312 65.5154 -47.6231 -0.901 -0.412 0.138 119 117 105
170.4466 65.3782 -47.7140 -0.901 -0.411 0.143 112 110 98
170.6563 65.3136 -47.8647 -0.912 -0.385 0.141 109 107 95
172.4920 66.2692 -49.0627 -0.718 -0.021 0.695 97 95 83
173.1396 62.0816 -49.8444 -0.932 0.360 0.036 104 96 93
170.2886 30.6282 -50.3612 -0.922 -0.368 -0.123 115 104 102
169.6241 27.2881 -50.1650 -0.223 -0.272 0.936 93 83 82
173.1418 10.3603 -53.9490 -0.103 -0.059 0.993 98 86 86
173.0724 10.1475 -53.9177 -0.100 -0.053 0.994 87 77 76
171.8996 2.4955 -53.7109 -0.084 0.073 0.994 107 97 95
172.2827 1.4375 -54.0607 -0.951 -0.297 -0.088 105 95 94
172.5448 0.1788 -54.3425 -0.161 0.171 0.972 109 97 97
172.7611 -1.0796 -54.5924 -0.035 -0.660 0.751 104 94 93
172.0462 -4.6388 -54.3786 -0.847 0.443 0.293 83 78 75
171.8423 -6.8143 -54.4098 -0.731 -0.347 -0.588 92 84 81
172.1638 -7.0819 -54.6540 -0.735 -0.334 -0.591 92 84 81
172.2968 -7.3113 -54.7646 -0.785 -0.084 -0.614 91 83 80
172.7914 -7.6187 -55.1322 -0.509 0.826 0.240 89 84 81
172.3846 -7.7334 -54.8590 -0.493 0.832 0.255 89 84 81
172.3706 -7.9320 -54.8650 -0.716 0.181 0.675 85 81 78
172.4075 -8.1418 -54.9072 -0.718 0.171 0.675 80 77 74
175.6598 -9.7044 -57.2881 -0.191 -0.775 0.602 86 82 79
172.4710 -12.5754 -55.3030 -0.911 -0.327 -0.250 106 103 96
172.5386 -13.1946 -55.3991 -0.835 -0.346 -0.427 107 104 97
172.6462 -13.4258 -55.4921 -0.836 -0.337 -0.434 107 102 96
172.7225 -13.6483 -55.5627 -0.868 -0.290 -0.402 100 96 92
172.6618 -13.8305 -55.5350 -0.979 -0.199 -0.047 100 95 91
172.6364 -14.0229 -55.5327 -0.371 0.518 0.771 100 95 91
172.4856 -20.9099 -55.9744 -0.568 -0.801 0.190 176 178 175
172.9673 -21.2965 -56.3393 -0.979 -0.007 -0.203 177 179 176
170.9857 -26.2604 -55.3580 -0.597 0.801 0.040 113 117 116
173.1908 -27.8898 -57.0174 -0.570 0.793 0.216 111 115 116
169.4031 -29.0386 -54.4801 -0.176 -0.700 0.692 188 201 209
169.9822 -35.2660 -55.3761 -0.009 -0.685 0.729 59 63 74
179.9476 84.2807 -53.1006 -0.893 -0.365 -0.264 50 54 42
180.4680 84.4944 -53.4466 -0.821 -0.239 -0.518 51 55 43
180.6147 84.3645 -53.5592 -0.821 -0.255 -0.511 49 55 43
180.5316 84.0251 -53.5280 -0.777 -0.261 -0.573 51 55 42
180.7265 83.6738 -53.6917 -0.962 0.116 -0.248 51 54 43
172.7969 73.4286 -48.9729 -0.887 -0.064 -0.457 115 116 110
172.6007 73.0230 -48.8682 -0.922 0.196 -0.333 115 116 110
172.5271 72.7234 -48.8406 -0.922 0.196 -0.333 115 116 110
172.8702 72.7790 -49.0754 -0.892 -0.057 -0.449 114 115 109
172.2796 72.0408 -48.7220 -0.377 -0.280 0.883 114 115 107
168.4148 64.5386 -46.6205 -0.948 -0.318 0.015 125 122 113
168.4257 64.3258 -46.6449 -0.954 -0.299 0.029 125 122 113
169.4703 64.9215 -47.3261 -0.655 -0.756 -0.013 121 119 107
169.6078 64.8042 -47.4313 -0.655 -0.756 -0.013 108 106 94
169.4628 27.2848 -50.2974 -0.273 -0.358 0.893 98 86 86
171.7229 27.4436 -51.8607 -0.210 -0.758 0.617 112 100 100
172.6521 10.1605 -53.8755 -0.130 -0.049 0.990 89 77 77
171.5925 2.5345 -53.7397 -0.084 0.073 0.994 98 88 86
173.3135 -4.6487 -55.5078 -0.594 -0.765 -0.249 93 88 85
172.7233 -7.3965 -55.3136 -0.805 0.567 0.174 95 87 84
172.5262 -7.5573 -55.1889 -0.501 0.829 0.248 93 88 84
172.1638 -9.0883 -55.0573 -0.151 -0.055 0.987 86 85 81
172.2408 -12.9099 -55.4132 -0.803 -0.372 -0.465 104 99 95
172.7984 -13.4710 -55.8464 -0.827 -0.364 -0.428 104 101 96
172.6750 -13.8357 -55.7892 -0.979 -0.199 -0.047 106 104 97
172.4610 -13.9718 -55.6507 -0.394 0.599 0.698 106 102 97
174.6606 -17.9068 -57.4956 0.077 -0.173 0.982 83 82 78
172.9876 -19.7254 -56.4729 -0.537 0.761 0.364 122 123 117
171.8960 -20.1006 -55.7414 -0.034 -0.439 0.898 122 124 121
173.2406 -21.6112 -56.7985 -0.755 -0.564 0.334 187 192 188
173.4773 -22.1036 -57.0024 -0.890 -0.369 0.267 172 176 175
176.1390 -23.3803 -58.9593 -0.812 0.045 0.582 168 174 174
170.9061 -21.4539 -55.1583 -0.630 0.768 0.117 167 173 173
170.1663 -23.2413 -54.7837 -0.563 0.467 0.682 150 154 155
173.7229 -26.3800 -57.5119 -0.719 -0.443 -0.536 139 143 144
172.9672 -26.2307 -56.9731 -0.677 -0.636 -0.370 139 143 142
170.8930 -26.2299 -55.5268 -0.647 0.760 0.061 117 121 120
170.9633 -26.8343 -55.6237 -0.649 0.759 -0.049 114 118 117
169.0647 -27.2180 -54.3302 -0.415 0.771 0.484 132 141 141
168.5329 -28.4183 -54.0543 -0.177 -0.686 0.705 170 180 180
168.9487 -29.0018 -54.3904 -0.085 -0.782 0.618 182 194 199
180.4314 83.7731 -53.7731 -0.184 -0.528 0.829 51 54 43
169.7326 31.1758 -50.4242 -0.959 -0.222 0.174 107 97 95
169.6882 30.9512 -50.4108 -0.989 -0.039 0.146 107 97 95
169.6933 30.7421 -50.4309 -0.989 -0.039 0.146 113 102 100
169.2853 30.1980 -50.1879 -0.975 -0.080 0.209 115 103 103
169.1977 28.5024 -50.2602 -0.846 -0.236 0.479 106 96 95
170.3293 22.9280 -51.4925 -0.779 0.173 -0.603 95 85 86
171.4880 8.0914 -53.4739 -0.760 -0.588 -0.276 102 91 87
170.9913 2.7996 -53.5431 -0.120 0.029 0.992 90 80 78
171.3641 2.5671 -53.8226 -0.559 -0.113 0.822 87 77 75
172.5630 -3.8989 -55.1723 -0.460 0.556 0.692 116 108 105
173.5142 -4.6758 -55.9000 -0.584 -0.765 -0.271 99 94 91
172.7901 -7.4056 -55.6079 -0.752 0.632 0.187 102 94 91
170.0184 -8.5804 -53.7587 -0.004 -0.517 0.856 85 84 80
171.1680 -9.4453 -54.6323 -0.145 -0.168 0.975 109 105 102
173.0553 -13.5468 -56.2778 -0.827 -0.364 -0.428 111 108 103
173.1161 -13.7662 -56.3377 -0.867 -0.293 -0.403 111 110 105
172.6883 -13.8409 -56.0439 -0.979 -0.199 -0.047 110 110 102
172.3513 -13.9404 -55.8156 -0.391 0.593 0.704 113 110 105
170.8754 -17.3938 -55.0539 -0.162 0.565 0.809 92 91 86
172.4507 -19.5316 -56.3260 -0.122 -0.619 0.776 118 119 113
173.8247 -22.4524 -57.5189 -0.905 -0.248 0.345 169 175 175
171.4322 -21.6773 -55.7817 -0.294 -0.160 0.942 169 175 175
170.1919 -25.9119 -55.2466 -0.672 0.700 0.239 123 127 126
169.0646 -25.9359 -54.4587 -0.596 0.792 -0.130 120 124 123
169.3743 -26.6433 -54.7314 -0.612 0.736 0.290 118 122 121
179.0650 -34.9516 -62.1756 0.045 -0.697 0.716 185 199 212
180.8025 -36.3041 -63.4996 0.017 -0.733 0.680 190 204 218
169.5672 31.1666 -50.5553 -0.906 -0.104 -0.410 112 102 100
169.6007 30.9665 -50.5947 -0.978 0.069 -0.198 112 102 100
169.7921 30.8148 -50.7413 -0.978 0.141 -0.157 115 104 102
169.6269 28.8717 -50.7778 -0.774 0.343 0.533 107 95 95
169.4467 28.6116 -50.6713 -0.766 0.400 0.503 105 95 93
169.5503 9.5303 -52.2438 -0.521 0.097 0.848 90 80 78
170.9890 8.5239 -53.3357 -0.760 -0.544 -0.355 108 97 95
153.1039 4.5062 -41.0616 -0.938 -0.007 0.346 116 106 104
171.6539 0.9250 -54.4008 -0.475 -0.130 0.871 112 102 101
172.5007 -7.3396 -55.6464 -0.613 0.728 0.307 106 98 95
171.7309 -7.5785 -55.1233 -0.520 0.835 0.183 104 100 95
169.2911 -8.4063 -53.4709 -0.003 -0.518 0.855 84 83 79
171.8470 -12.7982 -55.6153 -0.485 -0.810 0.330 101 96 93
173.1624 -13.7809 -56.6184 -0.266 0.442 0.856 113 110 105
169.9725 -18.9946 -54.7827 -0.048 -0.395 0.917 108 110 107
169.6178 -19.2402 -54.5524 -0.034 -0.153 0.988 119 121 118
172.5348 -26.4479 -57.1721 -0.909 0.328 -0.257 139 143 142
169.8268 -25.7525 -55.2112 -0.599 0.747 0.286 128 132 131
168.7667 -26.1759 -54.4983 -0.587 0.803 -0.101 124 128 127
168.7283 -27.2639 -54.5568 -0.563 0.779 0.274 134 143 142
190.7982 -38.5695 -70.9808 -0.555 -0.078 0.828 141 150 149
190.2397 -38.5277 -70.5844 -0.836 -0.055 0.546 149 158 157
177.5892 -34.1855 -61.3381 0.045 -0.697 0.716 181 195 205
179.6737 -35.9289 -62.9424 0.028 -0.734 0.678 194 208 219
176.3325 -34.7324 -60.4965 -0.452 0.219 0.865 193 207 218
169.7646 31.4829 -50.9170 -0.902 -0.074 -0.425 114 104 102
169.8003 31.2826 -50.9579 -0.902 -0.074 -0.425 119 109 107
169.8360 31.0822 -50.9988 -0.902 -0.074 -0.425 119 108 104
169.8308 30.8691 -51.0119 -0.974 0.074 -0.215 118 107 103
169.3977 30.5254 -50.7325 -0.997 0.056 -0.056 118 107 103
172.3653 15.0701 -54.0421 -0.858 0.475 0.195 108 97 95
167.3687 12.4631 -50.7124 -0.521 0.694 0.497 108 103 100
169.8033 -1.2548 -53.5090 -0.286 -0.869 0.405 101 91 90
172.8095 -6.9921 -56.0846 -0.756 -0.247 -0.606 111 103 100
172.8310 -7.2005 -56.1161 -0.785 -0.213 -0.581 111 103 100
171.0762 -7.2333 -54.8776 -0.619 0.779 0.099 109 102 99
170.8941 -7.3929 -54.7613 -0.619 0.779 0.099 108 104 100
171.6830 -7.7642 -55.3483 -0.637 -0.117 0.762 103 102 98
171.2970 -12.4438 -55.4419 -0.310 -0.710 0.632 90 85 82
171.5774 -12.7215 -55.6620 -0.312 -0.706 0.636 95 90 87
172.5364 -13.9987 -56.4403 -0.228 0.179 0.957 112 111 106
172.2948 -14.3256 -56.2951 -0.360 0.557 0.748 112 111 106
171.9595 -14.4221 -56.0655 -0.353 0.470 0.809 116 115 110
171.1613 -15.1579 -55.5586 -0.315 0.562 0.765 105 104 100
175.1224 -16.8415 -58.4920 -0.022 -0.055 0.998 94 93 89
169.3156 -18.9419 -54.5496 -0.931 -0.312 -0.190 111 113 108
169.3664 -19.1508 -54.6019 -0.944 -0.283 -0.170 109 110 105
170.5861 -19.8120 -55.5163 -0.751 -0.660 -0.014 106 108 103
176.0217 -23.1545 -59.6226 -0.331 -0.917 0.224 173 176 173
172.3048 -26.3540 -57.2444 -0.902 0.372 -0.219 137 141 140
169.5317 -25.6260 -55.2261 -0.696 0.718 -0.012 136 140 139
189.5196 -38.1826 -70.3465 -0.542 -0.764 0.349 139 148 147
174.7040 -34.0583 -59.5448 -0.438 0.281 0.854 197 211 222
166.5618 -31.3475 -53.5738 -0.662 0.085 -0.745 99 111 127
167.3752 -32.8876 -54.2698 -0.636 0.049 -0.770 60 72 85
165.4425 -32.4380 -52.8676 -0.804 0.356 -0.476 69 73 84
167.0432 70.3526 -46.1957 -0.409 -0.659 0.631 129 130 124
168.4011 66.6237 -47.4519 -0.193 0.481 0.855 126 123 114
167.3064 65.5086 -46.7610 -0.799 -0.551 -0.239 126 124 112
170.1694 64.6504 -48.8626 -0.368 0.172 0.914 103 100 91
169.7830 31.5319 -51.1742 -0.903 -0.108 -0.416 111 101 99
169.7980 31.3248 -51.2010 -0.905 -0.089 -0.416 129 118 116
169.6870 31.0785 -51.1414 -0.985 0.085 -0.153 129 118 114
169.7552 30.8883 -51.2047 -0.983 0.109 -0.148 125 114 110
169.2861 30.5332 -50.8990 -0.995 0.074 -0.074 127 114 107
168.6874 28.6868 -50.6178 -0.298 0.574 0.763 116 105 99
170.6762 -7.3414 -54.8445 -0.614 0.785 0.083 111 107 102
171.4898 -7.7176 -55.4520 -0.599 -0.034 0.800 106 104 100
179.4705 -14.9806 -61.6904 -0.035 -0.688 0.724 89 84 81
174.3394 -15.9757 -58.1219 -0.039 -0.038 0.999 117 116 111
174.5220 -16.2390 -58.2722 -0.017 -0.096 0.995 110 109 105
174.5776 -16.4621 -58.3291 -0.021 -0.073 0.997 105 104 100
174.2518 -16.7653 -58.1213 -0.082 0.070 0.994 94 93 89
171.9768 -17.2049 -56.5390 -0.425 0.790 0.442 87 86 82
169.9099 -17.4525 -55.0896 -0.206 0.614 0.762 89 85 82
169.1681 -17.9458 -54.6009 -0.250 0.581 0.774 109 105 102
168.8982 -18.0352 -54.4161 -0.255 0.584 0.771 115 111 108
169.4006 -18.7916 -54.8322 -0.819 -0.563 -0.112 117 118 112
169.3850 -18.9754 -54.8355 -0.931 -0.312 -0.190 107 108 102
169.4765 -19.2003 -54.9180 -0.938 -0.296 -0.178 97 98 92
169.4276 -19.3712 -54.8966 -0.933 -0.316 -0.175 90 91 85
184.5555 -29.5693 -66.4430 -0.290 0.460 0.839 164 168 169
173.0316 -26.7055 -58.0304 -0.251 0.199 0.947 137 141 140
169.4898 -25.4320 -55.4142 -0.810 0.578 -0.102 137 141 140
166.7578 -31.6569 -53.9588 -0.686 0.067 -0.725 74 87 105
163.7591 -31.6144 -51.8247 -0.790 0.518 -0.328 62 66 77
166.8942 70.3049 -46.3421 -0.409 -0.659 0.631 121 122 116
170.3221 68.5075 -48.9295 -0.258 0.674 0.692 124 124 114
167.3195 65.5986 -47.0121 -0.799 -0.551 -0.239 126 124 112
167.3948 65.2199 -47.0954 -0.862 -0.505 -0.038 123 120 111
167.5540 65.1283 -47.2161 -0.976 -0.104 0.193 113 110 101
167.6770 65.0068 -47.3134 -0.914 -0.324 0.243 103 100 91
169.0438 65.8800 -48.2213 -0.404 0.473 0.783 91 88 79
168.3494 65.1017 -47.7861 -0.427 0.570 0.702 85 82 73
169.2491 31.4051 -51.0514 -0.722 -0.147 0.676 113 102 100
169.2652 31.1998 -51.0789 -0.722 -0.147 0.676 129 118 116
168.5949 30.3633 -50.6654 -0.524 -0.213 0.825 127 114 107
169.5981 29.1953 -51.4726 -0.855 0.506 0.113 118 108 99
169.3855 28.9245 -51.3418 -0.851 0.512 0.121 110 100 92
169.1391 28.6457 -51.1877 -0.835 0.537 0.121 104 95 90
169.1145 14.0260 -52.3081 -0.527 0.806 0.270 108 97 95
169.4675 8.7843 -52.9681 -0.061 -0.860 0.507 112 104 101
169.6538 8.5829 -53.1168 -0.063 -0.864 0.499 111 101 99
197.2378 4.4358 -73.1335 -0.126 -0.012 0.992 117 106 102
170.4908 -9.8610 -55.1501 -0.215 0.640 0.738 96 91 88
169.1667 -16.4311 -54.7162 -0.104 -0.030 0.994 94 93 89
169.2647 -17.9875 -54.9073 -0.228 0.660 0.716 97 93 90
169.4218 -18.6163 -55.0684 -0.017 -0.284 0.959 116 115 110
169.2021 -19.2913 -54.9641 -0.043 -0.155 0.987 90 89 84
173.8244 -22.0867 -58.4818 -0.338 -0.916 0.215 118 119 113
172.8212 -26.6208 -58.1184 -0.253 0.199 0.947 137 141 140
172.2968 -26.5716 -57.7402 -0.272 0.221 0.937 137 141 140
167.3819 -33.4683 -54.7680 -0.616 0.131 -0.777 53 61 72
167.6160 70.8085 -47.0699 -0.474 -0.701 0.533 113 114 108
167.8384 66.3239 -47.5774 -0.195 0.578 0.792 120 120 108
167.3552 65.7072 -47.2786 -0.790 -0.566 -0.236 118 116 104
167.3702 65.2790 -47.3226 -0.862 -0.505 -0.038 107 107 95
167.8134 65.1955 -47.6470 -0.887 -0.336 0.315 91 91 79
168.9208 65.8616 -48.3896 -0.406 0.474 0.781 95 95 83
167.4426 63.1389 -47.5406 -0.602 -0.797 0.050 107 102 96
169.5381 29.4294 -51.6592 -0.835 -0.495 0.240 121 111 102
169.6582 29.2533 -51.7590 -0.852 -0.467 0.236 115 104 98
169.3352 28.9507 -51.5508 -0.852 0.509 0.124 103 94 87
168.7115 28.5656 -51.1332 -0.722 0.556 0.412 98 89 84
168.1599 9.1953 -52.2405 -0.054 -0.806 0.590 89 81 78
169.1584 8.6021 -53.0028 -0.059 -0.862 0.504 111 101 99
171.1833 2.4491 -54.9327 -0.069 -0.343 0.937 104 94 92
168.6244 1.4798 -53.1724 -0.079 -0.370 0.926 111 103 100
168.7839 1.2673 -53.3033 -0.195 -0.113 0.974 123 115 112
169.8886 -7.3585 -54.7649 -0.458 0.649 0.608 107 104 101
171.2351 -13.4158 -56.2008 -0.457 0.676 0.577 100 97 92
169.6886 -13.7297 -55.1159 0.049 -0.814 0.578 116 115 110
169.0505 -16.2051 -54.8502 -0.101 -0.078 0.992 97 96 92
176.8868 -23.7399 -61.0560 -0.453 -0.891 0.015 139 143 137
178.8667 -24.7573 -62.5551 -0.452 -0.892 0.014 159 164 158
188.5604 -32.2996 -70.0938 -0.735 0.613 0.289 170 174 175
172.2472 -26.3667 -57.9317 -0.262 0.196 0.945 139 143 142
172.0034 -26.4476 -57.7631 -0.279 0.213 0.936 137 141 140
164.7825 -26.0403 -52.5517 -0.380 0.814 0.440 124 133 132
170.0444 -34.1581 -56.9561 -0.676 0.022 -0.737 60 73 92
169.5584 -34.4262 -56.6283 -0.617 0.135 -0.775 50 61 79
169.0819 -34.5090 -56.2929 -0.616 0.131 -0.777 49 57 69
168.6585 -34.4369 -55.9836 -0.624 0.078 -0.777 51 57 68
167.3052 66.4076 -47.4383 -0.211 0.650 0.730 122 122 113
166.9972 65.9330 -47.2530 -0.201 0.621 0.757 122 122 112
166.9870 65.4856 -47.2802 -0.795 -0.573 -0.200 113 111 99
167.1719 65.4170 -47.4188 -0.835 -0.548 -0.051 106 106 94
167.1634 62.9977 -47.5997 -0.870 -0.467 -0.155 109 102 96
167.5007 63.0413 -47.8395 -0.880 -0.473 -0.032 109 102 96
168.9258 29.0837 -51.4928 -0.645 -0.539 0.542 115 104 100
168.3092 28.6994 -51.0781 -0.864 0.419 0.280 102 93 88
167.8865 28.3733 -50.7987 -0.883 0.378 0.279 96 87 82
170.4023 6.7868 -54.2813 -0.993 -0.116 0.020 113 102 100
166.9993 -11.7866 -53.2653 -0.698 0.375 0.610 92 87 83
168.8417 -17.8437 -55.0615 -0.243 0.664 0.707 104 100 97
176.8199 -23.7223 -61.2659 -0.453 -0.892 0.007 116 119 114
172.4622 -26.2842 -58.3235 -0.352 0.637 0.686 148 154 152
171.5506 -26.0553 -57.6488 -0.265 0.540 0.799 140 146 144
170.9125 -26.1415 -57.1956 -0.334 0.621 0.709 137 141 140
171.0474 -26.3970 -57.3126 -0.408 0.595 0.692 137 141 140
165.2182 -26.4541 -53.1160 -0.889 0.399 -0.223 122 130 132
177.5282 -36.3131 -62.7501 -0.524 0.578 0.625 196 210 221
171.4720 -35.2072 -58.2999 -0.676 0.042 -0.736 56 69 88
167.3987 66.3444 -47.7612 -0.209 -0.142 0.967 116 116 104
167.1835 65.9463 -47.6361 -0.889 -0.452 0.073 111 111 99
167.3046 65.8252 -47.7330 -0.887 -0.457 0.071 105 105 93
167.5977 65.6225 -47.9609 -0.858 -0.262 0.442 96 96 84
167.4228 65.2596 -47.8623 -0.888 -0.456 -0.056 88 88 76
166.8590 63.7095 -47.5735 -0.364 0.091 0.927 106 103 94
166.8199 63.4602 -47.5645 -0.364 0.091 0.927 107 102 96
166.9993 63.3834 -47.7003 -0.367 0.075 0.927 107 102 96
167.2328 31.5048 -50.3268 -0.004 -0.141 0.990 108 97 95
167.4834 30.9691 -50.5495 -0.035 -0.070 0.997 118 106 106
166.6998 27.8756 -50.2206 -0.594 0.417 0.687 98 89 84
166.4837 9.4124 -51.4874 -0.016 -0.512 0.859 89 81 78
169.3787 -1.1472 -54.3976 -0.287 -0.530 0.798 91 84 78
166.5728 -7.5620 -52.8605 0.000 -0.536 0.844 86 82 77
169.2840 -13.6091 -55.2897 0.013 -0.505 0.863 115 115 107
171.1482 -21.0411 -57.2124 -0.927 -0.239 -0.288 94 94 86
173.0914 -23.2153 -58.7870 -0.883 -0.398 -0.246 175 180 176
173.1424 -23.4359 -58.8409 -0.941 -0.242 -0.237 171 176 172
171.3463 -25.7800 -57.7211 -0.231 0.474 0.849 150 156 154
170.2428 -26.4091 -56.9706 -0.765 0.474 0.436 139 143 142
190.3145 -42.2904 -72.7279 -0.988 0.119 -0.096 174 191 202
172.5723 -36.6480 -59.4466 -0.678 0.038 -0.734 42 50 64
166.9114 66.2420 -47.6658 -0.271 -0.114 0.956 113 113 103
167.0084 66.1023 -47.7470 -0.230 -0.176 0.957 110 110 98
167.6324 66.3962 -48.1784 -0.248 -0.173 0.953 105 105 93
167.5333 66.0928 -48.1296 -0.843 -0.313 0.438 99 99 87
167.5892 65.9170 -48.1838 -0.836 -0.286 0.468 95 95 85
168.0648 65.8596 -48.5341 -0.305 0.293 0.906 88 88 76
167.8558 65.4678 -48.4122 -0.304 0.295 0.906 92 92 80
167.5502 64.9997 -48.2258 -0.312 0.400 0.862 96 96 84
167.1005 30.8884 -50.5197 -0.025 -0.093 0.995 122 110 110
164.9654 6.1942 -50.8640 -0.486 -0.874 -0.016 92 81 77
168.5562 -4.1475 -54.2706 -0.507 0.171 0.845 111 98 92
168.5585 -4.7307 -54.3171 -0.654 0.170 -0.737 100 87 81
169.8425 -11.2535 -55.7523 0.025 -0.635 0.772 105 100 96
171.2697 -12.0405 -56.8510 0.053 -0.138 0.989 103 98 93
171.3128 -12.2513 -56.8986 0.051 -0.137 0.989 103 98 93
168.6824 -12.0875 -54.9725 -0.739 0.334 0.585 103 98 94
168.8609 -14.0548 -55.2536 -0.117 0.233 0.965 118 117 112
168.7063 -14.3874 -55.1666 -0.103 0.208 0.973 121 117 114
168.7874 -14.6042 -55.2423 -0.121 0.257 0.959 121 117 114
168.7194 -14.7728 -55.2057 -0.121 0.257 0.959 119 118 114
171.5755 -21.4167 -57.7939 -0.652 -0.746 -0.133 93 93 85
170.1611 -26.1938 -57.1320 -0.678 0.287 0.677 142 146 145
170.0965 -26.3527 -57.0972 -0.687 0.281 0.670 142 146 145
170.0492 -26.5195 -57.0757 -0.687 0.281 0.670 142 146 145
170.1195 -26.7430 -57.1440 -0.697 0.307 0.648 142 146 145
168.0825 71.5673 -48.3637 -0.596 -0.589 0.546 125 125 117
168.1658 71.4156 -48.4362 -0.596 -0.589 0.546 118 118 110
166.9390 65.6850 -47.9786 -0.242 -0.286 0.927 95 95 83
167.0794 65.5799 -48.0892 -0.262 -0.172 0.950 91 91 81
167.5651 65.7557 -48.4307 -0.291 0.322 0.901 91 91 81
166.6141 64.1061 -47.8620 -0.397 0.192 0.898 95 95 85
166.9482 64.1550 -48.1024 -0.373 0.289 0.882 96 93 84
166.3786 30.6985 -50.2484 -0.018 -0.079 0.997 125 113 113
168.1010 -4.0596 -54.1691 -0.609 0.093 0.788 116 103 97
170.1208 -5.0148 -55.7183 -0.643 0.207 -0.738 101 88 82
169.9402 -5.1793 -55.5989 -0.644 0.206 -0.737 94 82 76
169.1233 -5.6123 -55.0351 -0.649 0.203 -0.733 92 84 82
167.9518 -5.7662 -54.1907 -0.766 0.414 -0.493 102 94 92
167.3747 -6.4115 -53.8184 -0.673 0.641 0.370 109 101 99
167.3846 -7.1744 -53.8840 -0.586 0.794 -0.158 109 101 98
167.1553 -7.3124 -53.7270 -0.586 0.794 -0.158 109 101 98
166.9276 -7.4495 -53.5711 -0.586 0.794 -0.158 105 97 94
167.6477 -9.1371 -54.2266 -0.154 0.279 0.948 87 82 79
166.5363 -9.2318 -53.4216 -0.170 0.488 0.856 93 88 85
167.9128 -12.6236 -54.6874 0.057 -0.669 0.741 103 100 95
168.1747 -14.2196 -55.0010 -0.069 0.083 0.994 120 116 113
168.3954 -14.4804 -55.1822 -0.105 0.204 0.973 121 117 114
168.6306 -14.7470 -55.3745 -0.122 0.266 0.956 118 117 113
168.4001 -14.8615 -55.2149 -0.121 0.269 0.955 119 118 114
171.8314 -18.3718 -57.9914 0.013 0.412 0.911 118 114 111
171.6479 -23.0215 -58.2133 -0.733 -0.132 0.668 170 172 169
174.2796 -37.9164 -61.2773 -0.682 0.092 -0.725 57 65 76
168.2822 71.8324 -48.7459 -0.631 -0.635 0.445 123 123 115
166.9533 65.3363 -48.2660 -0.207 0.004 0.978 87 87 75
167.1481 65.2747 -48.4137 -0.204 0.045 0.978 89 89 77
166.7957 64.3301 -48.2271 -0.167 -0.085 0.982 94 94 84
199.1538 46.4110 -73.3526 -0.863 -0.373 -0.340 104 99 96
167.1196 31.1843 -50.9950 -0.690 -0.485 -0.537 115 104 102
167.0928 29.1247 -51.1325 -0.330 0.007 0.944 129 116 108
166.7798 28.6249 -50.9408 -0.418 0.099 0.903 126 115 109
166.5921 27.9618 -50.8536 -0.696 -0.500 0.516 99 90 83
168.2930 20.6094 -52.6637 -0.629 -0.753 -0.193 97 89 86
168.6870 20.4710 -52.9636 -0.712 -0.696 -0.094 94 84 82
166.9183 19.3738 -51.7487 -0.806 -0.471 -0.359 113 103 101
170.4905 -5.0770 -56.2378 -0.757 -0.021 -0.653 103 90 84
168.9346 -5.7646 -55.1479 -0.659 0.285 -0.696 98 90 88
167.8035 -5.7310 -54.3149 -0.722 0.049 0.690 102 94 92
167.5263 -6.0573 -54.1363 -0.640 0.529 -0.558 109 101 99
167.5715 -9.4958 -54.4320 0.024 -0.331 0.943 90 85 82
167.4803 -12.6837 -54.6083 0.108 -0.545 0.832 106 102 99
167.5118 -13.2578 -54.6752 0.038 -0.506 0.862 107 103 100
167.8787 -14.1274 -55.0110 -0.072 0.079 0.994 112 108 105
167.6020 -14.2265 -54.8154 -0.176 -0.195 0.965 117 113 110
167.7541 -14.4641 -54.9452 -0.164 -0.229 0.959 119 115 112
170.8288 -18.6016 -57.5185 0.038 0.216 0.976 129 125 122
169.4357 -24.1766 -56.9213 -0.673 0.212 0.709 166 172 170
169.4487 -24.3715 -56.9456 -0.714 0.297 0.634 165 171 169
173.8696 -36.5145 -61.1184 -0.639 -0.749 0.177 88 101 120
166.0641 63.8196 -47.9764 -0.690 0.446 0.569 96 96 84
166.3479 28.9444 -50.8390 -0.316 0.042 0.948 123 112 106
167.9661 20.7889 -52.6529 -0.658 -0.681 -0.323 91 83 81
167.1557 8.5189 -52.9887 -0.288 0.342 0.894 111 101 99
166.5699 4.8352 -52.8369 -0.103 -0.661 0.744 108 94 91
168.3305 -4.2807 -54.8290 -0.421 -0.115 0.900 113 100 94
172.1922 -5.7956 -57.7927 -0.377 -0.405 0.833 102 92 90
172.2759 -6.0163 -57.8712 -0.382 -0.403 0.832 87 77 75
168.8329 -5.9339 -55.3254 -0.615 0.486 -0.620 91 83 81
167.7001 -6.4718 -54.5307 -0.640 0.416 -0.646 102 94 92
165.5013 -8.0404 -53.0282 0.077 -0.720 0.690 83 75 73
167.4040 -13.6023 -54.8548 -0.058 0.002 0.998 107 102 99
167.6274 -14.0495 -55.0535 -0.069 -0.000 0.998 107 102 99
167.7153 -14.4546 -55.1492 0.058 -0.113 0.992 109 105 102
171.0623 -18.3019 -57.9107 0.057 0.135 0.989 123 122 118
170.7257 -18.3747 -57.6679 0.053 0.163 0.985 133 129 126
165.9204 -18.6157 -54.1418 -0.182 -0.399 0.899 102 102 94
165.7703 -18.7375 -54.0404 -0.170 -0.141 0.975 99 99 91
165.7780 -18.9217 -54.0601 -0.166 -0.149 0.975 98 98 90
247.6200 -64.3868 -117.8863 -0.723 -0.204 0.660 144 148 147
253.9975 -79.6844 -123.7541 -0.861 0.377 0.340 182 193 199
166.5825 65.6309 -48.4711 -0.346 0.298 0.890 80 80 68
168.3936 31.0558 -52.4347 -0.641 -0.148 -0.753 132 123 118
165.7918 28.6181 -50.6916 -0.311 0.314 0.897 111 100 94
165.7606 28.4079 -50.6844 -0.386 0.144 0.911 113 104 97
165.3684 28.0940 -50.4176 -0.314 0.288 0.905 114 105 98
170.4769 25.7138 -54.3836 -0.914 0.094 0.395 93 87 87
170.7771 25.5705 -54.6169 -0.909 0.204 0.364 87 81 81
170.7330 25.3466 -54.6012 -0.909 0.204 0.364 89 83 83
167.9501 20.8181 -52.8824 -0.561 -0.822 -0.100 89 83 83
166.7726 20.2120 -52.0558 -0.069 0.053 0.996 80 72 70
166.7071 19.8008 -52.0384 -0.069 0.053 0.996 102 94 92
166.4026 19.5522 -51.8317 -0.224 0.367 0.903 112 104 102
167.0587 8.5381 -53.1529 -0.292 0.334 0.896 104 95 90
166.9323 0.7686 -53.6484 -0.644 -0.469 -0.604 101 93 90
170.2576 -5.8181 -56.6119 -0.220 -0.006 0.975 86 78 76
168.4742 -6.0502 -55.3080 -0.681 0.519 -0.516 88 80 78
168.1643 -6.5662 -55.1175 -0.664 0.549 -0.507 89 81 79
165.9718 -12.5996 -53.9503 0.124 -0.443 0.888 98 93 90
166.2140 -12.8591 -54.1495 0.077 -0.483 0.872 106 101 98
166.7942 -13.4121 -54.6213 -0.003 -0.329 0.944 107 102 99
167.3235 -13.9548 -55.0547 -0.070 -0.004 0.998 107 102 99
167.1363 -14.0817 -54.9256 -0.044 -0.375 0.926 100 95 92
167.3894 -16.5978 -55.3039 0.130 -0.136 0.982 93 92 88
170.3344 -18.0430 -57.5958 0.102 -0.005 0.995 106 105 101
165.9064 -17.1614 -54.2477 -0.038 0.276 0.960 132 128 125
165.6177 -18.3225 -54.1218 -0.185 -0.395 0.900 128 128 120
165.6994 -18.5359 -54.1986 -0.185 -0.395 0.900 107 107 99
165.6161 -18.6838 -54.1481 -0.147 -0.133 0.980 103 103 95
165.5328 -18.8313 -54.0975 -0.142 -0.138 0.980 98 98 90
165.7624 -19.1046 -54.2884 -0.144 -0.143 0.979 93 94 86
176.8515 -34.8264 -63.6976 -0.857 0.149 -0.493 174 184 186
174.9852 -38.4134 -62.5866 -0.483 0.791 0.374 59 68 80
176.2653 97.7689 -53.5011 -0.725 -0.610 -0.319 46 71 32
166.3794 65.7623 -48.5606 -0.414 0.271 0.869 83 83 71
166.4945 65.6382 -48.6557 -0.391 0.247 0.887 74 74 62
166.3476 65.0788 -48.5886 -0.392 0.255 0.884 84 84 74
166.4156 64.9155 -48.6515 -0.615 0.469 0.634 90 90 80
166.0443 64.3945 -48.4145 -0.744 0.303 0.595 92 92 82
166.5223 46.9169 -50.0911 -0.052 0.373 0.926 82 78 77
165.4225 45.6827 -49.3657 -0.986 -0.056 -0.154 91 87 86
165.6357 45.5908 -49.5313 -0.845 -0.201 0.496 91 87 86
165.7676 45.4537 -49.6398 -0.841 -0.196 0.504 92 88 87
165.9325 45.1248 -49.7875 -0.842 -0.187 0.507 95 91 90
165.6615 44.7720 -49.6124 -0.791 -0.328 0.516 95 91 90
165.7067 44.5880 -49.6599 -0.791 -0.328 0.516 95 91 90
165.7520 44.4037 -49.7076 -0.791 -0.328 0.516 95 91 90
167.3805 31.6043 -51.8871 -0.704 -0.170 -0.689 120 111 106
167.4853 31.4315 -51.9782 -0.674 -0.200 -0.711 107 98 93
165.3546 28.9293 -50.5812 -0.524 0.224 0.822 101 90 86
165.5015 28.7727 -50.7024 -0.314 0.303 0.900 102 91 87
165.7018 28.0281 -50.9077 -0.499 -0.750 0.434 108 99 92
163.0778 24.1992 -49.2437 -0.982 -0.174 -0.076 99 93 93
163.0781 24.0074 -49.2584 -0.976 -0.192 -0.104 93 87 87
163.3315 23.8747 -49.4571 -0.989 -0.019 -0.146 87 81 81
163.6644 23.7589 -49.7136 -0.997 -0.026 -0.069 89 83 83
166.8796 8.5572 -53.2559 -0.292 0.326 0.899 103 96 90
166.7111 2.5377 -53.5853 -0.544 0.517 0.661 99 90 83
166.6951 2.3462 -53.5879 -0.541 0.401 0.739 90 81 74
166.9466 2.1304 -53.7914 -0.687 -0.430 0.586 88 79 72
167.0188 1.1567 -53.9188 -0.666 -0.345 -0.661 101 94 88
168.1764 -2.6829 -55.0707 -0.202 -0.363 0.910 110 102 99
166.5515 -4.1363 -53.9709 -0.309 0.259 0.915 113 100 94
166.2948 -5.2219 -53.8619 -0.545 -0.496 0.676 85 77 75
166.3854 -5.6174 -53.9592 -0.591 -0.510 0.625 88 80 78
167.9167 -6.5089 -55.1665 -0.781 0.614 0.118 90 82 80
167.5797 -6.6288 -54.9247 -0.773 0.627 0.097 89 81 79
166.5421 -10.5382 -54.4477 -0.017 0.066 0.998 121 113 102
165.5365 -12.1005 -53.8172 0.040 0.023 0.999 93 88 85
165.3235 -18.2142 -54.1206 -0.080 -0.387 0.919 132 129 120
165.5179 -18.4716 -54.2848 -0.136 -0.369 0.919 121 118 109
165.3010 -18.5660 -54.1305 -0.143 -0.134 0.981 115 112 103
165.2452 -18.7238 -54.1008 -0.139 -0.128 0.982 108 105 96
165.4661 -18.9930 -54.2856 -0.142 -0.142 0.980 99 97 88
175.8163 98.1606 -53.4282 -0.348 0.465 0.814 43 69 30
176.0300 98.1436 -53.5893 -0.671 -0.727 -0.143 44 69 30
176.2130 98.0903 -53.7302 -0.709 -0.644 -0.286 43 68 29
176.3525 97.9867 -53.8423 -0.709 -0.644 -0.286 42 67 28
165.3538 45.7028 -49.5548 -0.286 0.210 0.935 91 87 86
165.2962 45.4637 -49.5297 -0.285 0.202 0.937 91 87 86
164.6389 43.6702 -49.1733 -0.894 -0.126 0.430 95 91 88
164.6923 43.4932 -49.2266 -0.872 -0.147 0.467 96 91 88
164.7872 43.3374 -49.3093 -0.782 -0.618 0.078 97 92 89
166.9480 32.9491 -51.7076 -0.727 0.471 0.499 108 96 96
163.4181 30.9256 -49.2201 -0.992 0.113 0.048 109 99 97
165.0778 28.4866 -50.6451 -0.625 0.026 0.780 108 99 94
164.8044 28.0087 -50.4766 -0.312 0.299 0.902 115 106 101
165.0102 19.9755 -51.2355 0.041 0.376 0.926 80 72 70
166.7584 8.5762 -53.4014 -0.326 0.186 0.927 103 96 90
165.0623 4.9605 -52.4053 -0.347 -0.651 0.675 112 99 93
165.0073 4.7741 -52.3782 -0.369 -0.612 0.700 118 105 99
164.7321 4.6009 -52.1855 -0.193 -0.703 0.685 117 104 98
166.0959 1.8387 -53.4134 -0.641 0.516 0.568 97 88 83
164.6168 -1.7414 -52.5769 -0.501 -0.865 -0.034 88 80 77
165.8046 -9.7789 -54.0705 -0.137 0.232 0.963 100 95 91
165.6108 -10.0968 -53.9496 -0.130 0.243 0.961 120 113 104
165.1083 -18.3170 -54.1929 -0.141 -0.399 0.906 128 125 116
164.9651 -18.4398 -54.0950 -0.140 -0.153 0.978 125 122 113
164.8638 -18.7578 -54.0432 -0.070 -0.254 0.965 115 112 103
164.9090 -18.9553 -54.0919 -0.070 -0.254 0.965 111 108 99
177.5617 -34.8374 -64.7502 -0.749 0.326 -0.577 131 140 145
177.5133 -35.0195 -64.7278 -0.749 0.328 -0.576 144 154 156
175.2409 97.8808 -53.3084 -0.339 0.405 0.849 42 68 31
176.0063 98.2360 -53.8568 -0.675 -0.724 -0.144 39 63 27
176.4047 98.4279 -54.1417 -0.386 0.412 0.826 38 63 24
165.6283 65.2980 -48.5325 -0.446 -0.596 0.667 93 89 87
165.6765 65.1206 -48.5821 -0.427 -0.321 0.845 93 89 87
165.5145 64.7695 -48.4867 -0.450 -0.258 0.855 94 90 88
165.7953 64.7836 -48.6966 -0.417 -0.085 0.905 96 92 90
167.0220 65.3493 -49.5757 -0.346 0.039 0.937 96 91 90
165.2029 53.2071 -49.1205 -0.912 0.177 0.369 85 85 83
165.3560 53.0967 -49.2437 -0.841 -0.058 0.539 84 84 82
165.3617 52.6782 -49.2795 -0.841 -0.058 0.539 86 87 82
164.8339 45.2693 -49.4390 -0.917 -0.393 -0.064 97 92 88
164.4702 43.4328 -49.3037 -0.868 -0.244 0.432 97 96 91
164.5368 43.2628 -49.3664 -0.761 -0.634 0.138 99 98 93
164.6489 43.1160 -49.4617 -0.767 -0.628 0.132 100 98 93
167.0217 44.1241 -51.1687 -0.443 -0.479 0.758 99 98 93
164.3091 36.4655 -49.7056 -0.564 -0.823 0.067 109 101 99
163.2464 30.9086 -49.3243 -0.987 0.142 -0.068 113 104 99
163.0410 30.6439 -49.1899 -0.946 0.300 0.124 113 104 99
162.9781 30.0390 -49.1881 -0.959 0.256 0.124 115 106 101
165.3487 28.0047 -51.1217 -0.483 -0.751 0.451 103 96 88
164.6731 24.4531 -50.8807 -0.814 -0.186 -0.551 92 86 86
164.2592 20.4597 -50.8695 0.004 -0.221 0.975 85 79 79
164.7838 4.9902 -52.4248 -0.562 -0.827 -0.012 112 99 93
165.9028 -9.9902 -54.3899 0.090 -0.406 0.909 110 103 97
165.3169 -10.2003 -53.9655 -0.211 0.260 0.942 117 108 98
165.5400 -12.8397 -54.3312 -0.364 -0.885 0.289 101 96 93
165.7072 -16.7407 -54.7496 0.116 -0.049 0.992 117 116 114
164.5231 -18.0927 -53.9615 -0.029 0.301 0.953 134 131 122
164.3760 -18.2126 -53.8600 -0.028 0.298 0.954 129 126 117
161.8454 -20.1070 -52.1010 -0.013 0.289 0.957 171 177 175
173.3728 95.6005 -52.3592 -0.646 0.154 0.748 35 60 21
165.0243 64.4433 -48.3894 -0.398 -0.265 0.878 94 90 89
165.3399 64.4876 -48.6242 -0.470 -0.181 0.864 96 92 91
164.3141 52.8951 -48.7172 -0.330 -0.599 0.730 84 85 80
165.0306 52.9489 -49.2539 -0.427 -0.600 0.676 91 92 87
165.1197 52.7968 -49.3326 -0.427 -0.600 0.676 91 92 87
164.2027 46.4164 -49.1178 -0.350 -0.690 0.633 84 83 81
165.4627 46.5040 -50.0621 -0.076 0.405 0.911 108 105 100
164.3696 43.6398 -49.4514 -0.883 -0.251 0.397 103 102 97
164.3507 43.4256 -49.4532 -0.896 -0.236 0.375 101 100 95
164.1709 43.1282 -49.3398 -0.929 -0.147 0.339 99 98 93
167.1535 44.2480 -51.5069 -0.517 -0.515 0.684 98 97 92
163.0240 30.6791 -49.4054 -0.946 0.300 0.124 106 97 92
165.0872 27.9685 -51.1653 -0.474 -0.762 0.441 93 84 77
184.8492 29.5316 -65.9626 -0.328 -0.539 0.776 99 93 93
163.4590 24.1999 -50.2184 -0.743 -0.431 -0.513 92 86 86
164.4637 18.1962 -51.4257 -0.242 0.260 0.935 111 101 99
164.2147 17.5816 -51.2838 -0.672 0.680 0.292 110 100 98
164.3257 -5.1811 -53.0703 -0.014 -0.379 0.925 89 84 81
163.8348 -8.3476 -52.9367 -0.917 0.382 0.113 76 71 68
164.5102 -10.3418 -53.5956 -0.261 0.286 0.922 110 103 93
165.2931 -12.7646 -54.3676 -0.359 -0.886 0.293 98 93 90
165.6453 -13.2429 -54.6693 -0.348 -0.798 0.491 99 94 91
161.3332 -19.8897 -51.9122 0.007 0.196 0.981 173 179 177
164.5065 -24.4804 -54.6504 -0.358 0.507 0.784 156 160 159
164.1898 71.7813 -47.4566 -0.883 0.385 0.270 109 114 107
162.3295 69.5991 -46.2089 -0.686 0.639 0.347 119 124 117
161.6822 66.7044 -45.9339 -0.783 -0.033 0.621 98 99 91
164.4428 52.6282 -49.0762 -0.358 -0.606 0.710 95 96 91
164.9650 52.7611 -49.4621 -0.427 -0.600 0.676 95 96 91
165.1166 46.5774 -50.0381 -0.419 0.061 0.906 93 92 88
164.2309 44.2355 -49.5411 -0.905 -0.240 0.350 135 128 122
164.2624 44.0478 -49.5791 -0.898 -0.263 0.352 134 128 122
164.2910 43.8584 -49.6148 -0.886 -0.240 0.396 120 118 113
164.3233 43.6708 -49.6533 -0.741 -0.335 0.582 112 111 106
164.1725 42.9799 -49.5905 -0.924 -0.161 0.347 97 96 91
163.7649 28.4113 -50.3676 -0.758 -0.474 -0.448 112 101 97
163.9692 28.2756 -50.5325 -0.750 -0.548 -0.370 111 102 97
164.6604 4.8378 -52.8038 -0.236 -0.545 0.805 114 99 94
166.1438 -1.9487 -54.4343 -0.870 0.383 -0.310 89 81 78
164.3743 -3.7130 -53.2244 -0.861 -0.277 -0.427 111 101 99
163.8904 -5.0872 -52.9600 -0.175 -0.125 0.977 95 90 87
164.0638 -5.3056 -53.1077 -0.030 -0.396 0.918 85 80 77
164.1551 -5.5076 -53.1919 -0.030 -0.396 0.918 84 80 77
164.3187 -5.7255 -53.3323 -0.031 -0.390 0.920 85 81 78
165.3026 -6.1209 -54.1076 -0.177 0.606 0.775 86 81 78
164.2346 -8.4474 -53.4714 -0.008 -0.067 0.998 77 72 68
164.2603 -8.6360 -53.5049 -0.014 -0.060 0.998 77 69 66
163.6748 -10.8260 -53.2243 -0.458 0.885 0.084 110 103 93
163.5574 -10.9709 -53.1461 -0.454 0.887 0.087 111 104 94
164.8529 -12.6289 -54.2519 -0.334 -0.889 0.315 92 87 84
166.3592 -13.6590 -55.4706 -0.267 -0.828 0.493 93 88 84
167.3213 -14.1567 -56.2372 -0.233 -0.888 0.397 95 90 87
166.0948 -14.3143 -55.3190 -0.085 -0.155 0.984 107 103 100
165.0829 -14.1604 -54.5404 0.104 -0.195 0.975 112 108 105
164.5712 -16.5124 -54.3278 -0.108 0.475 0.873 113 112 108
162.1659 69.1089 -46.3601 -0.897 -0.340 0.281 119 122 115
161.7942 66.8863 -46.2421 -0.789 -0.033 0.613 104 105 99
163.1773 65.3864 -47.4069 -0.007 -0.669 0.743 92 91 86
163.3894 52.8235 -48.5017 -0.333 -0.444 0.832 86 86 84
163.8864 52.5343 -48.9017 -0.360 -0.565 0.742 97 97 95
164.2780 52.5849 -49.1962 -0.358 -0.606 0.710 99 99 97
164.5770 45.0945 -49.9804 -0.323 0.043 0.945 133 126 120
164.1564 44.2516 -49.7227 -0.905 -0.240 0.350 137 130 124
164.1180 44.0267 -49.7101 -0.741 -0.335 0.582 136 130 124
164.1776 43.8540 -49.7683 -0.745 -0.334 0.578 129 127 122
164.2069 43.6651 -49.8048 -0.741 -0.335 0.582 121 120 115
164.1284 43.4197 -49.7632 -0.893 -0.246 0.377 110 109 104
164.0251 43.1620 -49.7037 -0.929 -0.155 0.336 98 97 92
164.1008 42.9975 -49.7736 -0.924 -0.161 0.347 96 95 90
166.6366 44.0961 -51.6231 -0.408 -0.720 0.561 98 97 92
164.3682 28.0367 -51.0886 -0.631 0.217 0.745 90 81 76
162.0261 20.3382 -49.8769 -0.005 -0.137 0.991 84 78 78
163.5839 17.7424 -51.2561 -0.597 0.688 0.412 100 90 88
163.7647 17.5757 -51.4062 -0.437 0.628 0.644 96 86 84
163.7360 17.1884 -51.4131 -0.567 0.623 0.539 101 91 89
165.9209 -1.7164 -54.4815 -0.510 0.472 0.720 93 85 82
165.8686 -1.8983 -54.4552 -0.610 0.526 0.592 88 80 77
165.9819 -2.1054 -54.5569 -0.505 0.400 0.765 106 98 95
164.5729 -3.7429 -53.6055 -0.861 -0.277 -0.427 106 96 94
164.9745 -6.2313 -54.0962 -0.177 0.606 0.775 86 81 75
164.4097 -8.4901 -53.8338 -0.828 0.394 0.399 81 73 70
164.3473 -8.6569 -53.7987 -0.828 0.394 0.399 80 73 67
164.4803 -9.0565 -53.9297 -0.551 0.744 0.379 100 92 89
165.2289 -9.9909 -54.5693 -0.025 -0.350 0.936 100 95 89
165.2878 -10.1915 -54.6290 -0.023 -0.344 0.939 100 97 89
165.7701 -13.2879 -55.2263 -0.254 -0.827 0.502 88 83 80
166.8813 -14.0171 -56.1268 -0.216 -0.893 0.394 89 84 81
164.7759 -16.4141 -54.7014 -0.093 0.348 0.933 100 99 95
165.7188 -20.0454 -55.6893 0.071 -0.630 0.773 115 112 105
173.8986 -38.4900 -63.2891 -0.337 0.574 0.746 114 127 144
161.7838 69.2527 -46.2964 -0.941 -0.250 0.229 111 113 108
161.8087 69.0670 -46.3291 -0.925 -0.126 0.358 111 113 108
161.5144 66.7133 -46.2782 -0.797 -0.019 0.604 106 107 101
162.6842 64.6197 -47.3282 0.012 -0.652 0.758 97 96 91
163.0661 52.8769 -48.4897 -0.677 -0.062 0.734 87 87 87
163.1983 52.7603 -48.5994 -0.712 -0.097 0.695 91 91 91
163.7189 52.4885 -49.0179 -0.360 -0.565 0.742 100 100 102
