ply
format ascii 1.0
element vertex 854
property float x
property float y
property float z
property float nx
property float ny
property float nz
property uchar diffuse_red
property uchar diffuse_green
property uchar diffuse_blue
end_header
-334.3614 145.4354 0.5544 0.118 -0.856 0.504 68 65 84
-333.7613 145.5234 0.5630 0.118 -0.856 0.504 84 81 100
-333.3552 145.7729 0.5709 0.204 -0.731 0.651 102 99 118
-332.8025 147.0860 0.5925 0.047 -0.642 0.765 80 77 94
-332.5370 147.4589 0.6000 -0.229 -0.628 0.744 81 78 95
-332.9006 148.9704 0.6122 0.330 -0.607 -0.723 100 99 117
-330.6922 149.5101 0.6462 0.191 -0.689 -0.699 64 62 83
-331.1890 150.5527 0.6514 0.213 -0.830 -0.516 53 51 72
-334.3923 156.4917 0.6768 -0.357 -0.919 -0.166 73 71 92
-332.6098 155.5593 0.6890 -0.465 -0.876 -0.128 74 72 93
-330.8015 154.5965 0.7013 -0.465 -0.876 -0.128 75 73 94
-359.8087 187.7722 0.7020 -0.255 -0.904 -0.343 142 139 158
-333.6750 174.4078 0.8849 0.437 -0.466 0.770 72 68 85
-334.8977 183.2308 0.9674 0.398 -0.672 0.625 77 74 91
-333.7443 182.8556 0.9778 0.402 -0.667 0.627 86 83 100
-330.5612 181.9878 1.0086 0.550 -0.653 0.521 78 71 92
-329.6856 181.8813 1.0185 0.459 -0.699 0.548 85 77 98
-329.2201 182.1941 1.0279 0.459 -0.699 0.548 78 70 91
-328.9659 182.7258 1.0370 0.693 -0.409 0.594 74 66 87
-328.5003 183.8416 1.0553 0.685 -0.393 0.613 65 57 78
-328.2164 184.3506 1.0645 0.685 -0.393 0.613 68 60 81
-327.6461 185.3733 1.0831 0.685 -0.393 0.613 73 68 88
-330.4159 189.9424 1.0988 0.940 -0.340 0.022 73 69 84
-325.9872 198.9709 1.2552 0.908 -0.331 0.257 83 70 87
-348.7140 226.5797 1.2737 0.783 -0.194 0.591 88 75 92
-349.4066 228.3856 1.2850 0.794 -0.193 0.576 92 79 96
-349.7605 231.8916 1.3194 0.903 -0.152 0.401 106 93 111
-349.6172 232.7732 1.3311 0.903 -0.152 0.401 92 79 97
-349.7056 248.2701 1.5021 0.073 -0.467 0.881 82 69 87
-347.2570 248.7192 1.5381 0.073 -0.467 0.881 79 66 86
-352.5534 257.6869 1.5706 -0.060 -0.830 0.555 76 63 83
-352.1893 259.6545 1.5970 0.058 -0.733 0.678 63 50 70
-329.6888 254.8781 1.8293 0.734 -0.426 0.528 87 78 97
-328.1510 259.1707 1.8964 0.674 -0.409 0.615 79 67 87
-327.3334 259.3254 1.9085 0.663 -0.425 0.616 88 76 98
-328.1827 261.8468 1.9258 0.793 -0.390 0.468 94 85 106
-327.5039 295.7442 2.3109 0.338 -0.940 -0.048 70 62 83
-212.9318 278.4625 3.5716 -0.631 -0.775 -0.003 29 28 31
-206.2549 266.0896 3.5189 -0.492 -0.867 -0.074 26 26 28
-86.6967 187.3096 4.1597 -0.477 -0.869 0.135 83 73 81
-86.3015 187.0930 4.1623 -0.477 -0.869 0.135 94 84 89
-85.7523 187.7907 4.1770 -0.459 -0.885 0.079 96 87 92
-85.2556 188.1699 4.1875 -0.503 -0.864 0.014 99 92 97
-84.8831 187.8295 4.1885 -0.499 -0.867 0.001 101 95 97
-84.7304 186.2497 4.1729 -0.455 -0.885 0.103 94 88 90
-84.5029 185.1293 4.1633 -0.441 -0.838 0.323 86 82 81
-84.0253 185.4261 4.1727 -0.206 -0.978 0.036 87 86 84
-83.6226 185.3081 4.1764 -0.205 -0.978 0.024 94 95 90
-77.6768 191.7816 4.3237 -0.303 -0.885 -0.353 80 76 77
-77.1345 180.4398 4.2046 0.052 -0.971 -0.234 53 49 50
-75.6357 176.3958 4.1787 -0.105 -0.956 0.273 44 39 45
-335.5101 128.3843 -0.1514 0.649 -0.433 -0.626 126 125 143
-334.5024 128.1368 -0.1401 0.615 -0.409 -0.674 122 121 139
-335.6955 136.8894 -0.0787 0.840 -0.543 0.008 62 60 71
-335.7075 137.4428 -0.0740 0.839 -0.543 0.012 61 59 70
-335.5282 137.8481 -0.0680 0.827 -0.562 -0.006 59 57 70
-335.7516 138.5736 -0.0646 0.812 -0.573 -0.111 55 53 66
-334.0726 145.1583 0.0160 0.118 -0.856 0.504 73 70 87
-333.4732 145.2463 0.0248 0.118 -0.856 0.504 91 88 105
-332.6813 145.1732 0.0347 0.182 -0.741 0.646 108 105 122
-332.3472 145.4817 0.0419 0.185 -0.373 0.909 102 99 118
-331.9192 145.7124 0.0496 0.185 -0.373 0.909 92 89 106
-331.3178 145.7976 0.0584 -0.219 -0.647 0.731 90 87 104
-331.7592 149.7806 0.0877 0.191 -0.689 -0.699 65 62 81
-331.2146 149.9233 0.0962 0.191 -0.689 -0.699 60 57 76
-354.8805 189.3272 0.1285 0.660 -0.090 0.746 86 79 97
-331.5688 170.1546 0.2703 0.705 -0.205 0.679 104 97 115
-331.9985 172.0152 0.2810 0.614 -0.191 0.766 96 89 105
-330.3058 173.3045 0.3149 0.029 -0.672 0.740 68 65 82
-331.7809 188.0297 0.4253 0.835 -0.381 0.396 70 63 81
-331.5950 188.6579 0.4334 0.833 -0.380 0.401 76 69 87
-331.3983 189.2780 0.4415 0.830 -0.431 0.353 78 71 89
-331.8118 190.5450 0.4472 0.623 -0.657 0.425 78 71 89
-331.1748 190.7082 0.4571 0.633 -0.637 0.440 77 70 86
-333.4177 209.1790 0.5903 0.829 -0.209 0.519 90 78 92
-333.9087 210.6862 0.5971 0.822 -0.211 0.529 94 82 96
-347.2755 235.3023 0.6362 0.837 -0.548 -0.008 103 90 110
-347.3652 247.6557 0.7441 0.492 -0.782 0.382 57 44 62
-346.7485 248.0488 0.7558 0.492 -0.782 0.382 59 46 64
-351.0984 258.2380 0.7878 -0.002 -0.768 0.640 52 39 57
-355.1037 267.0372 0.8121 -0.077 -0.663 0.745 76 63 83
-334.1928 244.9681 0.8962 0.618 -0.782 -0.084 88 75 95
-328.2185 259.2321 1.1020 0.668 -0.413 0.620 80 67 87
-326.9576 258.7609 1.1146 0.663 -0.425 0.616 83 71 91
-268.4576 302.8845 2.2852 -0.733 -0.409 0.544 26 21 26
-260.0116 321.2958 2.5606 -0.425 -0.872 -0.242 24 18 25
-214.2699 280.3293 2.8092 -0.026 -0.998 -0.057 42 40 42
-211.0904 277.6503 2.8279 -0.512 -0.849 -0.126 30 30 30
-166.5530 256.8018 3.2382 0.236 -0.689 -0.685 23 19 25
-155.2263 344.0493 4.1602 -0.314 -0.436 0.844 34 36 35
-151.9048 345.6775 4.2189 -0.242 -0.542 0.805 40 42 41
-92.6515 194.7253 3.6761 0.795 -0.316 0.518 75 70 76
-86.2283 189.9412 3.7195 -0.482 -0.874 0.059 74 62 71
-86.0273 188.5378 3.7098 -0.479 -0.877 0.044 71 59 68
-85.9157 186.6449 3.6946 -0.499 -0.859 0.117 71 58 65
-84.5033 184.9501 3.6985 -0.441 -0.838 0.323 91 87 86
-83.9176 185.8492 3.7142 -0.129 -0.991 0.044 87 86 84
-83.3809 186.4628 3.7268 0.071 -0.997 0.012 85 86 81
-328.9648 128.9835 -0.5578 0.797 -0.452 -0.401 68 67 81
-330.8989 130.9932 -0.5717 0.787 -0.614 -0.060 64 64 76
-278.7360 91.8479 -0.0975 -0.508 -0.777 0.371 53 51 62
-332.9286 140.1714 -0.5399 0.758 -0.502 0.416 109 107 120
-333.6012 144.7301 -0.5195 0.194 -0.716 0.671 74 72 86
-333.0779 144.8800 -0.5111 0.194 -0.716 0.671 92 90 104
-332.4585 144.9498 -0.5020 -0.007 -0.515 0.857 106 104 118
-332.8009 150.0260 -0.4735 0.260 -0.656 -0.709 75 72 89
-332.3060 150.2130 -0.4653 0.260 -0.656 -0.709 71 68 85
-333.9337 152.2311 -0.4749 0.198 -0.662 -0.723 67 64 81
-334.4680 153.3155 -0.4753 0.459 -0.683 -0.568 68 65 82
-334.2206 153.7275 -0.4691 0.458 -0.686 -0.565 72 69 86
-333.8075 153.9968 -0.4616 0.458 -0.686 -0.565 87 84 101
-335.0028 155.6733 -0.4673 0.406 -0.670 -0.621 103 100 117
-328.7784 152.7279 -0.3994 -0.502 -0.829 -0.246 101 98 115
-356.2707 179.9890 -0.6058 0.834 -0.299 0.465 89 86 103
-354.3052 188.7419 -0.5209 0.653 -0.094 0.751 82 78 93
-332.3680 188.6038 -0.2143 0.943 -0.331 0.030 81 74 92
-332.4806 191.2122 -0.1988 0.921 -0.390 0.027 85 78 96
-330.9710 190.4547 -0.1826 0.600 -0.646 0.471 84 77 93
-333.5642 194.0488 -0.1954 0.423 -0.594 0.685 90 84 98
-327.7610 200.8948 -0.0691 0.770 -0.620 0.152 84 72 86
-348.2266 236.3858 -0.1231 0.807 -0.590 0.004 90 75 96
-352.1609 259.5389 -0.0264 -0.365 -0.731 0.577 108 95 115
-327.9585 240.3009 0.1866 -0.015 -0.681 0.733 75 66 85
-328.6350 242.3696 0.1907 -0.005 -0.689 0.725 74 65 84
-331.0385 250.4007 0.2097 0.801 -0.584 0.134 72 63 82
-329.5777 259.8010 0.2919 0.839 -0.540 0.066 79 66 86
-328.7808 259.9899 0.3043 0.841 -0.537 0.072 81 68 88
-285.3724 321.1791 1.3140 -0.583 -0.313 0.749 73 67 77
-250.3312 310.7637 1.7368 -0.016 -0.802 -0.598 37 27 38
-216.3097 279.1110 2.0059 0.737 -0.636 0.231 38 38 38
-214.1278 279.8885 2.0416 0.461 -0.844 0.276 51 49 50
-211.5972 276.6974 2.0561 -0.559 -0.829 -0.034 51 51 51
-207.8544 269.1154 2.0588 -0.478 -0.847 -0.233 44 44 44
-163.9581 257.9981 2.6011 0.330 -0.660 -0.676 64 59 65
-86.0756 188.0635 3.2338 0.712 -0.609 0.349 68 55 64
-85.5340 188.7030 3.2455 0.712 -0.609 0.349 72 59 66
-84.9373 184.7179 3.2278 -0.383 -0.923 -0.014 94 88 90
-80.9520 190.1309 3.3191 -0.465 -0.841 -0.277 64 65 60
-79.9401 186.5458 3.3098 -0.550 -0.834 -0.038 64 63 61
-75.3714 202.7757 3.4803 -0.552 -0.833 -0.026 66 62 63
-77.2240 181.6081 3.3155 0.527 -0.633 -0.567 44 40 41
-329.2446 137.1534 -1.0262 -0.459 -0.776 0.433 80 78 89
-330.4156 138.6574 -1.0370 0.709 -0.541 0.453 85 83 96
-330.1545 139.0040 -1.0317 0.709 -0.541 0.453 79 77 91
-333.2205 142.6431 -1.0611 0.865 -0.427 0.264 63 61 75
-333.5818 143.5154 -1.0627 0.808 -0.433 0.400 70 68 82
-333.3684 143.9183 -1.0578 0.808 -0.433 0.400 64 62 76
-333.3593 144.4921 -1.0552 0.285 -0.805 0.520 67 65 79
-333.0429 144.8134 -1.0492 0.294 -0.804 0.516 78 76 90
-333.4572 145.7449 -1.0513 0.231 -0.909 0.347 89 87 101
-333.1208 146.0537 -1.0450 0.235 -0.906 0.353 91 88 105
-329.5688 144.8380 -0.9981 0.054 -0.645 0.762 80 78 92
-335.1669 153.2565 -1.0442 0.167 -0.656 -0.736 70 67 84
-334.9604 153.7034 -1.0392 0.458 -0.686 -0.565 67 64 81
-336.0420 155.2708 -1.0484 0.549 -0.660 -0.512 69 66 83
-335.7930 155.6886 -1.0430 0.435 -0.646 -0.627 73 70 87
-335.7678 156.3038 -1.0400 0.358 -0.677 -0.643 77 74 91
-335.2847 156.5205 -1.0319 0.412 -0.667 -0.621 84 81 98
-334.9945 156.9073 -1.0260 -0.343 -0.888 -0.307 84 81 98
-329.7209 153.5260 -0.9631 -0.560 -0.826 0.057 87 84 101
-326.6244 152.0363 -0.9240 0.908 -0.251 0.337 83 80 97
-353.8630 188.2823 -1.1686 0.770 -0.190 0.609 90 86 101
-331.0936 171.7936 -0.9049 0.060 -0.674 0.737 84 80 95
-329.6291 171.8323 -0.8833 -0.110 -0.983 -0.144 86 83 100
-330.0486 172.9773 -0.8845 -0.104 -0.975 -0.197 78 75 92
-330.4162 174.0784 -0.8852 0.297 -0.954 -0.040 76 73 90
-328.5756 191.2300 -0.7847 0.938 -0.345 0.015 83 77 91
-328.7612 193.9960 -0.7756 0.435 -0.786 0.439 65 61 75
-339.2526 216.6976 -0.8323 0.361 -0.931 -0.049 97 85 99
-346.6100 228.1380 -0.8913 0.849 -0.110 0.517 113 98 116
-349.0309 235.1458 -0.8968 0.728 -0.177 0.663 119 102 121
-347.9373 234.9310 -0.8817 0.731 -0.172 0.661 111 93 115
-339.5099 248.2140 -0.7010 -0.556 -0.713 0.426 98 85 105
-339.4764 249.3600 -0.6956 0.586 -0.724 -0.363 77 64 84
-333.6466 245.3671 -0.6272 0.074 -0.570 0.818 81 69 89
-329.1100 256.5266 -0.5127 0.849 -0.528 -0.012 61 49 69
-328.5312 257.0076 -0.5022 0.825 -0.556 0.099 65 52 72
-329.5559 259.7368 -0.5055 0.839 -0.540 0.066 84 71 91
-277.5795 314.8722 0.4939 -0.656 -0.354 0.667 48 37 45
-260.3104 294.6181 0.6606 -0.130 -0.782 0.610 22 20 25
-258.4047 294.3701 0.6876 -0.132 -0.779 0.613 21 20 25
-246.2018 269.1572 0.7587 -0.178 -0.983 -0.035 21 20 25
-255.0069 308.5135 0.7981 0.258 -0.959 0.121 36 29 37
-249.0642 309.8527 0.8911 0.203 -0.700 -0.685 38 30 41
-248.8764 311.8324 0.9023 0.162 -0.700 -0.695 32 27 34
-214.6445 244.9955 1.1185 -0.536 -0.698 0.476 25 23 28
-213.8759 244.8746 1.1293 0.547 -0.360 0.755 24 22 27
-214.2828 275.0779 1.2527 0.770 -0.595 0.230 32 32 32
-214.6251 278.8954 1.2640 0.701 -0.655 0.282 34 32 33
-211.7637 277.3149 1.2993 -0.530 -0.839 -0.124 39 39 39
-190.8882 258.6206 1.5257 0.637 -0.754 0.164 27 22 26
-190.7431 264.2615 1.5520 0.462 -0.747 0.478 22 21 26
-164.6792 258.3794 1.9095 0.300 -0.675 -0.674 52 47 53
-161.8760 257.9839 1.9489 0.098 -0.623 0.776 27 22 28
-94.9387 194.2166 2.6585 0.810 -0.176 0.560 50 44 54
-94.3080 192.0062 2.6583 0.542 -0.324 0.776 71 65 75
-87.0274 187.3577 2.7453 0.599 -0.794 -0.106 63 52 60
-85.5523 188.4097 2.7714 0.712 -0.609 0.349 96 85 93
-82.4282 188.9771 2.8197 -0.387 -0.798 -0.462 78 78 76
-79.8919 190.9852 2.8656 -0.604 -0.769 -0.208 59 58 56
-78.8173 179.7041 2.8330 0.234 -0.957 0.170 56 52 53
-77.7744 180.7907 2.8530 0.461 -0.714 -0.527 49 45 46
-77.1998 181.5698 2.8647 0.459 -0.720 -0.520 45 41 42
-335.2954 128.6170 -1.6547 0.835 -0.506 0.214 99 98 112
-330.8847 137.8882 -1.5684 -0.415 -0.764 0.494 72 70 81
-330.9842 139.0818 -1.5675 0.738 -0.523 0.427 60 58 69
-330.7339 139.4388 -1.5629 0.738 -0.523 0.427 70 68 81
-333.8419 142.5408 -1.6044 0.792 -0.369 0.486 72 70 83
-333.1179 142.5214 -1.5933 0.865 -0.427 0.264 69 67 80
-333.4124 143.3385 -1.5962 0.808 -0.433 0.400 67 65 78
-333.0162 144.1704 -1.5885 0.007 -0.763 0.646 71 69 82
-332.4951 144.3207 -1.5802 0.010 -0.780 0.625 78 76 89
-331.7859 144.3141 -1.5693 -0.221 -0.807 0.547 85 83 96
-329.9689 143.9635 -1.5421 0.127 -0.705 0.698 95 93 107
-329.8491 144.4489 -1.5393 0.604 -0.492 0.627 99 97 111
-330.1013 145.2507 -1.5415 0.390 -0.736 0.553 89 87 100
-330.9837 148.3944 -1.5488 0.564 -0.251 0.787 92 88 103
-335.7466 153.7180 -1.6112 0.509 -0.651 -0.563 74 71 88
-336.3943 154.9058 -1.6188 0.509 -0.647 -0.568 76 73 90
-336.4951 155.6257 -1.6189 0.539 -0.654 -0.531 74 71 88
-335.6664 156.8168 -1.6037 0.412 -0.667 -0.621 68 65 82
-329.7988 174.1775 -1.4788 0.248 -0.948 0.202 80 77 94
-329.0872 184.3016 -1.4475 0.468 -0.554 0.689 71 64 82
-328.6640 184.6679 -1.4403 0.468 -0.554 0.689 94 87 105
-328.2401 185.0349 -1.4331 0.468 -0.554 0.689 111 104 122
-328.0200 185.6173 -1.4285 0.470 -0.556 0.686 114 110 127
-328.5645 193.7450 -1.4206 0.435 -0.786 0.439 77 73 87
-347.1686 230.8197 -1.6317 0.853 -0.130 0.505 112 97 116
-347.2501 231.9637 -1.6306 0.849 -0.124 0.513 116 101 120
-348.5082 234.4933 -1.6449 0.728 -0.177 0.663 126 111 130
-348.4435 235.4861 -1.6419 0.733 -0.174 0.658 120 105 126
-328.9734 215.5581 -1.3830 0.935 -0.128 0.332 117 101 126
-329.3554 223.1812 -1.3736 0.814 -0.373 -0.446 85 74 91
-351.0173 258.0166 -1.6361 -0.425 -0.638 0.642 105 92 112
-335.0593 244.8043 -1.4177 -0.068 -0.466 0.882 80 67 87
-329.4323 255.6593 -1.3095 0.851 -0.525 -0.016 64 51 71
-330.0294 259.0626 -1.3119 0.845 -0.533 -0.027 81 68 88
-289.1333 335.9997 -0.5295 -0.720 -0.385 0.577 84 73 79
-256.6705 294.5238 -0.1145 -0.045 -0.881 0.471 22 21 26
-254.6378 302.9181 -0.0664 0.429 -0.405 0.807 31 26 32
-249.2520 312.8681 0.0362 0.151 -0.699 -0.699 29 24 31
-214.5428 244.7150 0.4322 -0.534 -0.694 0.483 22 20 25
-213.7404 244.4902 0.4440 0.523 -0.390 0.758 22 20 25
-211.6897 247.1326 0.4808 0.437 -0.423 0.794 32 23 26
-210.8064 246.6481 0.4934 -0.302 -0.793 0.529 34 23 27
-202.1137 236.8771 0.6072 0.745 -0.443 -0.498 24 22 23
-212.7515 280.7678 0.5321 -0.023 -0.995 -0.094 21 21 21
-203.8616 260.4327 0.6277 -0.295 -0.908 -0.298 30 30 30
-164.7323 258.8964 1.2253 0.325 -0.657 -0.681 28 23 29
-162.6758 258.9771 1.2570 0.590 -0.808 0.003 27 22 28
-87.1761 186.2641 2.2700 0.537 -0.840 -0.075 63 51 61
-85.9107 188.6684 2.2942 0.811 -0.504 0.298 88 77 85
-82.3267 189.3524 2.3506 -0.401 -0.798 -0.450 76 76 74
-82.7589 166.2014 2.2975 -0.387 -0.915 0.113 56 51 55
-82.4083 166.0538 2.3026 -0.387 -0.915 0.113 56 51 55
-330.5289 138.6753 -2.0843 0.731 -0.493 0.472 103 102 111
-331.2001 139.7812 -2.0954 0.741 -0.436 0.511 110 108 120
-333.6189 142.3210 -2.1348 0.792 -0.369 0.486 116 114 127
-333.2545 142.5957 -2.1291 0.864 -0.432 0.259 117 115 128
-333.8231 143.6385 -2.1385 0.800 -0.376 0.467 103 101 114
-332.2716 144.0975 -2.1137 0.020 -0.774 0.633 76 74 87
-329.1809 143.8493 -2.0641 0.607 -0.480 0.633 87 85 98
-328.6310 143.9718 -2.0554 0.633 -0.474 0.612 91 89 102
-330.2418 146.5210 -2.0819 0.688 -0.633 0.355 88 86 99
-331.8729 149.1182 -2.1087 0.612 -0.324 0.721 99 95 110
-336.4129 156.1517 -2.1833 0.539 -0.654 -0.531 109 105 120
-328.3306 160.6863 -2.0551 0.631 -0.771 -0.086 103 101 115
-333.6743 167.7321 -2.1426 0.690 -0.143 0.709 87 85 98
-330.9829 173.8160 -2.1011 -0.067 -0.990 -0.127 73 70 87
-354.1953 198.1834 -2.4795 0.484 -0.786 0.385 68 65 82
-353.1509 198.8224 -2.4630 0.481 -0.788 0.384 111 108 125
-328.2854 183.4318 -2.0605 0.211 -0.521 0.827 80 73 91
-327.1944 192.2191 -2.0454 0.723 -0.513 -0.462 85 79 93
-324.8329 192.2173 -2.0075 0.713 -0.541 -0.446 86 78 93
-338.5394 213.8718 -2.2330 0.565 -0.804 -0.188 90 79 93
-335.2380 211.0922 -2.1793 -0.476 -0.604 -0.639 95 84 98
-347.5881 233.3756 -2.3832 0.878 -0.316 0.359 119 106 126
-347.3432 234.1522 -2.3795 0.882 -0.314 0.352 111 98 118
-353.2361 242.1792 -2.4760 0.879 -0.363 0.308 110 97 117
-331.4614 228.9328 -2.1236 0.865 -0.474 -0.165 95 82 97
-331.9211 246.6089 -2.1358 0.906 -0.421 0.049 82 73 90
-331.5746 247.3543 -2.1304 0.906 -0.421 0.049 68 59 76
-331.1680 248.0241 -2.1241 0.888 -0.441 0.130 61 52 69
-331.9053 250.2301 -2.1365 0.828 -0.514 0.225 71 62 79
-331.3987 250.7802 -2.1285 0.830 -0.514 0.216 63 54 71
-352.1124 280.0064 -2.4682 0.915 -0.400 -0.046 64 55 72
-331.7883 260.1754 -2.1373 0.935 -0.350 0.055 78 65 83
-263.4326 299.8249 -1.0529 -0.102 -0.902 0.420 38 36 41
-258.6395 292.7989 -0.9742 -0.161 -0.827 0.538 35 34 39
-257.9755 293.3530 -0.9638 0.189 -0.540 0.820 33 32 37
-236.0794 248.3684 -0.6009 -0.617 -0.779 0.112 24 23 28
-213.4979 243.7832 -0.2379 0.518 -0.378 0.767 24 22 27
-212.7920 243.8401 -0.2266 0.524 -0.374 0.765 28 23 29
-212.4228 244.9265 -0.2210 0.517 -0.386 0.764 33 27 31
-211.9203 245.6158 -0.2131 0.517 -0.386 0.764 31 25 29
-211.3732 246.1742 -0.2045 0.437 -0.423 0.794 32 23 26
-210.6302 246.1233 -0.1926 -0.302 -0.793 0.529 33 22 26
-211.0136 274.8110 -0.2064 0.179 -0.961 -0.209 23 23 23
-210.4419 275.5672 -0.1975 0.057 -0.992 -0.111 24 24 24
-206.9987 268.9508 -0.1405 -0.500 -0.863 -0.069 24 24 24
-165.2698 258.0053 0.5309 0.514 -0.843 -0.159 24 19 25
-89.0035 191.0803 1.7707 0.687 -0.671 0.279 47 41 45
-86.1616 189.5818 1.8167 0.801 -0.525 0.289 69 59 68
-85.6786 184.8030 1.8257 0.542 -0.701 0.464 91 81 89
-85.1793 185.2261 1.8336 0.497 -0.504 0.706 100 93 100
-336.0633 128.1059 -2.6731 0.209 -0.146 0.967 77 77 89
-333.8251 128.9616 -2.6379 0.297 -0.146 0.944 97 97 107
-330.6174 127.5534 -2.5808 0.374 -0.145 0.916 92 92 102
-328.6948 133.8788 -2.5648 0.691 -0.368 -0.622 92 91 97
-330.4300 138.5580 -2.6057 0.754 -0.528 0.390 114 113 119
-330.2805 138.9956 -2.6044 0.759 -0.526 0.384 119 117 128
-332.8704 141.6721 -2.6544 0.780 -0.342 0.525 118 116 127
-333.3557 143.2166 -2.6664 0.796 -0.376 0.475 107 105 116
-331.8714 143.7277 -2.6430 0.022 -0.779 0.626 91 89 100
-330.6918 143.3278 -2.6223 -0.254 -0.788 0.561 96 94 105
-328.8440 144.1147 -2.5934 0.649 -0.464 0.602 117 115 126
-330.2200 145.8694 -2.6209 0.772 -0.574 0.273 111 109 120
-331.5298 148.1813 -2.6486 0.428 -0.895 0.128 93 89 103
-337.0570 156.6739 -2.7625 0.248 -0.835 0.490 116 112 126
-335.1613 156.9391 -2.7315 0.246 -0.836 0.491 78 74 88
-329.4296 159.6510 -2.6428 0.492 -0.859 0.141 88 85 102
-330.1499 161.6572 -2.6599 0.475 -0.877 0.076 114 111 128
-328.3885 160.7026 -2.6281 0.631 -0.771 -0.086 104 102 116
-354.1319 195.6010 -3.1467 0.997 -0.055 0.062 73 71 85
-354.3786 196.6636 -3.1535 0.997 -0.055 0.059 68 65 82
-328.6590 173.7225 -2.6658 0.784 -0.554 0.280 83 80 97
-329.2625 175.0690 -2.6793 0.862 -0.462 0.209 117 114 131
-329.0990 177.9462 -2.6839 0.813 -0.489 0.316 116 113 130
-328.9954 178.6122 -2.6839 0.812 -0.483 0.328 129 125 142
-327.0551 192.0307 -2.6857 0.720 -0.520 -0.460 95 86 101
-333.7500 208.4231 -2.8392 0.457 -0.889 0.018 90 79 93
-336.8036 212.8295 -2.9014 -0.475 -0.604 -0.640 93 82 96
-331.8010 208.0971 -2.8059 -0.492 -0.597 -0.634 97 86 100
-328.0111 211.3858 -2.7510 0.955 -0.183 -0.232 100 88 108
-352.4881 241.2552 -3.2356 0.886 -0.331 0.325 105 93 113
-342.2898 242.3238 -3.0682 -0.281 -0.777 0.563 90 78 87
-331.6335 246.1931 -2.9002 0.904 -0.424 0.043 98 90 105
-331.2855 246.9350 -2.8963 0.904 -0.424 0.043 78 70 85
-330.7570 247.4408 -2.8887 0.901 -0.430 0.057 56 48 63
-358.7659 290.3672 -3.4656 0.895 -0.441 -0.073 60 49 65
-353.9460 289.4534 -3.3828 0.237 -0.782 0.576 59 46 63
-331.4382 262.2706 -2.9379 0.860 -0.509 0.047 83 70 87
-327.7417 258.3940 -2.8663 0.541 -0.816 -0.203 80 67 84
-254.5381 267.2825 -1.6673 -0.562 -0.311 0.766 85 75 83
-274.4966 318.9101 -2.1320 -0.567 -0.722 0.397 68 66 71
-263.1766 299.2276 -1.8929 -0.105 -0.905 0.412 37 35 40
-258.5914 290.5722 -1.7943 -0.763 -0.637 0.113 36 34 39
-257.9753 297.6964 -1.8022 0.196 -0.607 0.770 34 33 38
-255.6141 322.3852 -1.8257 -0.539 -0.762 -0.358 49 39 50
-249.7712 314.3108 -1.7076 0.019 -0.792 -0.610 29 24 31
-211.6588 244.8345 -0.8944 0.518 -0.382 0.765 51 45 49
-211.0586 245.2218 -0.8854 0.437 -0.423 0.794 37 28 31
-210.5005 245.7444 -0.8774 -0.178 -0.526 0.832 35 24 28
-192.8182 263.8629 -0.6285 0.498 -0.584 0.642 51 46 50
-162.1153 255.2450 -0.0941 -0.103 -0.661 0.743 24 19 25
-88.3942 191.9502 1.2975 0.808 -0.569 0.155 37 30 37
-86.1156 200.7006 1.3133 0.549 -0.694 -0.467 50 40 48
-85.4153 199.3427 1.3284 0.536 -0.671 -0.512 59 49 57
-86.1384 189.5312 1.3414 0.753 -0.532 0.387 68 61 68
-85.7911 183.9715 1.3613 0.587 -0.492 0.643 91 84 91
-85.2534 184.6227 1.3686 0.587 -0.492 0.643 97 90 97
-81.7803 189.6223 1.4139 0.869 -0.313 0.383 73 69 70
-329.2124 123.9714 -3.0374 -0.487 -0.781 0.390 84 84 96
-324.0966 120.6379 -2.9325 -0.522 -0.830 0.195 91 89 100
-330.6985 134.3553 -3.1134 0.803 -0.397 -0.445 80 79 85
-327.7473 134.1638 -3.0612 0.793 -0.420 -0.442 99 98 103
-331.2723 138.6454 -3.1441 0.849 -0.456 -0.265 93 92 98
-330.8989 138.9013 -3.1388 0.852 -0.454 -0.260 93 92 98
-333.4596 142.1156 -3.1988 0.799 -0.588 -0.127 105 103 114
-333.1950 143.0469 -3.1987 0.807 -0.580 -0.110 95 93 104
-331.4226 143.3177 -3.1692 0.022 -0.779 0.626 62 60 71
-330.6154 143.2269 -3.1548 -0.252 -0.801 0.543 78 76 87
-328.5547 143.8335 -3.1220 0.649 -0.464 0.602 136 134 145
-330.3202 145.9170 -3.1627 0.680 -0.639 0.360 130 128 139
-331.4995 148.1179 -3.1938 0.428 -0.895 0.128 90 86 100
-327.8729 152.3695 -3.1513 0.198 -0.864 -0.463 99 95 110
-330.4960 161.9392 -3.2431 0.486 -0.870 0.083 106 103 120
-328.4464 160.7189 -3.2016 0.631 -0.771 -0.086 100 98 112
-330.7275 166.9913 -3.2715 0.712 -0.213 0.669 133 131 144
-352.2381 189.7077 -3.7546 0.999 -0.046 0.001 112 110 123
-354.6070 196.0219 -3.8262 0.997 -0.058 0.041 48 45 62
-355.9454 198.9863 -3.8638 0.948 -0.213 0.236 58 55 72
-330.7092 174.9614 -3.3097 0.015 -0.920 0.392 65 62 79
-329.6442 174.6591 -3.2897 0.018 -0.920 0.392 75 72 89
-328.8272 178.4047 -3.2936 0.811 -0.490 0.319 87 83 100
-326.8590 189.2378 -3.3118 0.860 -0.411 0.302 90 77 94
-327.0629 190.3001 -3.3205 0.475 -0.494 0.728 79 66 83
-326.2257 190.2427 -3.3057 0.497 -0.482 0.721 85 72 89
-325.9414 194.2322 -3.3200 0.725 -0.517 -0.455 75 64 80
-332.7366 207.2407 -3.5008 0.496 -0.863 -0.098 75 64 78
-332.4243 207.8256 -3.4982 0.490 -0.867 -0.093 75 64 78
-328.9832 225.7869 -3.5252 0.894 -0.153 0.420 94 81 88
-331.0614 240.6828 -3.6332 0.494 -0.549 0.674 83 70 87
-329.7878 246.1135 -3.6373 0.749 -0.497 0.438 52 41 55
-329.7313 247.2484 -3.6418 0.755 -0.492 0.434 67 56 70
-354.3318 289.9480 -4.2751 0.150 -0.303 0.941 57 45 59
-353.5877 290.3509 -4.2641 0.150 -0.303 0.941 62 50 64
-331.5533 265.0540 -3.7594 0.823 -0.550 0.144 75 62 79
-331.5518 266.3952 -3.7659 0.818 -0.565 0.111 76 63 80
-258.6085 274.5286 -2.5390 -0.686 -0.368 0.628 82 72 80
-257.7832 297.2369 -2.6343 0.169 -0.606 0.778 37 36 41
-192.1148 264.0846 -1.3343 0.492 -0.607 0.624 41 36 40
-90.8343 193.4061 0.7652 0.154 -0.923 -0.352 79 79 79
-90.6315 191.6939 0.7770 0.115 -0.937 -0.329 69 69 69
-90.3493 190.5729 0.7873 -0.217 -0.969 -0.118 65 63 68
-89.9197 190.4758 0.7952 -0.217 -0.969 -0.118 58 56 61
-88.3799 191.8392 0.8153 0.808 -0.569 0.155 41 36 42
-85.2535 200.1331 0.8296 0.521 -0.689 -0.504 57 50 57
-85.7902 183.7968 0.8991 0.816 -0.484 0.316 89 84 90
-85.4602 183.2618 0.9075 0.325 -0.713 0.622 93 88 94
-326.6493 125.4718 -3.4914 0.890 -0.445 0.100 87 87 97
-326.8872 126.1553 -3.5005 0.822 -0.569 -0.027 89 89 97
-326.9442 126.7034 -3.5055 0.836 -0.549 -0.001 93 93 101
-327.4197 133.8652 -3.5650 0.861 -0.327 -0.388 93 92 97
-333.6901 141.6954 -3.7337 0.781 -0.550 -0.296 109 108 115
-333.2663 142.4927 -3.7317 0.799 -0.588 -0.127 100 99 107
-333.2580 143.0610 -3.7356 0.807 -0.580 -0.110 81 80 88
-331.9836 143.7459 -3.7175 0.402 -0.661 -0.634 35 34 42
-330.3937 143.0051 -3.6836 -0.242 -0.804 0.543 34 33 41
-328.2662 143.5530 -3.6491 0.649 -0.464 0.602 68 67 75
-330.3388 145.8955 -3.7032 0.683 -0.648 0.337 78 76 87
-332.1536 148.6381 -3.7554 0.556 -0.829 -0.052 79 75 89
-334.0630 155.2582 -3.8369 0.353 -0.480 0.803 71 65 79
-332.5992 154.6095 -3.8059 0.336 -0.471 0.815 83 77 91
-331.1804 153.9950 -3.7759 -0.518 -0.855 -0.022 110 106 120
-330.7513 162.1372 -3.8261 0.498 -0.863 0.088 85 82 99
-329.3481 161.5172 -3.7964 0.532 -0.847 -0.007 93 90 107
-332.3931 167.1178 -3.8911 0.819 -0.253 0.515 107 105 118
-357.0389 193.4550 -4.5227 0.854 -0.142 0.501 114 112 125
-354.1777 192.3208 -4.4631 0.988 -0.112 0.110 126 124 135
-332.2193 175.6590 -3.9487 0.312 -0.663 0.680 62 59 76
-331.4688 175.6718 -3.9353 0.066 -0.920 0.387 78 75 92
-330.1454 175.1169 -3.9075 0.040 -0.923 0.383 85 82 99
-330.1016 175.8264 -3.9117 0.665 -0.743 -0.082 78 75 92
-326.7235 189.0553 -3.9449 0.860 -0.411 0.302 73 60 77
-326.4583 189.6116 -3.9441 0.860 -0.411 0.302 66 53 70
-343.6840 209.0922 -4.3932 0.769 -0.293 0.567 66 52 69
-327.2418 192.1595 -3.9763 0.911 -0.376 0.172 74 61 78
-325.2751 196.0942 -3.9688 0.752 -0.586 -0.301 71 60 74
-355.3429 230.6692 -4.7568 0.571 -0.733 -0.370 69 58 72
-354.8017 231.0876 -4.7500 0.571 -0.733 -0.370 71 60 74
-327.8434 212.0931 -4.1289 0.972 -0.233 0.029 99 87 107
-330.4527 242.1924 -4.3900 0.609 -0.598 0.521 85 74 90
-330.0390 242.8285 -4.3871 0.738 -0.520 0.431 76 65 79
-329.6585 243.5121 -4.3851 0.721 -0.528 0.449 76 65 79
-329.2169 244.1187 -4.3814 0.721 -0.528 0.449 63 52 66
-329.5639 245.7799 -4.3995 0.749 -0.497 0.438 54 43 57
-351.6360 293.3867 -5.1360 -0.214 -0.582 0.785 76 64 78
-331.5868 271.8881 -4.6216 0.764 -0.631 -0.132 93 82 99
-330.7517 273.4721 -4.6179 0.720 -0.688 -0.089 85 72 92
-330.7764 274.9199 -4.6286 0.958 -0.176 0.225 80 68 88
-257.8589 272.8475 -3.2992 -0.787 -0.399 0.471 66 60 67
-260.8051 293.6742 -3.5005 -0.726 -0.658 0.200 34 33 38
-256.9782 290.9819 -3.4123 0.402 -0.653 0.642 32 31 36
-257.3899 296.2896 -3.4575 0.169 -0.606 0.778 27 26 31
-247.8013 311.5092 -3.3929 -0.256 -0.965 -0.049 23 22 28
-211.1502 243.3162 -2.2471 0.523 -0.382 0.762 24 18 23
-95.9140 188.7626 0.2184 0.079 -0.952 -0.296 51 44 59
-93.4676 187.0716 0.2745 0.527 -0.673 -0.519 91 88 97
-90.7751 193.6022 0.2766 0.154 -0.923 -0.352 84 84 86
-90.6250 191.5247 0.2941 0.004 -0.922 -0.387 73 73 74
-90.3581 190.3030 0.3076 -0.207 -0.970 -0.128 70 68 73
-85.7519 183.8390 0.4366 0.565 -0.801 -0.198 81 79 84
-83.9826 181.9560 0.4819 0.561 -0.821 -0.101 80 76 77
-82.5606 187.3877 0.4689 0.547 -0.831 0.100 77 73 74
-326.9054 122.1803 -3.9567 -0.519 -0.834 0.185 65 63 74
-327.4973 126.5856 -4.0092 0.850 -0.526 -0.018 83 82 90
-327.2613 126.9106 -4.0078 0.847 -0.531 -0.007 95 94 102
-329.1416 133.5868 -4.1057 0.879 -0.376 -0.291 126 125 130
-328.6848 134.2996 -4.1039 0.881 -0.360 -0.306 105 104 109
-328.1056 134.3775 -4.0938 0.828 -0.355 -0.435 95 94 99
-332.8326 140.9603 -4.2440 0.808 -0.476 -0.348 114 113 119
-333.4773 142.0548 -4.2663 0.839 -0.415 -0.353 115 114 120
-332.5751 141.8890 -4.2479 0.792 -0.525 0.312 109 108 116
-333.3211 143.0752 -4.2730 0.807 -0.580 -0.110 99 98 106
-333.4220 143.7366 -4.2811 0.557 -0.648 -0.520 81 80 88
-333.0654 144.0229 -4.2771 0.410 -0.650 -0.640 68 67 75
-332.6629 144.2721 -4.2719 0.410 -0.650 -0.640 55 54 62
-332.2599 144.5216 -4.2667 0.410 -0.650 -0.640 69 68 76
-328.3628 141.8527 -4.1688 -0.214 -0.808 0.549 83 82 90
-327.3037 141.5437 -4.1461 -0.233 -0.801 0.551 92 91 99
-330.4940 144.8054 -4.2364 0.518 -0.583 -0.625 93 92 100
-327.7379 143.0702 -4.1686 0.632 -0.467 0.618 82 81 89
-332.2010 148.6409 -4.3043 0.556 -0.829 -0.052 79 75 89
-332.0121 154.0555 -4.3517 0.337 -0.475 0.813 69 63 77
-331.3678 154.1227 -4.3403 -0.518 -0.855 -0.022 104 98 112
-356.4000 185.7767 -5.1057 -0.132 -0.921 -0.367 75 72 89
-329.4901 161.6112 -4.3755 0.513 -0.858 0.005 88 85 102
-331.9355 166.6497 -4.4686 0.675 -0.309 0.670 102 100 113
-329.8549 166.7932 -4.4310 0.705 -0.215 0.676 112 110 123
-332.1497 175.5527 -4.5562 0.303 -0.658 0.689 73 70 87
-331.6352 175.7977 -4.5489 0.303 -0.658 0.689 90 87 104
-329.8936 174.8303 -4.5072 0.191 -0.667 0.720 103 100 117
-330.1797 175.8662 -4.5223 0.292 -0.623 0.725 95 92 109
-329.1566 176.3627 -4.5079 0.292 -0.623 0.725 95 92 109
-345.0586 209.6157 -5.1176 0.905 -0.242 0.350 71 58 75
-345.0338 210.5121 -5.1256 0.902 -0.240 0.360 66 54 72
-327.5732 192.4824 -4.6297 0.913 -0.370 0.174 69 56 73
-327.7421 193.5275 -4.6427 0.923 -0.356 0.145 70 57 74
-327.9156 194.5844 -4.6558 0.583 -0.743 0.329 70 57 74
-361.6808 237.7268 -5.6925 0.588 -0.734 -0.339 76 68 81
-361.1183 240.2744 -5.7059 0.540 -0.772 -0.334 79 71 84
-332.5630 210.7579 -4.8947 -0.368 -0.833 -0.413 69 61 74
-327.5729 214.7045 -4.8384 0.961 -0.273 -0.049 92 84 98
-347.0750 239.0931 -5.4322 0.094 -0.898 0.431 92 84 94
-345.8994 238.7822 -5.4073 0.032 -0.914 0.403 88 78 86
-330.0796 237.0367 -5.0951 -0.442 -0.771 0.458 78 65 82
-329.5705 238.6750 -5.1010 0.411 -0.575 0.708 105 93 107
-329.4252 240.8109 -5.1183 0.482 -0.525 0.701 87 75 89
-328.9022 241.2976 -5.1131 0.482 -0.525 0.701 83 72 86
-328.1352 241.4642 -5.1004 0.489 -0.526 0.696 91 80 94
-328.0368 242.5176 -5.1084 0.093 -0.672 0.735 87 76 90
-325.9419 242.1055 -5.0654 0.433 -0.544 0.719 59 48 62
-325.1746 242.2705 -5.0526 0.424 -0.544 0.724 60 49 63
-350.0989 291.1786 -5.9781 0.465 -0.746 0.477 60 49 65
-349.4481 293.1877 -5.9848 0.348 -0.718 0.603 80 69 85
-333.3276 282.9802 -5.5875 0.995 -0.080 -0.057 76 64 84
-261.3217 294.8874 -4.3529 -0.746 -0.665 0.026 22 21 26
-232.5527 249.1579 -3.3853 -0.513 -0.856 0.068 24 23 28
-246.4303 288.8633 -4.0178 0.471 -0.572 0.671 24 22 27
-225.6276 240.9580 -3.1788 -0.483 -0.859 0.170 22 20 25
-210.3664 243.1476 -2.9140 0.507 -0.381 0.773 22 20 26
-189.9948 249.2602 -2.5905 0.894 -0.255 0.369 25 20 26
-96.5928 211.2412 -0.4868 -0.546 -0.788 0.284 115 117 106
-96.2801 192.9769 -0.3093 -0.537 -0.836 -0.108 84 78 91
-95.8654 188.9167 -0.2634 0.079 -0.952 -0.296 55 49 59
-90.2530 193.8731 -0.2050 0.154 -0.923 -0.352 76 76 78
-90.3291 190.2896 -0.1728 -0.070 -0.970 -0.235 76 74 79
-90.0130 189.4344 -0.1589 -0.135 -0.983 -0.127 66 64 69
-89.5266 189.7316 -0.1526 -0.173 -0.979 -0.112 56 54 59
-89.1011 189.6273 -0.1436 -0.167 -0.975 -0.147 46 44 49
-86.1192 186.5024 -0.0585 0.695 -0.667 0.268 68 63 69
-85.0997 189.9442 -0.0718 0.594 -0.775 -0.213 73 68 74
-327.3630 122.4854 -4.4536 -0.527 -0.850 0.003 79 77 90
-328.7564 130.0809 -4.5693 0.869 -0.472 -0.150 89 88 94
-330.1377 131.6783 -4.6147 0.867 -0.490 0.086 83 82 87
-330.5691 132.5427 -4.6331 0.858 -0.505 -0.093 83 82 87
-331.0330 136.6825 -4.6905 0.309 -0.523 -0.794 105 104 109
-328.6341 135.3074 -4.6279 0.795 -0.333 -0.507 105 104 109
-328.4349 135.6933 -4.6286 0.801 -0.337 -0.495 112 111 116
-331.3699 139.1716 -4.7261 0.898 -0.268 -0.348 116 115 120
-333.9485 142.9758 -4.8204 0.582 -0.629 -0.515 103 102 110
-334.8314 144.2781 -4.8527 0.342 -0.526 -0.779 93 92 100
-333.8649 144.0639 -4.8315 0.410 -0.650 -0.640 82 81 89
-333.4623 144.3135 -4.8266 0.410 -0.650 -0.640 74 73 81
-333.0592 144.5634 -4.8217 0.410 -0.650 -0.640 76 75 83
-332.6557 144.8135 -4.8169 0.410 -0.650 -0.640 85 84 92
-330.0381 144.3848 -4.7611 0.499 -0.580 -0.644 99 98 106
-327.8724 143.1469 -4.7047 0.639 -0.458 0.618 92 91 99
-331.9919 148.4249 -4.8462 0.615 -0.786 0.062 83 79 93
-328.0619 146.2694 -4.7449 -0.527 -0.826 -0.199 88 82 96
-354.3898 174.3901 -5.5833 0.566 -0.735 -0.373 95 89 103
-354.9050 175.5533 -5.6068 0.561 -0.749 -0.352 126 120 134
-357.0648 186.3479 -5.7747 -0.112 -0.928 -0.355 80 77 94
-354.0362 191.3022 -5.7739 0.822 -0.200 0.533 87 85 98
-354.2446 195.5423 -5.8275 0.899 -0.097 0.428 57 55 69
-329.1188 174.0269 -5.0895 0.180 -0.676 0.715 70 67 84
-328.8644 174.5238 -5.0904 0.197 -0.683 0.703 73 70 87
-345.0677 207.7552 -5.7924 0.243 -0.762 0.601 82 69 86
-345.1013 208.7036 -5.8041 0.899 -0.248 0.360 88 75 92
-344.8457 210.2685 -5.8174 0.902 -0.245 0.356 104 93 109
-344.6499 210.9840 -5.8220 0.902 -0.245 0.356 96 85 101
-327.6968 193.4410 -5.2887 0.922 -0.358 0.145 85 72 89
-327.8614 194.4879 -5.3041 0.582 -0.745 0.325 83 70 87
-328.2925 197.5998 -5.3488 0.853 -0.508 0.124 106 98 111
-333.3175 206.8473 -5.5542 0.644 -0.366 0.672 91 83 96
-332.5337 206.8982 -5.5396 0.596 -0.543 0.592 88 80 93
-345.2916 239.1142 -6.1630 -0.034 -0.835 0.550 85 76 81
-343.7768 245.1610 -6.2042 0.993 -0.108 -0.042 91 80 88
-328.9966 240.2142 -5.8602 0.482 -0.525 0.701 80 68 82
-328.6683 240.9547 -5.8625 0.455 -0.540 0.708 99 87 101
-328.1661 241.4700 -5.8588 0.087 -0.673 0.734 103 91 105
-324.8780 241.8377 -5.7994 0.281 -0.713 0.642 59 47 61
-350.7338 292.0381 -6.8865 0.478 -0.725 0.496 55 42 59
-347.4456 294.7347 -6.8543 0.375 -0.799 0.470 93 80 98
-266.7768 275.3611 -5.0655 -0.348 -0.689 0.636 47 39 54
-233.3025 243.4314 -4.0442 0.079 -0.957 0.279 21 20 25
-227.8476 242.8989 -3.9323 -0.337 -0.936 0.102 24 23 28
-96.5415 206.9176 -0.9686 -0.403 -0.735 0.546 126 126 114
-96.2460 193.0107 -0.8005 -0.535 -0.837 -0.111 107 102 110
-90.1371 197.6173 -0.7360 0.530 -0.686 -0.499 84 83 88
-90.2815 190.4028 -0.6545 -0.070 -0.970 -0.235 77 75 80
-89.9736 189.4911 -0.6379 -0.135 -0.983 -0.127 69 67 72
-89.5570 189.3260 -0.6279 -0.130 -0.982 -0.135 59 57 62
-89.0933 189.4753 -0.6207 -0.154 -0.975 -0.159 50 48 53
-87.7037 187.1879 -0.5670 0.155 -0.571 -0.806 54 49 55
-85.0192 185.2444 -0.4923 0.551 -0.813 -0.187 78 73 77
-84.4502 170.4581 -0.3086 -0.499 -0.856 0.136 61 56 60
-85.0111 165.5181 -0.2618 -0.353 -0.923 0.152 58 53 57
-328.1462 123.0327 -4.9626 -0.536 -0.844 -0.022 92 90 103
-329.7171 130.2693 -5.0951 0.859 -0.491 -0.142 77 76 82
-329.0909 130.3042 -5.0831 0.864 -0.477 -0.162 79 78 84
-329.5756 131.2037 -5.1053 0.889 -0.457 0.010 77 76 81
-331.8581 140.0930 -5.2752 0.860 -0.191 -0.472 114 113 120
-334.8436 146.0057 -5.4176 0.463 -0.543 -0.701 81 79 90
-334.0891 145.9688 -5.4020 0.453 -0.556 -0.697 81 80 88
-333.1282 145.7582 -5.3798 0.455 -0.551 -0.699 81 79 90
-330.4181 144.6671 -5.3102 0.499 -0.580 -0.644 82 80 91
-331.8604 148.8818 -5.3980 -0.570 -0.801 -0.181 88 84 98
-327.4926 145.7440 -5.2666 -0.570 -0.801 -0.181 94 88 102
-354.6083 174.5409 -6.2122 0.566 -0.735 -0.373 95 89 101
-354.1793 174.8692 -6.2082 0.566 -0.735 -0.373 110 104 118
-357.4344 186.6463 -6.4379 -0.112 -0.928 -0.355 86 83 100
-352.8167 190.8882 -6.4046 0.863 -0.119 0.491 64 62 75
-352.5190 191.4002 -6.4058 0.878 -0.113 0.466 62 60 73
-352.4232 192.1096 -6.4138 0.878 -0.113 0.466 57 55 68
-352.6360 193.1224 -6.4322 0.832 -0.086 0.548 55 53 67
-353.1625 194.4465 -6.4612 0.896 -0.105 0.431 68 66 80
-332.6458 175.9630 -5.7919 0.932 -0.128 0.339 72 69 86
-327.6328 172.5211 -5.6434 0.242 -0.640 0.729 75 72 89
-327.6029 173.2352 -5.6528 0.294 -0.607 0.738 77 74 91
-327.9728 175.1049 -5.6863 0.756 -0.474 0.451 83 80 97
-323.2745 174.9187 -5.5895 0.597 -0.615 0.515 87 81 95
-345.8225 209.4371 -6.5235 0.579 -0.778 0.245 114 101 118
-345.3177 209.8141 -6.5186 0.579 -0.778 0.245 127 114 131
-344.4474 210.7239 -6.5139 0.902 -0.245 0.356 116 105 121
-347.2893 214.7525 -6.6271 0.742 -0.328 0.585 100 87 104
-326.6123 197.4761 -5.9714 0.443 -0.293 0.848 104 98 110
-332.2226 206.5093 -6.2100 0.596 -0.543 0.592 84 78 90
-327.7685 208.9821 -6.1553 0.967 -0.252 -0.046 96 89 105
-348.5099 237.4416 -6.9684 0.284 -0.740 0.610 102 94 114
-347.8219 237.7137 -6.9584 0.284 -0.740 0.610 109 102 119
-343.0681 241.9588 -6.9224 0.991 -0.123 -0.059 90 78 82
-328.7897 237.5903 -6.5753 0.791 -0.494 -0.360 61 48 65
-329.1643 240.3986 -6.6220 0.443 -0.516 0.733 59 47 61
-328.5727 240.7938 -6.6157 0.093 -0.672 0.735 99 87 101
-327.6359 240.7346 -6.5961 0.087 -0.673 0.734 109 97 111
-324.5133 241.3133 -6.5416 0.281 -0.713 0.642 62 50 64
-347.1931 294.3342 -7.7365 0.375 -0.799 0.470 99 86 104
-96.0082 202.7919 -1.4241 -0.444 -0.895 -0.034 128 128 121
-90.2216 196.8067 -1.2246 0.303 -0.464 -0.832 82 81 86
-90.2827 190.1845 -1.1333 -0.074 -0.971 -0.228 77 76 81
-89.9257 189.6048 -1.1180 -0.079 -0.979 -0.190 69 68 73
-87.2218 184.6727 -0.9950 0.170 -0.864 -0.473 61 56 62
-85.9729 184.4810 -0.9673 0.098 -0.791 -0.604 69 67 70
-326.9988 122.6288 -5.4200 -0.500 -0.861 -0.095 90 88 101
-333.4344 133.6395 -5.7322 -0.197 -0.757 -0.623 67 66 72
-332.3639 133.3387 -5.7052 -0.197 -0.757 -0.623 55 54 59
-331.9282 133.5310 -5.6993 -0.199 -0.758 -0.621 45 44 49
-332.3109 134.3651 -5.7208 0.758 -0.215 -0.616 51 50 55
-336.0559 145.7930 -5.9840 0.475 -0.541 -0.694 73 71 82
-335.8990 146.2519 -5.9883 0.494 -0.550 -0.673 78 76 87
-335.6770 146.6588 -5.9903 0.496 -0.545 -0.675 85 83 94
-335.8601 147.4044 -6.0062 0.870 -0.428 -0.246 86 84 95
-335.0683 147.3402 -5.9887 0.896 -0.443 0.032 80 78 89
-331.2436 155.1762 -6.0369 0.485 -0.582 -0.652 94 90 104
-331.9438 157.0918 -6.0825 0.135 -0.760 -0.636 99 96 113
-331.5781 158.0702 -6.0908 0.353 -0.852 -0.386 79 76 93
-350.8206 189.7228 -7.0038 0.799 -0.141 0.585 89 87 100
-330.9836 174.2946 -6.3422 0.926 -0.135 0.352 85 82 99
-327.4374 172.2907 -6.2362 0.286 -0.611 0.738 88 85 102
-327.3427 184.6088 -6.4344 0.688 -0.478 -0.546 84 78 92
-345.7072 208.3579 -7.2008 0.565 -0.793 0.226 135 124 140
-345.7246 209.2915 -7.2163 0.579 -0.778 0.245 136 125 141
-345.2198 209.6684 -7.2120 0.579 -0.778 0.245 135 124 140
-343.6794 209.8503 -7.1830 0.605 -0.382 0.699 115 104 120
-345.7896 213.0781 -7.2792 0.553 -0.651 0.520 100 89 105
-327.5186 194.0386 -6.5913 0.869 -0.479 0.126 93 82 98
-331.7715 205.9625 -6.8732 0.619 -0.536 0.574 82 76 88
-331.9155 207.0604 -6.8940 0.663 -0.541 0.517 85 79 91
-330.3851 208.1478 -6.8800 -0.025 -0.937 0.347 87 81 93
-328.9922 208.4488 -6.8560 -0.143 -0.989 -0.033 81 75 87
-328.4966 208.8318 -6.8520 -0.041 -0.995 -0.094 83 77 91
-347.9525 236.7413 -7.7086 0.285 -0.736 0.615 104 97 114
-345.6860 237.3088 -7.6708 -0.229 -0.761 0.608 106 100 111
-344.4963 236.9749 -7.6408 -0.229 -0.761 0.608 99 92 100
-338.1304 234.7238 -7.4723 0.053 -0.755 0.654 76 64 69
-328.6977 239.7522 -7.3587 0.443 -0.516 0.733 91 77 94
-328.0440 240.0634 -7.3502 0.093 -0.672 0.735 119 105 120
-327.2496 240.1894 -7.3358 0.093 -0.672 0.735 117 103 118
-324.6829 241.5073 -7.3040 0.288 -0.703 0.651 65 51 66
-346.9265 293.9132 -8.6165 0.372 -0.790 0.486 93 78 97
-89.9041 181.0379 -1.4584 -0.296 -0.854 -0.428 60 58 63
-85.9546 184.4059 -1.4313 0.097 -0.826 -0.556 62 60 63
-85.5039 184.5497 -1.4243 0.165 -0.770 -0.617 63 61 64
-85.2132 183.7820 -1.4058 0.149 -0.743 -0.652 60 55 59
-85.0486 179.9860 -1.3407 0.498 -0.754 0.428 56 51 55
-325.8065 122.1884 -5.8726 0.562 -0.642 -0.522 105 103 117
-326.2609 124.4984 -5.9252 0.898 -0.379 0.223 110 108 121
-332.2803 132.1790 -6.1963 -0.085 -0.706 -0.703 113 112 121
-332.5103 132.8850 -6.2143 -0.258 -0.783 -0.566 100 99 105
-332.7615 133.6111 -6.2332 -0.192 -0.750 -0.632 97 96 101
-332.6856 134.0856 -6.2403 -0.198 -0.756 -0.624 92 91 96
-333.6790 137.0314 -6.3162 0.864 -0.496 -0.081 115 114 119
-333.9104 138.8711 -6.3552 0.938 -0.325 0.123 100 99 104
-332.4922 138.2914 -6.3142 0.842 -0.528 -0.110 100 99 104
-337.2331 146.7244 -6.5719 0.505 -0.546 -0.668 71 69 80
-336.3190 146.5608 -6.5493 0.494 -0.550 -0.673 74 72 83
-336.5549 147.3485 -6.5690 0.502 -0.550 -0.667 81 79 90
-335.9230 147.4186 -6.5568 0.802 -0.582 -0.136 85 83 94
-335.1013 147.3296 -6.5375 0.850 -0.526 -0.007 84 81 92
-336.0113 148.6893 -6.5822 0.882 -0.469 -0.036 80 78 89
-332.3825 151.7156 -6.5607 0.248 -0.678 -0.692 96 90 102
-331.6839 151.7319 -6.5461 0.220 -0.717 -0.661 96 90 102
-331.7200 152.3882 -6.5590 -0.009 -0.873 -0.487 94 88 100
-331.6760 152.9778 -6.5690 0.488 -0.535 -0.690 89 83 95
-331.2056 153.1958 -6.5630 0.484 -0.533 -0.694 86 80 92
-332.7250 155.8090 -6.6439 0.478 -0.557 -0.680 82 76 88
-332.1444 155.9380 -6.6339 0.464 -0.570 -0.678 79 75 89
-332.3228 156.7428 -6.6526 0.076 -0.709 -0.701 80 76 91
-332.9497 157.9530 -6.6885 0.048 -0.832 -0.552 74 72 86
-332.3051 158.0300 -6.6761 -0.442 -0.892 -0.092 62 59 76
-331.9803 158.3943 -6.6759 0.339 -0.860 -0.382 63 60 77
-357.7456 186.0839 -7.7403 0.954 -0.084 0.289 88 85 102
-359.7209 188.6702 -7.8305 0.948 -0.085 0.306 89 86 103
-328.5732 166.1288 -6.7465 0.679 -0.079 0.730 84 82 95
-350.0248 188.9150 -7.6277 0.799 -0.142 0.585 90 88 101
-324.7318 169.5812 -6.7283 0.441 -0.742 0.506 97 94 111
-346.4406 209.1011 -7.9253 0.559 -0.783 0.271 131 120 136
-327.2094 189.3915 -7.1486 0.794 -0.576 0.192 133 122 138
-345.1220 209.5227 -7.9049 0.579 -0.778 0.245 125 114 130
-343.2245 208.3953 -7.8434 0.604 -0.380 0.701 116 105 121
-327.6695 193.2998 -7.2309 0.856 -0.504 0.112 103 90 107
-327.6902 194.1892 -7.2478 0.866 -0.489 0.105 104 93 109
-327.0230 194.3290 -7.2362 0.952 -0.304 -0.031 107 96 112
-330.1616 207.8542 -7.5541 0.869 -0.488 -0.084 82 76 88
-328.8783 208.2800 -7.5345 0.694 -0.388 -0.606 65 59 71
-344.5191 236.9630 -8.4008 -0.222 -0.766 0.604 76 68 78
-348.8043 243.2405 -8.6088 0.977 -0.200 -0.074 75 68 75
-340.1305 237.1431 -8.3103 -0.063 -0.812 -0.580 60 49 57
-350.4548 256.9501 -8.8983 0.979 -0.189 -0.081 75 63 76
-342.4038 255.1901 -8.6935 0.293 -0.825 -0.484 65 51 66
-341.8687 255.7238 -8.6919 0.624 -0.716 -0.313 67 53 70
-341.9179 257.0251 -8.7171 0.625 -0.720 -0.304 113 99 116
-326.5952 239.2905 -8.0606 0.103 -0.666 0.739 116 102 117
-324.3122 240.9750 -8.0430 0.288 -0.703 0.651 66 52 67
-322.9551 240.3392 -8.0022 0.447 -0.530 0.721 62 48 63
-348.8440 292.1805 -9.5170 0.368 -0.742 0.559 58 44 61
-347.3547 293.0055 -9.5005 0.347 -0.746 0.568 58 44 61
-346.4915 293.2491 -9.4865 0.335 -0.748 0.572 47 32 51
-346.8654 295.2875 -9.5323 -0.040 -0.596 0.802 56 41 62
-332.2346 285.6631 -9.0410 0.978 -0.182 -0.106 72 57 78
-252.1876 271.5134 -7.0669 -0.094 -0.879 -0.467 28 27 32
-251.8989 272.8110 -7.0848 0.337 -0.894 -0.294 21 20 25
-254.6236 283.2913 -7.3373 0.703 -0.704 -0.096 23 22 27
-95.3968 199.3726 -2.3765 -0.485 -0.872 0.061 98 95 86
-56.4997 342.7384 -4.2027 0.076 -0.826 -0.559 47 42 46
-54.7222 344.4056 -4.1956 0.387 -0.813 -0.436 47 43 44
23.4535 409.8899 -3.7380 0.937 -0.332 0.107 36 36 48
-326.4118 122.6059 -6.3795 0.693 -0.627 -0.356 103 101 115
-334.2022 133.0986 -6.7699 -0.103 -0.708 -0.699 134 132 145
-333.3228 132.9482 -6.7473 -0.103 -0.708 -0.699 131 129 139
-332.7190 133.0098 -6.7353 -0.267 -0.731 -0.628 110 109 115
-332.4878 136.0513 -6.7936 0.853 -0.517 -0.074 113 112 117
-334.0450 138.3859 -6.8765 0.936 -0.325 0.139 104 103 108
-334.3284 139.1676 -6.8991 0.933 -0.332 0.141 106 105 110
-333.7670 139.2761 -6.8889 0.683 -0.377 -0.626 107 106 111
-338.7411 147.3346 -7.1665 0.163 -0.622 -0.766 65 62 73
-339.2985 148.3865 -7.2007 0.155 -0.628 -0.763 61 58 69
-337.0767 147.1484 -7.1259 0.501 -0.551 -0.668 60 57 68
-336.5910 147.3400 -7.1192 0.794 -0.583 -0.173 62 59 70
-335.7859 147.8628 -7.1123 0.895 -0.436 0.097 73 70 81
-337.4089 149.8213 -7.1889 0.858 -0.514 0.020 75 72 83
-335.8433 149.1130 -7.1396 0.891 -0.447 -0.075 79 75 89
-332.8905 152.1178 -7.1371 0.248 -0.678 -0.692 90 84 94
-332.9205 152.7690 -7.1513 0.227 -0.699 -0.678 87 81 91
-333.3523 154.4071 -7.1950 -0.032 -0.864 -0.503 88 82 92
-347.1076 167.8050 -7.7775 -0.044 -0.978 0.205 79 73 83
-334.7304 158.1949 -7.3043 0.073 -0.746 -0.662 75 72 83
-335.2220 159.9453 -7.3516 -0.431 -0.900 -0.065 83 81 95
-333.9831 159.4967 -7.3149 -0.489 -0.870 0.061 86 83 100
-332.4199 158.7519 -7.2649 0.325 -0.873 -0.364 81 78 95
-325.7751 164.1237 -7.2302 0.183 -0.982 -0.051 76 74 87
-349.4586 188.3285 -8.2568 0.816 -0.198 0.543 82 80 93
-351.0827 193.1070 -8.3922 0.856 -0.172 0.487 106 103 120
-327.4292 189.5900 -7.7972 0.793 -0.575 0.199 110 99 115
-347.4425 211.9805 -8.7050 0.542 -0.837 -0.070 93 82 98
-327.7759 205.0825 -8.1276 0.837 -0.483 0.257 69 63 77
-328.3647 214.4678 -8.3360 0.836 -0.507 -0.207 69 63 75
-344.2219 236.5660 -9.1461 -0.118 -0.990 0.082 75 69 79
-349.6413 244.2118 -9.4249 0.977 -0.202 -0.072 88 80 91
-342.0926 257.2162 -9.5293 0.625 -0.720 -0.304 108 94 111
-342.1382 258.5234 -9.5575 0.621 -0.725 -0.299 114 100 115
-326.0719 238.5646 -8.7874 0.103 -0.666 0.739 106 92 107
-325.4141 238.8647 -8.7791 0.093 -0.672 0.735 50 36 51
-345.7511 293.6352 -10.3686 -0.217 -0.486 0.846 63 48 67
-253.8512 275.3894 -7.9615 0.490 -0.858 -0.154 29 28 33
-253.9718 277.6722 -8.0117 0.448 -0.883 -0.143 29 28 33
-255.1437 286.6222 -8.2240 0.658 -0.684 -0.316 25 24 29
-231.8099 276.9917 -7.5087 0.546 -0.552 0.631 25 24 29
-95.6618 200.8654 -2.9200 -0.192 -0.724 -0.662 111 109 95
-91.5114 193.4717 -2.6744 0.004 -0.746 0.666 87 82 86
-90.8654 191.6711 -2.6227 0.827 -0.560 0.060 85 80 84
-56.0544 362.4536 -5.4123 0.078 -0.873 -0.482 54 52 53
-336.2425 134.1013 -7.3551 -0.364 -0.694 -0.621 133 131 144
-335.1358 133.7807 -7.3226 -0.103 -0.708 -0.699 142 140 153
-334.2507 133.6284 -7.2989 -0.103 -0.708 -0.699 144 142 153
-334.2560 134.1649 -7.3114 -0.252 -0.747 -0.615 119 118 125
-334.3340 134.7606 -7.3270 -0.182 -0.864 -0.469 108 107 112
-333.7688 134.8568 -7.3164 0.074 -0.939 -0.337 93 93 95
-333.1385 134.9018 -7.3031 0.074 -0.939 -0.337 71 71 73
-331.7269 134.3321 -7.2578 0.863 -0.502 -0.060 68 67 72
-331.9901 135.0783 -7.2811 0.867 -0.497 -0.034 87 86 91
-332.2822 135.8513 -7.3056 0.861 -0.509 -0.016 106 105 110
-334.3388 138.5823 -7.4155 0.919 -0.395 -0.001 105 104 109
-334.1610 138.9962 -7.4210 0.919 -0.395 -0.001 91 90 95
-334.0958 139.5020 -7.4312 0.463 -0.428 -0.776 88 87 92
-334.0191 140.0010 -7.4410 0.497 -0.424 -0.757 91 90 95
-336.9554 147.6037 -7.6835 0.737 -0.676 0.006 61 58 69
-336.4112 147.7480 -7.6745 0.721 -0.691 0.052 64 61 72
-332.6575 146.9954 -7.5718 0.891 -0.431 0.142 85 81 95
-332.1589 147.1733 -7.5645 0.893 -0.422 0.157 92 89 100
-332.7025 148.2358 -7.6015 0.895 -0.423 0.143 88 85 96
-327.5806 145.6718 -7.4258 -0.555 -0.756 0.346 81 75 85
-333.4243 153.1689 -7.7319 0.227 -0.699 -0.678 98 92 102
-333.8026 154.7630 -7.7774 -0.032 -0.864 -0.503 98 92 102
-343.4783 163.8964 -8.2085 -0.146 -0.982 0.116 95 89 99
-334.8197 158.2358 -7.8808 0.097 -0.808 -0.582 78 75 86
-333.7345 159.2355 -7.8792 -0.485 -0.873 0.057 116 114 128
-332.3221 158.6259 -7.8330 -0.198 -0.977 -0.081 102 99 116
-326.9814 163.1474 -7.8162 0.696 -0.157 0.701 100 96 110
-327.0612 163.9166 -7.8358 0.185 -0.977 -0.103 105 101 115
-349.4131 188.2434 -8.9063 0.819 -0.198 0.539 97 95 108
-349.9667 191.1690 -8.9865 0.850 -0.231 0.472 125 123 137
-332.1065 176.0329 -8.2306 0.966 -0.214 0.147 114 111 128
-332.1120 176.7941 -8.2483 0.235 -0.705 -0.669 111 108 125
-328.6581 174.1315 -8.1083 0.208 -0.718 -0.664 113 110 127
-328.6848 174.9099 -8.1269 0.490 -0.872 0.013 112 109 126
-330.8247 177.8022 -8.2424 0.023 -0.888 -0.460 138 135 152
-328.8490 178.1263 -8.2050 0.026 -0.887 -0.462 109 105 122
-329.8579 185.4977 -8.3983 0.804 -0.569 -0.170 117 111 125
-327.9415 190.1021 -8.4612 0.820 -0.539 0.192 95 84 100
-348.0576 212.6018 -9.4387 0.551 -0.834 0.011 96 83 100
-328.1528 193.7518 -8.5504 0.865 -0.491 0.105 100 87 104
-331.0923 204.1574 -8.8578 0.629 -0.394 0.670 67 61 75
-327.7750 204.1101 -8.7813 0.815 -0.503 0.287 61 55 69
-327.5057 204.7360 -8.7897 0.678 -0.512 0.527 78 72 86
-327.6047 205.7891 -8.8163 0.818 -0.474 0.326 107 101 113
-328.7792 208.0916 -8.8962 0.820 -0.385 0.423 127 121 133
-329.2013 213.4375 -9.0294 0.667 -0.386 -0.637 81 76 85
-343.2859 235.4007 -9.8574 -0.119 -0.980 0.159 94 88 100
-336.9933 232.1225 -9.6385 0.755 -0.419 -0.504 73 62 77
-347.5895 254.4626 -10.3959 0.372 -0.623 -0.688 87 77 84
-346.9385 254.8447 -10.3900 0.372 -0.623 -0.688 97 86 93
-345.8840 254.7134 -10.3630 0.374 -0.620 -0.689 108 97 105
-343.9462 255.8845 -10.3460 0.324 -0.818 -0.475 92 79 88
-342.2676 257.4078 -10.3430 0.625 -0.720 -0.304 98 84 101
-342.3106 258.7124 -10.3742 0.621 -0.725 -0.299 116 103 120
-329.0490 274.9958 -10.4492 -0.176 -0.539 0.824 85 72 92
-331.3200 284.2215 -10.7142 0.994 -0.110 0.003 68 54 71
-265.3840 266.9682 -8.8166 -0.722 -0.582 0.374 67 63 75
-255.6474 287.8309 -9.0776 0.667 -0.731 -0.146 27 26 31
-224.5560 244.0942 -7.3597 -0.350 -0.935 -0.048 31 30 35
-231.5232 271.6314 -8.1547 0.885 -0.327 0.331 30 29 34
-150.5575 313.6231 -7.2853 -0.416 -0.823 -0.387 34 34 34
-95.6068 185.9910 -3.0853 -0.024 -0.998 -0.053 65 58 52
-93.6935 193.9315 -3.2254 -0.035 -0.999 0.027 67 62 59
-93.2389 193.9158 -3.2147 -0.035 -0.999 0.027 86 78 76
-90.1439 193.3304 -3.1308 0.184 -0.539 0.822 81 76 78
-91.2520 177.1623 -2.7822 -0.628 -0.778 0.015 75 71 72
31.1752 430.1503 -5.8488 0.521 -0.181 0.834 32 32 44
-339.2791 136.3960 -8.0042 -0.410 -0.709 -0.574 124 122 135
-337.8432 135.8294 -7.9562 -0.304 -0.757 -0.578 122 120 133
-336.3224 135.1926 -7.9044 -0.276 -0.753 -0.597 121 119 131
