ply
format ascii 1.0
element vertex 851
property float x
property float y
property float z
property float nx
property float ny
property float nz
property uchar diffuse_red
property uchar diffuse_green
property uchar diffuse_blue
end_header
-148.4167 232.9888 -28.5745 0.516 -0.303 0.801 32 31 27
-144.7745 233.5173 -28.7999 -0.197 -0.700 0.686 55 47 45
-144.1441 233.4362 -28.8167 0.131 -0.757 0.640 58 48 46
-143.4377 232.7659 -28.7609 -0.141 -0.561 0.815 60 47 46
-142.6041 231.0736 -28.5792 -0.191 -0.515 0.836 74 56 56
-130.3503 209.5681 -26.3418 -0.365 -0.793 0.487 77 54 62
-126.4224 217.5275 -27.5355 -0.345 -0.539 0.768 77 59 57
-66.7336 237.5716 -32.6928 0.143 -0.762 -0.632 79 64 71
-66.1782 237.2673 -32.6776 0.229 -0.787 -0.573 88 72 82
-62.4477 228.3671 -31.6937 0.309 -0.426 0.850 74 62 62
-61.7578 228.9022 -31.7924 0.594 -0.412 0.691 77 65 65
-52.2476 234.6667 -32.9448 -0.172 -0.444 0.879 64 47 57
-52.1448 230.0069 -32.3498 -0.249 -0.433 0.866 72 55 72
-46.7036 228.4127 -32.3797 -0.179 -0.981 -0.078 81 65 78
-46.2981 227.7392 -32.3106 -0.051 -0.999 -0.016 78 62 75
-45.7164 227.7503 -32.3372 -0.319 -0.918 0.234 80 67 77
-45.1863 227.5666 -32.3364 -0.319 -0.918 0.234 87 71 82
-44.6571 227.3832 -32.3357 -0.319 -0.918 0.234 86 70 81
-42.7602 230.1143 -32.7690 -0.592 -0.804 -0.052 84 68 79
-29.5191 255.2378 -36.5733 0.504 -0.723 -0.472 82 73 77
-28.8190 255.4378 -36.6292 0.507 -0.701 -0.501 82 73 76
-28.2777 255.1053 -36.6098 0.535 -0.669 -0.517 80 71 73
-17.3264 259.1997 -37.6097 -0.424 -0.429 0.797 70 64 77
-8.2765 264.5979 -38.6951 0.568 -0.172 0.805 113 107 119
-12.8070 250.2809 -36.6575 0.415 -0.906 -0.077 115 108 123
-10.5699 247.9218 -36.4506 0.385 -0.064 0.921 109 100 119
-5.8199 255.5277 -37.6343 0.397 -0.063 0.916 114 103 125
10.6545 284.0769 -42.0190 -0.159 -0.150 0.976 80 65 84
11.3781 279.0031 -41.3975 -0.044 -0.095 0.994 76 63 84
15.6066 263.8640 -39.6325 -0.067 -0.082 0.994 97 108 78
15.6490 262.5080 -39.4598 0.017 -0.080 0.997 93 102 78
25.3302 266.5923 -40.4035 -0.443 -0.684 0.580 75 93 61
25.3886 265.3459 -40.2457 -0.455 -0.686 0.567 75 96 60
41.4628 233.0527 -36.7854 -0.189 -0.978 -0.092 71 87 59
40.5958 230.6769 -36.4423 -0.163 -0.966 -0.198 58 72 47
40.3664 229.3705 -36.2643 -0.197 -0.944 -0.263 54 63 42
40.5563 228.7629 -36.1944 -0.456 -0.888 0.055 57 61 46
48.5460 240.9284 -38.1046 -0.438 -0.876 0.204 57 61 47
37.3701 219.9905 -34.9281 -0.506 -0.722 0.471 66 68 57
35.5842 212.0500 -33.8294 -0.447 -0.660 0.604 65 67 54
-156.7199 237.5265 -29.4331 0.339 -0.838 0.427 29 31 35
-147.1662 232.6304 -29.2027 0.436 -0.362 0.824 47 45 39
-146.6305 233.2110 -29.3018 0.442 -0.363 0.820 45 42 36
-144.6525 232.3267 -29.2711 0.042 -0.800 0.598 58 49 46
-144.1394 233.1090 -29.3958 0.366 -0.751 -0.550 62 48 47
-143.3753 231.9929 -29.2823 -0.141 -0.561 0.815 65 47 47
-142.5669 230.4863 -29.1196 -0.199 -0.518 0.832 73 51 53
-130.9906 210.1488 -26.9520 -0.401 -0.806 0.435 77 54 60
-127.3363 192.2226 -24.7594 -0.043 -0.442 0.896 69 49 51
-94.4207 182.1831 -24.8606 -0.208 -0.978 0.021 64 46 58
-89.9828 183.1896 -25.1837 -0.194 -0.922 0.336 73 74 57
-70.3570 241.7681 -33.7080 0.020 -0.849 0.529 74 66 60
-69.5540 239.0232 -33.3828 -0.747 -0.615 0.253 73 59 58
-69.7037 234.2907 -32.7559 -0.459 -0.629 0.628 69 53 53
-66.6375 238.1742 -33.3971 0.143 -0.762 -0.632 73 56 62
-65.4680 234.4631 -32.9609 -0.621 -0.462 0.633 90 70 81
-52.9137 234.3669 -33.4889 -0.289 -0.585 0.758 73 53 64
-53.3127 230.0275 -32.9029 -0.257 -0.435 0.863 65 48 58
-52.7912 229.7471 -32.8886 -0.257 -0.435 0.863 67 49 63
-52.3431 229.1595 -32.8308 -0.249 -0.433 0.866 71 53 71
-47.7010 229.0543 -33.0169 -0.215 -0.955 -0.203 76 59 77
-46.9746 229.6173 -33.1220 -0.288 -0.942 -0.172 70 53 70
-46.6895 228.4580 -32.9823 -0.179 -0.981 -0.078 75 58 74
-46.2911 227.7560 -32.9074 -0.273 -0.944 0.185 76 60 74
-45.7530 227.5997 -32.9101 -0.273 -0.944 0.185 77 61 73
-45.2156 227.4437 -32.9128 -0.273 -0.944 0.185 79 63 74
-44.1435 227.1323 -32.9182 -0.273 -0.944 0.185 72 56 69
-39.6930 228.5829 -33.3000 0.325 -0.171 0.930 83 72 81
-34.0955 229.8511 -33.7073 0.660 -0.526 -0.536 76 60 70
-33.3886 230.2588 -33.7911 0.561 -0.552 -0.616 80 65 72
-33.0742 227.5530 -33.4500 0.172 -0.100 0.980 78 63 66
-29.8191 230.5118 -33.9780 0.435 -0.071 0.898 78 66 70
-28.0830 234.0615 -34.5181 0.486 -0.114 0.866 77 66 72
-19.1070 226.5746 -33.9231 -0.590 -0.743 0.316 118 112 126
7.3614 282.7616 -42.4286 0.166 -0.055 0.985 122 107 129
23.8510 260.7253 -40.2499 -0.221 -0.630 0.745 81 101 66
23.9628 259.6295 -40.1110 -0.238 -0.583 0.777 82 101 64
24.5778 251.9137 -39.1260 -0.304 -0.535 0.788 75 94 67
41.5269 233.0971 -37.3892 -0.189 -0.978 -0.092 63 79 54
40.5510 230.5412 -37.0121 -0.185 -0.978 -0.092 54 68 45
39.7664 228.3199 -36.6871 -0.464 -0.878 0.120 51 61 44
40.1889 228.0981 -36.6762 -0.464 -0.878 0.120 53 57 43
48.6144 240.9760 -38.7272 -0.432 -0.879 0.203 53 56 46
48.5736 239.9545 -38.5915 -0.440 -0.860 0.258 53 56 47
35.3547 211.6282 -34.3089 -0.449 -0.665 0.597 52 56 42
33.8970 207.7042 -33.7318 0.456 -0.235 0.858 52 56 40
42.9085 216.8808 -35.3228 0.438 -0.605 0.664 66 78 56
-147.8953 217.3410 -27.7505 -0.393 -0.848 0.356 31 33 28
-144.7317 232.6251 -29.9272 0.014 -0.825 0.566 56 48 42
-130.4106 209.5591 -27.4618 -0.354 -0.814 0.460 72 49 57
-129.8314 209.3120 -27.4537 -0.354 -0.814 0.460 71 48 56
-114.1242 199.8602 -26.8657 -0.826 -0.544 0.148 71 48 54
-97.3168 182.3990 -25.2555 -0.060 -0.755 0.653 82 67 80
-95.4227 181.8659 -25.2656 -0.081 -0.913 0.399 107 90 108
-94.4130 182.4392 -25.3855 -0.212 -0.976 0.045 66 48 63
-89.6861 186.2176 -26.0929 -0.258 -0.891 0.374 75 80 59
-70.3801 241.6739 -34.3269 0.027 -0.853 0.521 73 63 61
-68.8173 232.4282 -33.1593 -0.487 -0.627 0.608 73 55 55
-68.3949 231.3915 -33.0390 -0.649 -0.570 0.504 71 52 54
-65.8238 232.4925 -33.2964 -0.619 -0.520 0.589 67 47 58
-62.6708 236.6070 -33.9812 0.231 -0.370 0.900 68 53 60
-62.1807 226.7882 -32.6911 0.594 -0.412 0.691 67 53 53
-54.1346 228.9947 -33.3311 -0.206 -0.565 0.799 74 56 68
-53.8280 227.7839 -33.1825 -0.221 -0.430 0.875 75 57 69
-53.3040 227.5361 -33.1719 -0.221 -0.430 0.875 75 57 72
-52.6708 227.7601 -33.2290 -0.227 -0.437 0.870 75 56 75
-52.1487 227.5106 -33.2181 -0.227 -0.437 0.870 77 59 82
-51.8180 226.4657 -33.0928 -0.234 -0.440 0.867 80 62 88
-51.3012 226.2130 -33.0812 -0.234 -0.440 0.867 79 61 87
-50.4121 216.1446 -31.7749 0.247 -0.870 -0.427 70 53 68
-38.9798 229.0281 -33.9860 0.006 -0.107 0.994 75 63 76
-37.5267 228.0526 -33.9181 0.003 -0.107 0.994 74 62 75
-35.2693 227.8801 -33.9920 0.578 -0.590 -0.563 76 60 72
-25.6530 234.2489 -35.2552 0.522 -0.151 0.839 81 81 86
-26.9686 226.8972 -34.2170 0.139 -0.118 0.983 71 72 77
-21.2322 235.0979 -35.5583 0.520 -0.116 0.846 76 71 75
6.8214 266.1386 -40.9074 0.105 -0.095 0.990 79 64 84
7.4927 266.1715 -40.9406 0.102 -0.094 0.990 76 61 80
9.2208 265.5905 -40.9372 0.086 -0.090 0.992 52 41 56
14.3226 259.4359 -40.3344 0.030 -0.080 0.996 87 89 73
25.7746 255.5179 -40.3027 -0.168 -0.630 0.759 80 96 70
23.3671 248.1990 -39.2221 -0.244 -0.559 0.792 78 96 72
41.9903 233.8048 -38.0993 -0.317 -0.946 -0.069 55 73 52
40.8264 230.9355 -37.6662 -0.152 -0.985 -0.081 50 64 45
39.3031 227.4952 -37.1414 -0.288 -0.955 -0.065 49 59 46
39.7830 227.3704 -37.1453 -0.252 -0.966 -0.054 51 56 48
39.0771 221.7562 -36.3654 -0.539 -0.717 0.441 47 50 43
41.3504 223.6600 -36.7172 -0.528 -0.725 0.442 49 52 43
39.2647 218.6091 -35.9532 -0.553 -0.695 0.460 47 51 37
37.1199 214.3657 -35.2945 -0.431 -0.703 0.565 47 51 37
42.3193 215.9129 -35.7242 0.479 -0.578 0.661 66 78 54
-321.9298 389.8862 -44.3508 -0.824 -0.497 -0.271 88 86 91
-300.0187 364.5423 -41.8421 -0.461 -0.792 -0.399 25 25 26
-311.9955 395.2674 -45.5076 0.628 -0.602 0.494 24 24 24
-158.6935 234.0942 -30.1505 -0.394 -0.673 0.626 25 25 27
-153.5759 226.2769 -29.3065 -0.192 -0.797 0.572 46 32 39
-152.7941 225.2529 -29.2007 -0.115 -0.802 0.586 45 33 37
-152.2386 225.5305 -29.2622 -0.176 -0.829 0.531 41 35 37
-148.3458 231.7082 -30.2688 0.397 -0.693 -0.601 41 45 36
-144.6545 231.7683 -30.4349 0.118 -0.671 0.732 63 54 47
-125.5597 195.5468 -26.3265 -0.065 -0.489 0.870 68 54 53
-89.6917 186.2723 -26.6000 -0.271 -0.853 0.447 71 79 56
-76.7026 236.1733 -33.9411 -0.154 -0.937 0.314 70 73 49
-70.2456 242.6028 -35.0916 0.005 -0.976 0.219 69 60 60
-69.5711 242.9397 -35.1663 -0.665 -0.574 0.478 71 62 60
-54.7622 226.2344 -33.5283 0.646 -0.588 -0.486 72 54 66
-56.4472 216.3724 -32.1153 0.685 -0.726 0.065 73 56 66
-55.0467 217.6148 -32.3441 0.811 -0.584 0.037 90 73 91
-52.1854 224.9252 -33.4606 -0.365 -0.399 0.842 81 63 86
-51.6594 224.7249 -33.4558 -0.227 -0.440 0.869 70 52 75
-52.1912 220.1862 -32.8159 -0.473 -0.846 -0.244 72 54 76
-50.4530 220.3853 -32.9174 0.348 -0.381 0.857 77 60 78
-50.0244 215.4963 -32.2709 0.246 -0.872 -0.424 72 56 68
-45.8251 225.1171 -33.7588 0.639 -0.238 0.731 69 52 68
-47.1147 218.1418 -32.7551 -0.009 -0.969 -0.247 69 52 70
-42.7298 228.0502 -34.2901 -0.599 -0.784 -0.165 62 47 66
-43.3446 223.7298 -33.6763 0.719 -0.654 0.237 64 50 67
-38.8599 229.4253 -34.6426 0.733 -0.654 0.185 75 62 79
-29.0699 222.3292 -34.0966 0.070 -0.138 0.988 72 75 80
12.8970 254.7933 -40.3064 -0.053 -0.064 0.997 87 87 76
13.5656 253.4976 -40.1589 -0.049 -0.062 0.997 94 89 82
25.1600 251.7246 -40.4138 -0.058 -0.094 0.994 78 96 70
42.6480 234.8345 -38.8654 -0.331 -0.940 -0.080 55 72 54
41.7752 232.4431 -38.5028 -0.100 -0.994 -0.047 47 61 45
39.7416 224.5366 -37.3407 0.308 -0.738 0.600 48 50 45
40.4392 224.7773 -37.4033 0.308 -0.738 0.600 48 49 44
-152.6498 224.1749 -29.6621 -0.173 -0.809 0.561 61 50 54
-148.0246 217.6694 -28.9589 0.718 -0.628 -0.300 48 50 45
-147.7483 227.4657 -30.3267 0.532 -0.399 0.747 42 44 34
-137.6277 218.3498 -29.4964 0.806 -0.299 0.511 81 52 54
-137.1875 219.6264 -29.6919 0.680 -0.483 0.552 86 57 59
-118.9300 199.2101 -27.6444 -0.610 -0.791 0.041 75 44 52
-118.3737 198.4907 -27.5686 -0.609 -0.793 0.038 77 46 54
-107.4111 231.0568 -32.5440 -0.689 -0.724 -0.005 81 71 68
-77.1296 237.6509 -34.7481 -0.180 -0.966 0.188 68 74 45
-76.7525 235.8768 -34.5186 -0.100 -0.987 0.124 66 70 47
-70.2755 242.4645 -35.7067 0.005 -0.976 0.219 65 60 60
-69.3227 229.4630 -33.9476 -0.806 -0.446 0.389 65 52 51
-67.9141 224.0338 -33.2562 -0.784 -0.535 0.314 63 51 55
-66.0473 221.6565 -33.0067 0.526 -0.529 0.666 53 42 50
-65.3764 222.1934 -33.1096 0.526 -0.529 0.666 53 42 48
-61.5285 227.1801 -33.9640 0.577 -0.526 0.625 65 53 55
-60.9041 227.3878 -34.0194 0.581 -0.524 0.623 65 52 59
-60.1855 228.0543 -34.1423 0.425 -0.532 0.733 67 53 61
-54.8156 226.0019 -34.0872 0.662 -0.583 -0.471 73 57 68
-52.8629 224.4884 -33.9610 -0.365 -0.399 0.842 82 65 83
-52.3791 224.1121 -33.9295 -0.365 -0.399 0.842 80 63 81
-47.2343 221.9199 -33.8455 0.655 -0.285 0.700 66 50 63
-42.7193 223.9153 -34.3142 0.729 -0.662 0.174 66 50 65
-41.5525 226.0398 -34.6580 -0.623 -0.756 -0.202 75 60 74
-40.2031 226.7421 -34.8128 0.757 -0.632 0.166 76 61 77
-37.6834 221.7529 -34.2296 0.097 -0.114 0.989 72 51 69
-33.2542 223.2955 -34.6321 0.159 -0.105 0.982 70 56 59
-31.2667 219.0729 -34.1323 -0.204 -0.185 0.961 80 80 82
-23.0423 226.6171 -35.5273 0.504 -0.115 0.856 65 60 56
-16.2966 235.6097 -37.0598 -0.032 -0.116 0.993 78 73 77
-15.6562 229.5437 -36.2474 -0.186 -0.978 -0.095 109 103 104
3.9974 268.8771 -42.5302 0.251 -0.111 0.962 122 105 122
-0.0092 252.4730 -40.0886 0.300 -0.056 0.952 104 88 113
8.0734 265.8849 -42.2898 -0.159 -0.149 0.976 72 61 77
9.6715 261.9372 -41.8115 -0.077 -0.142 0.987 44 39 51
9.9990 261.1926 -41.7224 -0.064 -0.136 0.989 44 42 50
10.1309 260.0033 -41.5634 -0.065 -0.141 0.988 51 50 56
43.9815 236.9853 -39.8208 0.452 -0.368 0.812 57 74 56
-322.1341 391.8116 -46.6752 -0.832 -0.495 -0.252 38 38 39
-149.7844 217.4840 -29.4437 -0.330 -0.732 0.596 47 49 46
-149.1994 217.4754 -29.4674 -0.322 -0.703 0.634 60 62 59
-148.5842 217.2769 -29.4656 0.145 -0.711 0.688 77 75 73
-148.0144 217.3587 -29.5013 0.145 -0.711 0.688 65 62 59
-147.4444 217.4406 -29.5371 0.145 -0.711 0.688 52 49 45
-146.8741 217.5225 -29.5729 0.145 -0.711 0.688 55 49 45
-146.9047 225.6005 -30.7095 0.526 -0.372 0.765 55 50 41
-155.2266 356.5883 -48.8079 -0.005 -1.000 -0.015 78 47 52
-136.4814 218.1997 -30.1100 0.253 -0.891 0.377 78 49 53
-118.9698 199.6046 -28.2349 -0.286 -0.794 0.537 68 38 46
-111.5773 209.0250 -29.8762 -0.395 -0.918 -0.031 77 52 56
-111.0243 208.7864 -29.8661 -0.395 -0.918 -0.031 77 53 59
-76.1743 235.7349 -35.1436 -0.045 -0.995 0.085 72 74 57
-71.1809 240.6517 -36.0485 -0.608 -0.590 0.531 58 56 57
-68.4753 227.5481 -34.3176 0.371 -0.579 0.726 58 50 49
-53.1354 223.3353 -34.3762 -0.378 -0.395 0.837 72 56 70
-52.8217 222.2570 -34.2376 -0.432 -0.395 0.811 75 58 72
-52.3560 221.8308 -34.1974 -0.432 -0.395 0.811 76 60 73
-53.2372 211.4281 -32.6945 -0.574 -0.817 0.054 64 48 59
-52.9269 210.5018 -32.5772 -0.571 -0.821 0.013 58 42 53
-50.8828 216.4459 -33.5014 0.680 -0.289 0.674 54 38 48
-50.0016 217.7273 -33.7194 0.674 -0.281 0.683 54 38 48
-49.6411 216.9653 -33.6274 0.688 -0.274 0.672 58 42 52
-48.2436 218.0625 -33.8414 0.024 -0.968 -0.251 64 48 59
-34.8782 221.7009 -34.9220 0.205 -0.114 0.972 73 56 63
-34.4241 221.3585 -34.8931 0.180 -0.102 0.978 75 60 66
-30.1282 215.8821 -34.3042 -0.351 -0.897 -0.269 70 69 73
-29.2967 216.7087 -34.4560 -0.407 -0.879 -0.248 74 71 78
-28.8212 214.9251 -34.2250 -0.192 -0.915 -0.355 74 68 78
-15.8972 231.9255 -37.1692 -0.018 -0.906 -0.424 80 71 74
-15.8206 230.5916 -36.9845 -0.101 -0.849 -0.518 95 86 89
-15.4925 229.9339 -36.9058 -0.091 -0.836 -0.541 111 105 105
-1.6784 249.8488 -40.2984 0.467 -0.118 0.877 119 101 124
7.1257 269.9758 -43.5079 0.209 -0.127 0.970 117 101 126
8.8187 259.8896 -42.1590 -0.173 -0.151 0.973 42 36 46
9.3059 259.5272 -42.1287 -0.173 -0.151 0.973 42 39 46
9.4793 258.4424 -41.9832 -0.178 -0.150 0.972 44 41 48
9.8159 250.5980 -40.8925 -0.154 -0.121 0.981 109 99 102
22.8619 248.2376 -41.1145 -0.007 -0.065 0.998 93 115 79
25.6988 245.4439 -40.8416 0.074 -0.070 0.995 79 98 67
44.7690 238.2291 -40.6359 0.563 -0.428 0.708 51 70 49
45.6459 238.7183 -40.7420 0.564 -0.413 0.715 52 68 51
-295.4983 267.7730 -31.0636 -0.757 -0.464 0.460 30 29 34
-156.6138 210.4822 -28.7369 0.046 -0.849 -0.527 30 30 32
-155.7578 211.9242 -28.9799 -0.029 -0.849 -0.528 35 35 37
-149.0725 216.4551 -29.9125 0.142 -0.677 0.722 61 53 51
-148.5311 216.7021 -29.9708 0.140 -0.695 0.706 67 57 57
-148.0014 217.0301 -30.0403 0.151 -0.717 0.680 67 57 57
-147.5000 217.5497 -30.1360 -0.171 -0.864 0.473 59 50 48
-146.8372 217.0304 -30.0896 0.145 -0.711 0.688 57 45 44
-146.7971 224.6103 -31.1777 0.282 -0.599 0.750 69 57 52
-155.2599 356.4026 -49.7074 -0.322 -0.920 0.224 74 43 48
-136.5115 218.1633 -30.6895 0.294 -0.838 0.460 73 44 48
-112.1937 215.0344 -31.2713 -0.432 -0.901 0.041 72 46 50
-71.9590 239.6390 -36.5023 -0.648 -0.488 0.585 44 43 44
-70.0239 236.3103 -36.1072 -0.717 -0.473 0.512 40 38 38
-70.8331 227.5073 -34.8113 -0.758 -0.480 0.442 42 38 38
-64.4561 221.0750 -34.1596 0.416 -0.424 0.804 57 51 53
-63.9803 220.5941 -34.1108 0.474 -0.347 0.809 62 53 55
-63.3231 221.0491 -34.2039 0.474 -0.348 0.809 65 56 57
-62.7825 220.9077 -34.2065 -0.369 -0.307 0.878 66 57 59
-55.5817 222.6343 -34.7590 -0.018 -0.394 0.919 62 49 59
-54.7385 223.8230 -34.9651 -0.004 -0.397 0.918 64 51 59
-53.1817 220.7480 -34.5904 0.643 -0.764 -0.053 77 61 72
-52.5382 221.0723 -34.6641 -0.432 -0.395 0.811 69 53 63
-48.7780 216.0152 -34.0987 -0.266 -0.960 -0.083 62 49 58
-39.9282 227.6671 -36.1435 0.844 -0.355 0.403 64 41 52
-34.4916 217.6221 -34.9342 -0.016 -0.191 0.981 69 60 65
-33.8755 217.8184 -34.9885 0.061 -0.142 0.988 63 55 59
-31.4749 218.3887 -35.1719 0.201 -0.903 0.381 64 64 68
-30.8830 218.5029 -35.2134 0.201 -0.903 0.381 74 75 78
-29.8080 216.7885 -35.0132 -0.318 -0.896 -0.309 73 71 72
-29.3226 216.6025 -35.0071 -0.368 -0.892 -0.263 79 77 80
-26.8405 218.9841 -35.4536 -0.083 -0.149 0.985 68 65 72
-21.4389 223.1429 -36.2785 -0.013 -0.122 0.992 58 56 57
-15.3260 231.8577 -37.7865 0.252 -0.753 -0.608 73 66 68
-14.3545 231.3570 -37.7559 0.372 -0.645 -0.667 112 108 108
-14.8189 228.6488 -37.3480 -0.062 -0.852 -0.520 119 112 115
3.2576 260.4131 -42.6663 0.351 -0.083 0.933 121 103 123
7.6939 258.7050 -42.6095 -0.174 -0.150 0.973 73 64 76
11.1652 240.2057 -40.1052 0.025 -0.090 0.996 93 98 90
21.9291 247.5320 -41.6113 0.078 -0.050 0.996 110 132 94
27.6868 249.2505 -42.1015 0.241 -0.073 0.968 85 102 70
45.3495 242.0662 -41.8202 -0.517 -0.842 -0.152 62 82 53
45.2101 238.8976 -41.3602 0.552 -0.528 0.645 51 71 47
45.7916 230.5187 -40.1840 0.520 -0.650 0.554 40 51 39
-158.4521 197.9299 -27.3999 -0.116 -0.946 -0.301 21 23 22
-147.4921 217.2507 -30.6791 -0.171 -0.864 0.473 82 67 63
-146.7591 216.2710 -30.5672 -0.154 -0.831 0.535 74 56 54
-145.0117 216.2223 -30.6339 -0.426 -0.456 0.781 77 54 55
-125.8321 177.3166 -25.7726 -0.641 -0.331 0.692 59 40 45
-111.6558 216.4691 -32.0785 -0.291 -0.907 0.304 64 40 51
-107.4665 232.1442 -34.5403 -0.377 -0.893 -0.248 68 51 53
-106.8889 230.1142 -34.2688 -0.202 -0.947 -0.250 69 57 54
-77.5483 234.6824 -36.1737 -0.139 -0.975 0.171 72 75 50
-76.8787 235.1642 -36.2722 -0.116 -0.985 0.128 70 76 51
-76.2817 235.0921 -36.2869 -0.116 -0.985 0.128 67 77 55
-71.5104 226.9827 -35.3063 -0.745 -0.397 0.536 39 38 44
-65.2783 219.7621 -34.5169 0.463 -0.398 0.792 49 44 48
-64.6037 220.3264 -34.6277 0.463 -0.398 0.792 51 45 49
-64.2261 219.3476 -34.5009 0.474 -0.347 0.809 54 48 52
-63.6404 219.4526 -34.5410 0.474 -0.343 0.811 57 51 55
-62.4067 219.9670 -34.6681 -0.222 -0.255 0.941 56 53 58
-61.9082 219.6350 -34.6407 -0.222 -0.255 0.941 53 50 55
-61.3258 211.7596 -33.5173 -0.565 -0.563 0.604 53 47 54
-58.4366 212.4758 -33.7437 0.115 -0.869 0.480 67 61 67
-52.8230 215.3088 -34.3938 -0.664 -0.678 -0.315 56 40 50
-52.9959 212.3884 -33.9608 -0.545 -0.837 0.048 49 36 45
-52.4453 212.4101 -33.9872 -0.560 -0.827 0.042 46 33 42
-50.3478 214.2049 -34.3374 0.538 -0.352 0.766 58 44 58
-36.2832 217.1742 -35.3641 0.068 -0.135 0.988 80 63 71
-32.9763 217.1603 -35.5017 0.224 -0.930 0.291 53 49 49
-32.5709 216.7184 -35.4544 0.230 -0.918 0.324 53 49 49
-30.9873 218.1619 -35.7317 0.220 -0.913 0.343 56 52 57
-29.2607 216.7515 -35.5991 -0.368 -0.892 -0.263 73 68 71
-22.4937 220.2355 -36.3927 0.134 -0.077 0.988 57 52 56
-22.1740 219.5965 -36.3130 0.125 -0.080 0.989 58 52 56
-21.9333 218.7534 -36.2003 0.135 -0.077 0.988 60 54 58
-14.7280 228.8447 -37.9756 -0.507 -0.856 -0.100 115 105 110
-12.6827 231.1391 -38.3964 0.388 -0.141 0.911 128 109 119
-7.1938 237.5857 -39.5679 0.386 -0.113 0.915 120 104 117
4.3845 258.4046 -43.0916 0.259 -0.096 0.961 121 105 118
7.2447 262.1784 -43.7625 -0.084 -0.151 0.985 110 97 107
9.0772 251.6328 -42.3026 -0.160 -0.143 0.977 63 51 60
21.6713 234.1284 -40.2829 -0.284 -0.522 0.804 87 105 65
48.4417 244.1939 -42.8806 0.491 -0.781 -0.386 55 73 46
44.4744 235.7040 -41.4755 -0.255 -0.771 -0.584 53 70 48
44.1941 227.0147 -40.1970 0.475 -0.352 0.807 37 51 36
46.6852 222.3266 -39.6188 0.124 -0.594 0.795 66 83 64
-336.4781 318.7490 -38.3552 -0.800 -0.499 0.334 38 34 35
-160.2342 200.8675 -28.3006 -0.055 -0.899 0.434 16 20 19
-153.9574 186.6127 -26.4519 0.299 -0.953 -0.053 30 32 31
-156.5413 206.9039 -29.3507 0.112 -0.904 -0.413 38 40 39
-155.4917 213.0802 -30.3104 -0.068 -0.863 -0.500 46 41 42
-156.3404 226.9533 -32.3309 0.331 -0.709 0.623 68 46 49
-148.4575 215.7594 -31.0035 0.131 -0.720 0.682 68 53 49
-146.7443 215.9254 -31.1003 -0.154 -0.831 0.535 89 66 66
-145.6466 216.3393 -31.2078 -0.505 -0.626 0.594 78 50 54
-144.6246 213.3159 -30.8027 -0.407 -0.431 0.805 85 56 61
-124.6117 173.3905 -25.7272 -0.323 -0.748 0.580 62 43 49
-118.1156 265.2756 -39.6200 -0.002 -0.608 0.794 50 31 35
-112.2017 209.4869 -31.5998 0.447 -0.561 0.696 64 45 50
-106.9115 230.1143 -34.8799 -0.189 -0.947 -0.259 70 57 53
-106.3173 229.6012 -34.8289 -0.183 -0.947 -0.263 72 61 55
-105.6749 231.6832 -35.1645 -0.383 -0.906 -0.180 72 63 56
-104.5575 227.7809 -34.6331 -0.512 -0.849 -0.128 75 71 60
-94.4183 183.3358 -28.4721 -0.084 -0.980 0.183 104 87 106
-94.0504 181.8933 -28.2738 -0.172 -0.967 0.190 107 92 111
-76.8636 235.3591 -36.9220 -0.161 -0.926 0.341 69 72 52
-74.9772 235.8209 -37.0698 0.577 -0.811 -0.100 64 67 58
-66.6885 218.2874 -34.8198 0.413 -0.430 0.803 49 47 50
-66.1122 218.3564 -34.8543 0.202 -0.448 0.871 47 45 48
-62.6553 218.7470 -35.0577 -0.222 -0.255 0.941 53 48 54
-62.1588 218.4184 -35.0299 -0.222 -0.255 0.941 53 51 56
-61.8376 214.5591 -34.4714 -0.516 -0.536 0.668 59 54 61
-60.1242 212.2710 -34.2044 0.132 -0.890 0.437 56 49 57
-59.5625 212.3378 -34.2379 0.132 -0.890 0.437 44 37 44
-59.0454 212.2027 -34.2397 0.107 -0.893 0.436 52 45 52
-57.9673 214.5674 -34.6355 0.263 -0.805 0.531 66 61 67
-53.0397 212.2063 -34.4930 -0.555 -0.830 0.056 49 37 46
-52.7482 211.1951 -34.3554 -0.676 -0.668 0.312 50 39 47
-49.5848 215.0182 -35.0552 0.311 -0.350 0.883 59 45 60
-34.0294 213.9208 -35.5472 0.124 -0.103 0.987 59 55 55
-30.0937 217.5053 -36.2442 -0.357 -0.896 -0.265 52 48 47
-29.5691 217.4261 -36.2545 -0.370 -0.899 -0.236 61 55 55
-25.5328 214.8898 -36.0485 0.158 -0.103 0.982 46 41 45
-17.0333 227.2746 -38.2419 0.476 -0.684 -0.553 71 69 72
-15.4941 229.8116 -38.6827 0.405 -0.661 -0.631 79 77 80
-14.0609 232.0421 -39.0737 0.390 -0.661 -0.641 92 87 93
-14.9298 221.0709 -37.4109 -0.672 -0.730 0.121 125 109 120
-13.9551 222.1176 -37.6071 0.651 -0.757 0.061 127 111 122
2.7847 252.9684 -42.8844 0.252 -0.075 0.965 116 103 113
6.3156 249.5322 -42.5237 -0.001 -0.121 0.993 76 68 81
13.3869 238.5330 -41.1910 0.104 -0.053 0.993 89 101 80
15.6795 237.1911 -41.0886 0.101 -0.055 0.993 72 91 61
16.3652 237.3911 -41.1471 0.101 -0.055 0.993 77 96 64
19.5977 240.3280 -41.7185 -0.028 -0.076 0.997 84 105 66
19.5108 238.9758 -41.5144 -0.024 -0.083 0.996 86 107 68
22.6636 239.3705 -41.7056 0.042 -0.050 0.998 102 118 81
21.0283 232.8388 -40.6686 -0.318 -0.517 0.795 86 104 64
67.6036 281.5410 -49.8477 0.067 -0.867 0.493 67 92 49
45.6730 237.6135 -42.4136 -0.239 -0.798 -0.553 55 74 46
38.1651 219.9260 -39.4759 0.432 -0.273 0.860 49 67 45
45.3407 227.0119 -40.8282 0.661 -0.464 0.589 42 59 40
45.5204 226.4213 -40.7483 0.197 -0.743 0.640 43 60 42
36.6288 210.7780 -38.0553 -0.118 -0.875 0.469 43 60 41
37.1156 209.9261 -37.9496 0.043 -0.881 0.471 49 63 45
37.5435 209.7906 -37.9475 0.054 -0.883 0.466 54 69 50
-362.2832 380.5592 -47.4482 0.038 -0.542 0.839 53 52 58
-347.3672 383.3964 -48.5014 -0.736 -0.651 -0.187 75 73 95
-168.8139 215.4225 -30.6819 0.175 -0.982 0.076 19 16 25
-181.3509 277.9884 -39.5832 -0.469 -0.734 0.492 22 21 26
-155.9327 215.1479 -31.1809 -0.048 -0.860 -0.508 50 43 44
-146.7973 216.0220 -31.6958 -0.177 -0.734 0.656 94 64 69
-144.4929 212.1619 -31.2109 -0.553 -0.566 0.611 91 58 65
-122.5768 170.5810 -25.8649 0.285 -0.315 0.905 66 46 55
-122.1820 171.7154 -26.0524 0.061 -0.319 0.946 58 37 46
-114.3092 173.4852 -26.6494 -0.568 -0.823 0.036 56 37 41
-104.6064 226.6531 -35.0676 -0.520 -0.840 -0.155 72 67 61
-97.0536 180.5696 -28.4407 0.126 -0.940 0.317 79 63 73
-96.5566 180.8032 -28.4967 0.201 -0.940 0.277 52 36 47
-95.5804 180.9919 -28.5661 0.201 -0.940 0.277 74 60 75
-94.3798 183.9815 -29.0670 0.239 -0.924 0.299 99 82 101
-93.9656 183.0802 -28.9485 -0.123 -0.964 0.238 87 72 91
-93.0696 182.2096 -28.8549 -0.133 -0.858 0.497 130 117 137
-91.4994 183.4847 -29.1129 0.309 -0.706 0.636 108 105 111
-83.5322 235.7175 -37.3175 -0.606 -0.444 0.660 63 74 53
-82.3710 229.8017 -36.4748 -0.552 -0.517 0.654 60 70 49
-81.2089 234.7018 -37.2619 -0.295 -0.798 0.526 59 71 50
-80.6264 234.4916 -37.2546 -0.295 -0.798 0.526 63 74 53
-80.0450 234.2818 -37.2474 -0.295 -0.798 0.526 63 73 51
-79.4181 234.4521 -37.2994 -0.329 -0.792 0.515 64 70 48
-76.3617 234.6517 -37.4577 -0.092 -0.977 0.191 64 65 54
-65.0652 217.9614 -35.4167 0.146 -0.417 0.897 46 44 47
-63.5982 216.8558 -35.3117 -0.649 -0.481 0.589 48 43 47
-61.9451 214.0544 -34.9589 -0.516 -0.536 0.668 64 59 66
-59.6562 211.9174 -34.7329 0.253 -0.806 0.535 46 39 46
-59.0111 212.3617 -34.8269 0.131 -0.875 0.465 46 39 46
-58.0497 214.2043 -35.1449 0.263 -0.805 0.531 48 43 49
-57.3639 214.7958 -35.2628 -0.298 -0.954 -0.040 49 42 49
-53.2082 215.9869 -35.6166 -0.650 -0.702 -0.291 51 38 47
-53.1334 211.8234 -34.9924 -0.563 -0.824 0.056 56 45 53
-52.9908 210.2208 -34.7569 -0.561 -0.674 0.482 63 53 61
-35.3122 211.6255 -35.7102 0.097 -0.113 0.989 62 57 61
-34.2952 211.4409 -35.7250 0.131 -0.110 0.985 61 57 56
-33.0069 212.0733 -35.8744 0.134 -0.110 0.985 59 53 58
-30.3612 216.6873 -36.6806 -0.408 -0.895 -0.178 56 48 51
-28.5708 215.5162 -36.5792 -0.230 -0.958 -0.173 49 39 48
-28.1823 213.5233 -36.2952 -0.035 -0.210 0.977 52 43 48
-26.4755 212.2575 -36.1761 0.017 -0.107 0.994 55 49 53
-26.1739 211.6096 -36.0911 0.015 -0.104 0.994 56 51 57
-16.9661 225.9126 -38.6325 0.425 -0.694 -0.581 74 71 78
-14.4364 231.0236 -39.5088 0.375 -0.683 -0.626 86 81 88
-14.8631 225.4757 -38.6549 0.109 -0.037 0.993 104 90 100
-13.7389 224.0257 -38.4836 0.710 -0.498 0.499 129 113 124
-13.6495 222.8407 -38.3088 0.676 -0.734 0.060 138 120 132
-12.4872 224.3375 -38.5831 0.672 -0.739 0.049 135 117 129
-2.7849 242.4405 -41.7178 0.340 -0.087 0.936 119 106 116
0.4944 247.4150 -42.6049 0.252 -0.077 0.965 114 101 111
0.8730 246.8478 -42.5354 0.246 -0.081 0.966 115 102 112
0.3830 242.7842 -41.9025 0.310 -0.068 0.948 111 99 111
6.6683 254.6548 -43.9548 0.086 -0.105 0.991 102 91 107
20.6110 236.4603 -41.7982 0.040 -0.050 0.998 102 118 79
21.6043 234.9996 -41.6198 0.052 -0.081 0.995 95 111 72
51.4447 252.0938 -45.4473 -0.398 -0.821 -0.410 69 92 49
47.8591 245.0798 -44.2400 -0.590 -0.733 -0.340 67 90 49
36.4732 221.5168 -40.2120 0.464 -0.578 0.671 63 85 47
36.7273 209.2644 -38.3765 0.027 -0.899 0.437 58 76 54
36.9779 208.8564 -38.3255 -0.009 -0.886 0.463 63 78 57
36.4481 207.2477 -38.0609 -0.133 -0.926 0.353 66 83 64
45.8709 220.9506 -40.5209 0.124 -0.594 0.795 69 86 67
-346.9384 382.4249 -49.3938 -0.495 -0.865 0.081 133 134 154
-185.8044 248.6769 -35.6495 -0.023 -0.922 0.386 15 15 21
-175.9719 236.3882 -34.1787 -0.234 -0.699 0.676 21 18 25
-157.5499 217.2310 -32.0154 -0.201 -0.874 -0.442 48 47 42
-150.2401 212.1475 -31.5425 -0.469 -0.854 0.225 61 30 36
-147.5569 216.9226 -32.3859 -0.455 -0.814 0.361 88 54 62
-146.8287 215.9766 -32.2715 -0.131 -0.747 0.652 85 50 58
-146.0667 214.7760 -32.1195 -0.509 -0.646 0.568 89 53 61
-141.9809 206.1328 -30.9668 -0.245 -0.729 0.639 86 54 59
-122.6266 170.9980 -26.3957 0.295 -0.313 0.903 71 51 60
-112.7361 202.5542 -31.6415 0.418 -0.607 0.676 52 35 41
-112.1998 202.8485 -31.7090 0.418 -0.607 0.676 58 41 47
-104.6708 224.8794 -35.3975 -0.437 -0.865 -0.247 71 66 62
-103.0810 219.1525 -34.5870 -0.011 -0.996 -0.092 67 66 59
-102.0602 215.5497 -34.0779 0.136 -0.918 -0.374 77 75 60
-101.6499 211.5068 -33.4760 -0.061 -0.878 -0.475 78 78 62
-101.1778 209.4410 -33.1794 -0.055 -0.805 -0.591 79 80 62
-97.5626 180.3514 -28.8759 0.061 -0.958 -0.281 93 76 84
-97.0737 180.4763 -28.9155 0.020 -0.964 -0.265 75 59 69
-94.9240 183.4276 -29.4573 0.222 -0.926 0.306 67 53 70
-94.4102 183.7619 -29.5300 0.239 -0.920 0.310 75 58 77
-93.9477 183.4532 -29.5021 -0.133 -0.963 0.234 81 64 83
-93.0978 182.0251 -29.3189 -0.173 -0.833 0.525 130 117 137
-90.0074 183.9288 -29.7396 0.041 -0.844 0.534 61 68 58
-82.4824 234.2915 -37.7665 -0.611 -0.440 0.658 58 66 50
-81.9636 233.5123 -37.6689 -0.115 -0.886 0.450 59 67 51
-80.1398 233.5923 -37.7574 -0.289 -0.806 0.516 65 69 54
-79.6728 232.4709 -37.6052 -0.312 -0.845 0.433 63 66 51
-78.4119 232.9221 -37.7270 0.376 -0.882 -0.283 65 64 55
-75.8564 233.9916 -37.9976 0.169 -0.983 -0.077 57 50 47
-74.3200 236.3038 -38.4160 0.548 -0.827 -0.125 60 50 51
-73.6725 224.4741 -36.6315 0.742 -0.614 0.267 47 42 50
-72.5225 224.4016 -36.6685 -0.770 -0.635 -0.068 45 43 54
-69.6788 214.1533 -35.2180 0.086 -0.618 0.781 45 46 48
-64.8072 210.7901 -34.9067 -0.739 -0.518 0.431 46 41 45
-59.7366 211.5576 -35.2362 0.253 -0.806 0.535 46 39 46
-58.1319 213.8421 -35.6531 0.263 -0.805 0.531 39 34 40
-56.9522 214.1833 -35.7547 -0.287 -0.957 -0.039 43 33 41
-36.8241 210.2495 -35.9939 0.003 -0.125 0.992 70 65 72
-11.5460 225.2284 -39.3446 0.696 -0.718 0.008 136 119 129
-0.2492 245.5806 -42.9335 0.234 -0.032 0.972 121 110 118
6.4478 246.9111 -43.4173 0.139 -0.046 0.989 90 79 95
12.3696 231.5223 -41.3083 0.096 -0.080 0.992 88 102 87
12.0622 229.7295 -41.0209 0.045 -0.084 0.995 88 104 86
12.5205 229.5028 -41.0053 0.057 -0.083 0.995 85 103 81
13.1099 229.5423 -41.0360 0.057 -0.083 0.995 83 103 74
14.7354 230.5129 -41.2526 0.298 -0.080 0.951 75 98 57
14.5273 228.9642 -41.0068 0.287 -0.082 0.954 77 100 57
9.5917 197.5416 -35.9885 -0.539 -0.620 -0.570 80 96 61
10.1606 197.6778 -36.0332 -0.469 -0.717 -0.516 80 95 61
35.7794 220.3199 -40.5716 -0.026 -0.466 0.884 68 91 48
34.8892 217.9823 -40.1764 -0.012 -0.434 0.901 68 93 50
33.1225 211.6912 -39.1392 -0.310 -0.794 0.523 70 95 58
33.2005 210.9806 -39.0336 -0.326 -0.817 0.476 66 90 55
36.3871 208.6776 -38.8142 0.022 -0.892 0.451 63 81 56
-182.7153 246.9536 -36.1802 -0.355 -0.783 0.511 21 20 24
-178.1969 242.3319 -35.6494 -0.306 -0.809 0.502 26 26 27
-150.2561 212.0106 -32.0960 -0.469 -0.854 0.225 71 41 46
-147.5575 216.6792 -32.9348 -0.455 -0.814 0.361 85 47 59
-146.7112 214.9649 -32.7033 -0.184 -0.725 0.664 81 42 53
-145.0911 211.8500 -32.2862 -0.545 -0.705 0.454 85 48 56
-143.6091 205.6277 -31.3798 -0.690 -0.560 0.458 93 57 65
-126.2442 169.4286 -26.4711 -0.509 -0.384 0.770 60 42 48
-125.2425 168.4316 -26.3577 -0.437 -0.506 0.744 58 39 45
-124.2686 167.6747 -26.2805 -0.510 -0.376 0.773 76 57 63
-122.5983 170.1767 -26.7394 0.301 -0.318 0.899 63 43 52
-109.3352 155.0685 -24.9414 -0.636 -0.655 0.408 66 47 49
-108.4883 155.2123 -24.9990 -0.649 -0.691 0.319 74 59 59
-103.6815 219.0095 -35.1258 -0.003 -0.994 -0.107 61 59 55
-103.1468 217.6966 -34.9438 0.025 -0.982 -0.187 60 59 54
-102.5685 217.8643 -34.9939 0.455 -0.855 0.250 71 69 56
-100.6871 208.4491 -33.6074 -0.019 -0.831 -0.555 79 84 61
-98.0390 180.6437 -29.3914 0.090 -0.959 -0.270 86 71 76
-97.5667 180.5019 -29.3890 0.061 -0.958 -0.281 94 77 85
-97.0429 181.1361 -29.5095 0.023 -0.961 -0.274 68 52 62
-94.9321 183.4939 -29.9644 0.206 -0.930 0.304 92 78 95
-94.4080 183.9524 -30.0575 0.217 -0.929 0.300 95 78 97
-93.9487 183.5963 -30.0213 -0.165 -0.973 0.160 86 69 88
-90.5958 183.0184 -30.0711 0.094 -0.862 0.498 65 67 65
-81.3524 233.6734 -38.3378 -0.041 -0.908 0.417 59 61 54
-79.8866 240.9741 -39.5349 -0.059 -0.899 0.435 60 60 54
-73.0613 236.6373 -39.1445 0.434 -0.361 0.825 48 42 46
-73.4189 222.3971 -36.9139 -0.711 -0.702 0.045 44 41 52
-72.8336 222.4571 -36.9476 -0.717 -0.695 0.050 42 40 51
-64.2702 228.2846 -38.2112 0.352 -0.424 0.834 39 40 42
-65.3740 216.3928 -36.3149 0.342 -0.450 0.825 31 31 33
-64.8061 216.4377 -36.3456 0.346 -0.441 0.828 34 32 35
-62.8031 209.9566 -35.4206 0.004 -0.511 0.859 49 44 51
-59.7602 209.0028 -35.3990 -0.240 -0.803 0.545 38 31 38
-36.6538 207.4526 -36.1207 -0.039 -0.154 0.987 55 50 55
-33.8193 208.0074 -36.3251 0.132 -0.112 0.985 61 49 56
-28.3917 209.8491 -36.8379 -0.024 -0.205 0.978 65 53 63
-3.0532 238.7963 -42.3978 0.236 -0.032 0.971 132 121 127
-1.5105 235.4331 -41.9387 0.243 -0.038 0.969 120 110 120
4.4073 244.9903 -43.6724 0.129 -0.057 0.990 115 104 118
5.4796 243.2784 -43.4507 0.139 -0.046 0.989 97 84 101
6.2002 243.5384 -43.5212 0.081 -0.051 0.995 89 76 93
8.6959 228.6118 -41.3027 0.202 -0.052 0.978 145 148 143
13.1023 222.7808 -40.5791 0.239 -0.067 0.969 89 107 67
12.5399 205.5897 -37.8808 0.101 -0.107 0.989 76 100 65
14.1877 206.7210 -38.1255 0.070 -0.034 0.997 81 97 67
44.7509 240.7433 -44.6927 0.593 -0.636 -0.494 75 98 54
31.8504 212.1088 -39.6998 0.374 -0.585 0.719 71 97 50
40.0866 216.8401 -40.7792 0.335 -0.818 0.467 62 86 51
36.8369 209.3175 -39.4733 0.017 -0.905 0.425 67 88 58
36.7345 208.3628 -39.3205 0.017 -0.882 0.471 69 89 61
-336.5119 348.0417 -46.4363 -0.295 -0.572 0.765 81 75 102
-347.6741 381.4288 -51.2497 -0.244 -0.229 0.942 141 140 153
-340.4302 372.6089 -50.1565 -0.420 -0.870 0.257 134 137 144
-180.5049 233.9013 -34.8751 -0.189 -0.816 0.546 25 25 29
-182.5923 246.2895 -36.7464 -0.545 -0.817 0.189 27 27 28
-181.7872 245.7638 -36.6968 -0.545 -0.817 0.189 28 28 28
-180.3802 245.4527 -36.7061 -0.315 -0.853 0.416 31 32 28
-178.3899 242.8686 -36.3803 -0.313 -0.842 0.439 33 36 30
-177.3009 241.1707 -36.1572 -0.288 -0.724 0.628 34 37 30
-179.6293 258.4014 -38.7839 -0.677 -0.658 0.330 40 41 34
-159.4671 204.0975 -31.0382 -0.050 -0.982 -0.183 43 49 37
-158.8306 203.7227 -31.0054 -0.034 -0.981 -0.191 42 50 37
-160.2478 221.3586 -33.7340 -0.058 -0.979 -0.193 47 50 39
-150.2720 211.8737 -32.6492 -0.469 -0.854 0.225 69 43 48
-149.6218 211.4096 -32.6028 -0.474 -0.854 0.214 69 42 49
-148.2067 216.8532 -33.5220 -0.484 -0.798 0.359 82 44 59
-144.9742 203.4466 -31.5373 -0.339 -0.868 0.363 79 39 50
-144.4018 203.2984 -31.5376 -0.302 -0.897 0.322 73 36 46
-143.7331 202.4982 -31.4389 -0.041 -0.880 0.474 75 40 47
-142.0548 202.2374 -31.4674 0.063 -0.780 0.622 73 42 49
-141.5244 202.3502 -31.5073 -0.065 -0.872 0.486 71 41 49
-125.6742 167.7792 -26.7014 0.384 -0.885 -0.262 74 57 63
-124.2376 166.9223 -26.6257 -0.510 -0.376 0.773 71 52 58
-109.3546 154.6578 -25.3053 -0.644 -0.649 0.404 62 43 45
-108.5179 154.0807 -25.2489 -0.636 -0.617 0.464 66 51 52
-108.1073 153.4163 -25.1609 -0.635 -0.646 0.424 68 59 60
-104.2596 219.7096 -35.7987 0.080 -0.894 -0.441 60 54 54
-102.6412 216.2924 -35.3258 0.404 -0.905 -0.131 62 60 49
-102.0929 215.7113 -35.2567 0.286 -0.919 -0.272 70 68 53
-97.5709 180.6526 -29.9033 0.061 -0.958 -0.281 88 71 79
-97.0940 180.5830 -29.9121 0.042 -0.958 -0.283 53 37 47
-96.5708 181.1819 -30.0285 0.018 -0.964 -0.264 43 27 38
-94.9859 182.9658 -30.3763 0.163 -0.935 0.316 102 85 103
-94.4872 183.1195 -30.4213 0.181 -0.930 0.319 97 80 99
-93.9894 183.2550 -30.4634 -0.118 -0.988 0.094 91 74 93
-90.6570 182.5133 -30.4846 0.040 -0.858 0.512 63 64 64
-84.1970 235.5904 -39.1419 -0.615 -0.476 0.629 55 57 52
-81.0129 226.5265 -37.8416 -0.417 -0.396 0.818 58 52 52
-79.3952 220.8685 -37.0145 -0.675 -0.644 0.360 56 48 51
-74.5159 230.8442 -38.7938 0.359 -0.528 0.770 53 44 49
-74.2205 228.7860 -38.4808 0.327 -0.542 0.774 49 43 47
-73.9554 222.7126 -37.5319 0.673 -0.699 0.242 42 38 45
-76.2361 200.6948 -33.9571 -0.141 -0.925 -0.354 31 29 40
-65.4646 228.2113 -38.7536 0.316 -0.419 0.851 52 56 57
-64.9505 227.8105 -38.7116 0.345 -0.410 0.845 51 55 58
-64.2936 228.1848 -38.7981 0.345 -0.410 0.845 54 55 57
-63.5849 208.8093 -35.7651 0.001 -0.506 0.862 51 46 53
-61.8995 209.1110 -35.8828 -0.093 -0.545 0.833 51 46 53
-53.8858 204.5263 -35.4910 0.518 -0.272 0.811 52 49 56
-50.7985 204.2427 -35.5744 0.804 -0.429 0.412 49 48 56
-49.8760 205.7136 -35.8452 0.804 -0.429 0.412 50 47 54
-49.0280 206.8859 -36.0657 0.801 -0.428 0.419 47 44 51
-48.0169 204.7909 -35.7765 -0.425 -0.735 0.528 52 45 50
-14.1979 221.3469 -39.7978 0.643 -0.489 0.590 133 115 127
-11.7779 224.5712 -40.4080 0.744 -0.333 0.580 132 115 125
-4.2570 233.0552 -42.0613 0.299 -0.024 0.954 127 121 125
0.2444 239.4878 -43.2649 0.305 -0.023 0.952 123 113 121
3.6691 240.4853 -43.5648 0.078 -0.051 0.996 110 100 112
4.7664 240.2582 -43.5745 0.081 -0.051 0.995 100 86 102
4.6315 234.6819 -42.6875 -0.042 -0.134 0.990 65 51 70
4.3541 230.2666 -41.9781 -0.055 -0.112 0.992 54 49 64
4.4119 229.1498 -41.8040 -0.057 -0.111 0.992 51 47 63
5.6518 225.7396 -41.3165 -0.130 -0.100 0.987 59 52 60
5.7848 224.8368 -41.1793 -0.139 -0.096 0.986 79 75 79
6.1240 223.2100 -40.9363 0.209 -0.053 0.976 144 146 143
7.0398 223.9538 -41.0919 0.209 -0.053 0.976 152 154 151
9.9383 220.8364 -40.7196 0.120 -0.081 0.989 92 108 79
11.9152 202.5480 -37.9111 0.069 -0.043 0.997 66 81 57
9.8434 197.0057 -36.9491 -0.247 -0.234 0.940 73 84 65
31.7566 211.8985 -40.2130 0.356 -0.593 0.722 75 101 54
40.7208 217.7748 -41.5141 0.351 -0.825 0.443 69 94 54
39.3046 214.7261 -40.9734 0.005 -0.791 0.612 68 93 54
-359.0940 371.3297 -50.1768 -0.106 -0.801 0.589 73 69 92
-357.4194 370.2911 -50.0794 -0.097 -0.803 0.588 59 55 79
-338.6354 369.3121 -50.6998 -0.323 -0.946 -0.032 74 76 74
-182.2670 235.4648 -35.6873 -0.076 -0.841 0.536 34 35 37
-181.8073 245.6291 -37.3379 -0.545 -0.817 0.189 34 34 30
-171.4039 235.2980 -36.1102 -0.564 -0.499 0.658 44 45 37
-159.6645 221.2107 -34.3348 -0.033 -0.977 -0.208 54 55 42
-142.0472 201.9375 -31.9704 0.074 -0.769 0.635 63 38 43
-141.5198 202.0679 -32.0131 -0.065 -0.872 0.486 65 39 46
-125.7091 167.9069 -27.1841 0.384 -0.885 -0.262 103 86 92
-125.2114 167.4063 -27.1244 0.352 -0.902 -0.251 70 51 57
-121.1503 168.2965 -27.4354 0.243 -0.968 -0.070 62 35 44
-108.5371 153.8117 -25.6324 -0.636 -0.617 0.464 63 48 49
-102.6726 215.9400 -35.8478 0.384 -0.914 -0.128 62 57 53
-100.9936 215.2891 -35.8128 0.687 -0.390 0.612 84 84 64
-98.4000 183.1263 -30.7575 -0.259 -0.964 -0.062 79 67 71
-97.0614 181.2707 -30.5150 -0.307 -0.916 0.259 44 28 38
-96.5775 181.2813 -30.5368 -0.263 -0.965 0.009 46 30 41
-94.5229 182.8334 -30.8709 -0.200 -0.975 0.101 135 118 137
-93.6445 181.7181 -30.7283 -0.027 -0.999 -0.044 120 102 124
-93.1791 181.5108 -30.7143 -0.028 -0.998 -0.049 127 112 133
-90.7730 181.4514 -30.8043 -0.236 -0.969 0.080 68 67 69
-82.6523 227.7518 -38.5725 -0.640 -0.409 0.650 56 49 53
-82.1376 227.0826 -38.4864 -0.640 -0.409 0.650 58 49 55
-81.6580 226.1442 -38.3556 -0.417 -0.396 0.818 60 50 56
-80.5367 225.7044 -38.3314 -0.348 -0.651 0.674 62 53 56
-74.0192 222.3448 -38.0619 0.715 -0.674 0.186 39 36 42
-72.2303 212.2702 -36.5188 0.207 -0.663 0.719 31 31 41
-70.7071 214.7394 -36.9782 -0.684 -0.729 0.033 35 36 41
-63.3924 215.1601 -37.3485 -0.337 -0.234 0.912 43 38 44
-57.4283 212.1134 -37.1063 -0.107 -0.259 0.960 48 38 46
-52.1328 201.1801 -35.5705 0.856 -0.405 0.321 52 51 59
-51.1438 202.9384 -35.8937 0.785 -0.399 0.474 49 48 56
-48.8572 203.6430 -36.1014 -0.501 -0.595 0.629 54 49 55
-48.4243 203.3152 -36.0667 -0.501 -0.595 0.629 57 52 56
-48.0312 202.8524 -36.0087 -0.505 -0.589 0.630 66 61 63
-46.9613 204.7840 -36.3631 0.363 -0.150 0.920 64 57 62
-46.1953 205.6211 -36.5291 0.363 -0.150 0.920 61 53 58
-45.6978 201.9112 -35.9542 0.346 -0.146 0.927 69 55 66
-43.4011 204.3763 -36.4450 0.357 -0.147 0.922 68 54 65
-17.9825 214.5588 -39.1316 0.084 -0.072 0.994 82 68 84
-16.0527 218.0462 -39.7712 0.050 -0.083 0.995 94 78 93
-15.4946 218.0656 -39.7975 0.050 -0.083 0.995 107 89 103
-15.1275 217.6107 -39.7396 0.043 -0.086 0.995 128 110 122
-6.1438 231.2814 -42.3059 0.221 -0.039 0.975 135 126 129
-4.1507 229.1690 -42.0493 0.224 -0.045 0.974 125 116 120
-4.1487 227.8392 -41.8359 0.340 -0.066 0.938 124 115 119
3.9196 241.0057 -44.2833 0.122 -0.047 0.991 120 108 118
4.4470 232.9428 -43.0109 0.010 -0.087 0.996 77 62 80
5.5973 219.7809 -40.9458 0.022 -0.038 0.999 125 130 126
9.1945 218.2159 -40.8435 0.120 -0.081 0.989 99 111 89
10.5514 217.6784 -40.8134 0.115 -0.076 0.990 89 102 74
10.6827 199.3592 -37.8783 0.072 -0.071 0.995 48 60 43
10.3335 196.9510 -37.4773 -0.068 -0.205 0.976 56 61 49
13.8065 199.6032 -38.0468 0.105 -0.186 0.977 88 96 74
33.7876 209.2672 -40.4250 0.672 -0.358 0.649 80 105 63
39.6762 215.2469 -41.6286 0.016 -0.787 0.617 73 98 56
38.4803 212.5614 -41.1481 0.340 -0.761 0.553 74 99 59
-342.1815 352.1103 -48.7405 -0.577 -0.400 0.713 118 111 131
-334.6207 344.5307 -47.8171 -0.322 -0.520 0.791 135 131 144
-335.1741 348.5376 -48.4473 -0.197 -0.249 0.948 130 129 136
-336.4720 365.3907 -51.1405 -0.234 -0.969 -0.079 45 48 39
-213.4941 253.4590 -37.9707 -0.286 -0.529 0.799 17 16 20
-208.7812 267.9240 -40.5226 -0.692 -0.543 0.476 24 24 24
-183.3084 236.6890 -36.4827 0.001 -0.996 0.093 34 38 38
-182.6682 236.6938 -36.5098 -0.091 -0.965 0.247 36 39 38
-181.8211 235.9559 -36.4245 -0.073 -0.937 0.342 38 41 39
-183.3036 246.0446 -38.0077 -0.365 -0.801 0.475 49 50 48
-181.8274 245.4945 -37.9789 -0.545 -0.817 0.189 47 49 42
-181.1392 261.2010 -40.5672 -0.890 -0.353 0.288 43 47 32
-161.7280 219.4685 -34.5662 0.010 -0.924 -0.382 47 56 40
-161.1765 219.6690 -34.6217 0.020 -0.928 -0.373 50 56 41
-160.3376 221.3609 -34.9320 -0.033 -0.977 -0.208 54 56 42
-144.9553 202.8539 -32.5503 -0.328 -0.875 0.355 71 38 47
-142.0117 201.4422 -32.4416 -0.063 -0.873 0.484 55 34 38
-125.6610 167.0051 -27.5035 0.354 -0.902 -0.248 72 54 60
-125.2211 167.2190 -27.5565 0.291 -0.935 -0.202 66 46 53
-123.9188 168.1837 -27.7674 0.148 -0.988 -0.039 61 44 50
-122.5763 168.7203 -27.9102 0.273 -0.962 0.007 79 62 70
-122.1029 168.4992 -27.8937 0.204 -0.977 -0.058 77 56 65
-117.4123 165.6816 -27.6280 -0.745 -0.594 0.304 56 41 44
-108.5563 153.5433 -26.0150 -0.636 -0.617 0.464 99 84 87
-107.2815 154.4532 -26.2159 0.333 -0.292 0.896 69 61 64
-99.9344 214.0685 -36.2352 0.195 -0.929 0.314 77 75 62
-95.0393 182.6142 -31.3107 -0.068 -0.936 -0.346 145 130 148
-94.5031 183.2455 -31.4357 -0.162 -0.984 0.078 147 130 149
-83.4866 231.1057 -39.6905 -0.594 -0.372 0.714 64 59 61
-80.7566 224.0011 -38.6452 -0.403 -0.385 0.830 61 51 58
-80.2423 223.4548 -38.5774 -0.403 -0.388 0.829 57 48 55
-72.6977 219.8203 -38.2963 -0.732 -0.675 0.089 37 38 48
-71.1357 212.2576 -37.1281 0.072 -0.580 0.811 37 40 45
-70.5791 212.2874 -37.1559 0.072 -0.580 0.811 39 43 46
-70.0102 212.3879 -37.1958 0.044 -0.590 0.806 41 45 48
-67.1414 215.9875 -37.9008 -0.547 -0.827 -0.129 41 41 46
-64.1011 214.4099 -37.7691 -0.505 -0.369 0.780 43 35 39
-60.1884 193.5080 -34.5238 0.387 -0.437 0.812 58 46 54
-51.4274 201.8654 -36.2474 0.857 -0.403 0.322 48 47 54
-49.5234 205.0376 -36.8429 0.797 -0.419 0.434 53 52 58
-46.1280 205.8398 -37.1137 -0.475 -0.543 0.693 65 61 65
-45.3746 201.2287 -36.3933 -0.514 -0.779 0.359 69 59 71
-44.9388 200.9536 -36.3664 -0.514 -0.779 0.359 63 53 65
-26.3472 212.4421 -39.0058 0.200 -0.098 0.975 65 53 65
-25.5565 211.6574 -38.9105 0.181 -0.099 0.978 64 50 65
-0.4565 232.3214 -43.3138 0.415 -0.072 0.907 123 113 119
3.8302 234.1028 -43.7810 0.099 -0.050 0.994 101 83 101
4.4426 223.0877 -42.0110 -0.172 -0.099 0.980 49 41 52
6.5451 215.0381 -40.7858 0.036 -0.037 0.999 136 143 129
7.7745 210.1323 -40.0369 0.024 -0.080 0.996 91 104 73
7.8428 209.2500 -39.8960 0.115 -0.085 0.990 86 102 67
14.3971 213.6837 -40.8889 0.092 -0.098 0.991 87 111 77
8.5482 200.8923 -38.5629 0.151 -0.096 0.984 81 107 70
13.4326 198.0218 -38.2965 0.341 -0.110 0.934 88 95 75
42.2309 217.5100 -42.6608 0.655 -0.731 0.193 75 102 62
-362.0249 369.1072 -51.6863 0.319 -0.656 0.684 43 39 63
-356.2967 364.8993 -51.2256 -0.483 -0.303 0.822 53 51 75
-336.4028 344.1374 -48.6084 -0.583 -0.379 0.719 133 126 135
-334.9919 343.3847 -48.5419 -0.305 -0.513 0.802 131 124 132
-331.0389 340.0135 -48.1467 -0.103 -0.399 0.911 125 124 125
-230.3420 231.7829 -34.3798 -0.424 -0.847 0.320 36 39 32
-228.5104 277.1405 -41.9595 -0.616 -0.785 0.067 16 17 22
-225.7261 275.7885 -41.8503 -0.878 -0.477 -0.039 17 17 21
-255.0665 368.7278 -56.0208 0.319 -0.722 -0.613 21 21 23
-239.1467 340.6196 -52.0248 0.409 -0.699 -0.586 25 27 26
-205.2451 259.4289 -39.9856 -0.695 -0.564 0.446 27 28 24
-183.5354 237.2908 -37.2154 0.006 -0.997 0.080 39 45 40
-182.7112 236.6484 -37.1430 -0.121 -0.945 0.304 39 46 40
-182.0447 236.5591 -37.1556 -0.121 -0.945 0.304 38 45 38
-181.8476 245.3598 -38.6198 -0.545 -0.817 0.189 48 56 41
-179.3241 243.3072 -38.3839 -0.373 -0.814 0.444 38 45 28
-166.6897 220.1432 -35.0709 -0.254 -0.963 -0.087 47 51 37
-166.1189 220.2567 -35.1131 -0.312 -0.949 -0.052 49 53 38
-125.6951 167.1239 -27.9842 0.354 -0.902 -0.248 58 36 44
-125.2528 167.3120 -28.0335 0.291 -0.935 -0.202 71 45 54
-123.9438 168.1983 -28.2340 0.148 -0.988 -0.039 64 47 53
-121.6169 167.6553 -28.2398 -0.200 -0.691 0.694 50 35 42
-121.1226 166.9978 -28.1513 0.347 -0.873 -0.342 48 34 39
-120.5895 165.5598 -27.9353 0.360 -0.745 -0.562 39 26 30
-117.4258 165.4811 -28.0524 -0.745 -0.594 0.304 54 39 42
-109.4027 154.8353 -26.6209 -0.681 -0.590 0.433 62 51 56
-108.1600 153.0349 -26.3741 0.319 -0.294 0.901 50 39 43
-104.2495 222.4516 -38.0198 0.132 -0.857 -0.498 61 52 53
-100.0478 211.9798 -36.4600 0.251 -0.959 0.131 74 69 67
-99.1358 207.9001 -35.8225 -0.909 -0.347 0.229 72 71 65
-95.0391 182.7869 -31.8360 0.018 -0.923 -0.385 135 121 141
-94.0526 182.9497 -31.9035 0.143 -0.875 0.463 112 99 117
-90.8343 181.0564 -31.7225 -0.391 -0.662 0.639 78 79 77
-86.3329 215.3140 -37.5755 0.564 -0.341 0.752 81 84 79
-84.4821 216.7770 -37.8936 0.572 -0.336 0.748 79 74 79
-76.3157 218.5355 -38.5203 0.933 -0.248 0.263 60 61 57
-73.5446 225.5946 -39.8022 -0.043 -0.707 0.705 48 52 53
-72.9677 225.5438 -39.8175 -0.043 -0.707 0.705 47 51 55
-73.7435 209.8064 -37.1818 0.631 -0.771 0.083 63 69 77
-71.0802 212.6191 -37.7567 0.484 -0.760 0.435 36 40 43
-69.4331 215.7184 -38.3372 0.058 -0.557 0.828 41 40 46
-67.2161 215.6083 -38.4101 0.139 -0.438 0.888 40 37 49
-66.5341 216.2686 -38.5474 0.135 -0.435 0.890 41 33 44
-66.3627 214.2141 -38.2145 0.065 -0.563 0.824 46 37 46
-65.4682 213.1031 -38.0675 -0.868 -0.479 0.128 48 36 39
-54.2400 197.0543 -35.8738 0.795 -0.433 0.425 55 54 60
-49.7560 204.1689 -37.2353 0.791 -0.423 0.441 50 49 54
-48.5540 200.9630 -36.7543 -0.477 -0.641 0.601 65 64 69
-45.4408 204.5459 -37.4751 -0.458 -0.676 0.577 66 64 71
-45.8163 199.7145 -36.6603 -0.535 -0.745 0.398 75 73 80
-44.0585 200.4259 -36.8503 0.363 -0.153 0.919 56 53 64
-39.5169 201.7366 -37.2538 0.152 -0.116 0.981 71 61 69
-22.1155 210.7894 -39.4670 0.188 -0.120 0.975 64 51 62
3.0581 232.3414 -44.0677 0.145 -0.034 0.989 110 96 110
6.3050 211.3300 -40.7249 0.030 -0.041 0.999 120 124 115
7.9534 205.4404 -39.8182 0.130 -0.101 0.986 87 108 76
10.3444 195.1209 -38.2092 0.082 -0.181 0.980 66 66 61
-360.0347 365.8035 -52.2081 -0.417 -0.314 0.853 65 61 86
-344.9368 349.9175 -50.1591 -0.570 -0.351 0.743 145 138 156
-342.1643 347.0515 -49.7915 -0.522 -0.333 0.785 144 138 153
-330.0918 338.2551 -48.8090 -0.103 -0.399 0.911 110 111 107
-231.7174 233.1503 -35.1905 -0.490 -0.654 0.577 37 44 28
-228.5525 280.8802 -43.3349 -0.849 -0.524 0.066 18 23 21
-197.1504 243.1856 -38.2919 -0.842 -0.456 0.289 29 36 28
-183.8463 245.1896 -39.1735 -0.216 -0.784 0.583 56 64 53
-183.1300 244.9949 -39.1702 -0.216 -0.784 0.583 52 60 49
-180.7863 243.6538 -39.0410 -0.393 -0.572 0.720 42 51 32
-168.0300 220.5519 -35.6844 -0.254 -0.963 -0.087 46 50 35
-166.7539 220.2150 -35.6801 -0.254 -0.963 -0.087 55 59 44
-167.1928 227.3442 -36.8592 -0.656 -0.631 0.413 55 59 44
-163.5238 227.4289 -37.0238 0.052 -0.843 -0.536 62 65 48
-125.6430 166.1762 -28.2903 0.453 -0.889 -0.063 59 37 44
-125.1940 166.2528 -28.3216 0.432 -0.901 -0.030 68 44 52
-121.6247 167.3995 -28.6604 -0.210 -0.706 0.676 48 35 42
-109.4218 154.4432 -26.9848 -0.678 -0.607 0.415 54 43 49
-108.1856 152.3384 -26.6820 0.499 -0.335 0.799 48 37 41
-95.0355 183.0055 -32.3704 -0.068 -0.936 -0.346 129 113 132
-90.7611 181.9143 -32.3623 -0.327 -0.874 0.358 77 79 73
-86.7587 206.0701 -36.5825 0.453 -0.561 0.692 70 71 64
-79.9861 221.0696 -39.3787 -0.393 -0.386 0.835 58 56 61
-80.3102 198.0682 -35.5030 -0.438 -0.431 0.789 51 56 50
-75.5519 208.7593 -37.4932 0.532 -0.845 -0.053 71 75 78
-74.9817 208.9236 -37.5442 0.529 -0.847 -0.058 67 72 78
-71.0983 212.5479 -38.3119 0.413 -0.805 0.425 52 53 55
-66.8933 214.3701 -38.7901 0.070 -0.439 0.896 44 36 48
-66.4432 213.8110 -38.7147 0.183 -0.410 0.893 42 32 41
-66.4740 207.9364 -37.7270 -0.828 -0.550 0.104 43 31 36
-63.7147 205.6347 -37.4535 -0.406 -0.632 0.661 68 55 69
-62.6021 205.8472 -37.5348 -0.608 -0.480 0.632 55 42 60
-49.1028 195.4052 -36.3345 0.402 -0.127 0.907 84 82 87
-45.8875 199.4545 -37.1461 0.414 -0.161 0.896 91 89 94
-45.0834 200.4288 -37.3427 0.414 -0.161 0.896 79 77 82
-44.6844 200.0388 -37.2936 0.360 -0.151 0.921 74 71 80
-36.4690 201.5443 -37.8830 0.080 -0.097 0.992 58 43 48
-28.4787 207.9647 -39.2884 0.108 -0.117 0.987 60 47 57
-15.0675 211.0066 -40.3487 0.083 -0.019 0.996 135 125 130
-14.7899 210.3922 -40.2569 0.201 -0.071 0.977 136 124 128
6.2619 209.1266 -40.9069 0.187 -0.112 0.976 111 112 102
10.1691 191.3544 -38.0828 0.299 -0.209 0.931 87 91 75
-350.9789 353.0949 -51.3998 -0.435 -0.251 0.865 109 105 128
-350.6466 354.0912 -51.5831 -0.422 -0.239 0.874 129 126 145
-346.7496 349.5232 -50.9639 -0.423 -0.239 0.874 139 137 151
-342.8748 344.9521 -50.3433 -0.423 -0.239 0.874 146 142 154
-329.6288 329.8792 -48.3158 -0.541 -0.281 0.793 139 139 139
