ply
format ascii 1.0
element vertex 860
property float x
property float y
property float z
property float nx
property float ny
property float nz
property uchar diffuse_red
property uchar diffuse_green
property uchar diffuse_blue
end_header
225.0354 413.9135 0.4829 -0.017 -0.981 0.195 56 57 61
237.0154 407.3043 0.4221 -0.136 -0.959 -0.249 32 35 40
187.7065 483.4745 0.1356 -0.353 -0.767 0.536 116 101 124
294.6072 392.7285 -0.4517 0.087 -0.994 0.071 31 34 39
210.8557 250.7916 -1.2751 -0.852 -0.473 -0.224 35 38 43
183.3356 460.5840 -0.8939 -0.160 -0.605 0.780 154 140 163
189.6558 479.4586 -0.8257 -0.167 -0.459 0.873 149 134 157
220.9066 425.9131 -1.0332 0.265 -0.891 -0.369 45 46 53
43.3355 373.5757 -1.8837 -0.247 -0.848 -0.469 37 30 48
185.4634 481.5721 -1.7591 0.320 -0.094 0.943 125 107 131
220.6872 422.5780 -3.4549 0.736 -0.311 0.601 50 54 56
251.5432 388.4310 -3.3439 0.002 -0.901 -0.433 33 37 40
263.6284 406.4330 -3.4021 0.348 -0.928 -0.135 26 27 31
277.3265 413.5466 -3.4250 0.867 -0.485 -0.109 44 45 47
44.9196 359.0614 -3.9254 -0.303 -0.092 0.948 51 43 60
227.3205 465.1711 -4.4957 0.347 -0.295 0.890 58 50 71
211.8277 410.9901 -4.1960 0.289 -0.122 0.950 54 45 66
250.7039 379.6665 -4.0175 0.587 -0.778 0.223 24 25 29
218.0783 421.6971 -5.0584 0.555 -0.270 0.787 86 80 97
276.4503 432.7473 -5.1334 0.068 -0.996 0.058 28 31 36
131.8835 347.3720 -5.7703 0.039 -0.773 -0.633 44 40 54
174.9753 470.9914 -7.3031 -0.814 -0.520 0.260 44 31 49
243.7166 398.9081 -6.3714 -0.275 -0.890 0.365 47 51 52
168.2797 469.8280 -8.2139 -0.644 -0.682 0.346 69 55 72
237.5570 403.2848 -7.9511 0.606 -0.794 -0.040 36 37 42
234.1336 390.4826 -7.7330 0.178 -0.655 0.735 27 28 33
88.7918 76.5736 -2.4345 -0.232 -0.338 -0.912 105 105 105
102.5359 271.2983 -6.2291 0.922 -0.375 0.096 74 61 70
104.7385 276.2420 -6.3242 0.910 -0.397 0.117 74 62 64
275.3672 431.3739 -9.2357 0.290 -0.884 -0.366 46 49 54
110.5243 275.9202 -6.7917 0.852 -0.450 0.267 78 63 65
127.5191 248.1227 -6.5817 -0.368 -0.809 0.458 55 41 56
135.7746 203.5105 -5.4942 0.625 -0.413 -0.662 62 49 67
268.0019 470.1037 -11.8303 -0.404 -0.793 0.456 39 40 45
250.2936 369.8266 -9.4183 -0.804 -0.564 -0.188 39 40 45
238.5705 404.9547 -11.0474 0.373 -0.227 0.900 39 40 45
250.4051 369.8959 -10.1047 -0.804 -0.564 -0.188 34 35 40
105.8242 284.6568 -8.9859 0.886 -0.385 -0.260 111 103 92
262.5529 461.2349 -14.3151 -0.275 -0.896 -0.348 45 46 51
232.2412 390.2316 -12.1332 -0.692 -0.695 0.193 46 47 52
157.7843 426.5376 -14.1849 -0.725 -0.687 -0.051 47 34 52
182.1835 427.9288 -14.2001 -0.275 -0.918 -0.286 60 42 63
172.7539 387.7500 -12.8629 0.801 -0.288 0.525 68 51 69
237.2764 414.0379 -13.6625 -0.259 -0.944 -0.204 42 43 47
31.0217 417.4040 -14.8625 0.010 -0.609 0.793 50 43 51
97.3175 240.5170 -8.4139 0.783 -0.609 -0.124 64 48 59
105.3420 284.7016 -9.9905 0.802 -0.433 -0.412 84 76 63
157.1194 422.7611 -14.8797 -0.677 -0.725 0.125 54 41 59
184.4796 436.8145 -15.3466 -0.113 -0.969 -0.222 64 47 67
43.8214 360.1669 -13.4734 -0.111 -0.541 0.834 47 39 50
107.8085 283.7484 -10.4523 -0.654 -0.410 0.636 78 62 55
182.8695 433.6010 -16.0778 -0.332 -0.274 0.903 75 57 79
170.8107 382.6591 -14.1454 -0.617 -0.694 0.372 70 53 72
243.6560 387.5736 -14.9558 0.375 -0.916 -0.141 40 44 47
117.9055 301.7026 -12.2076 0.489 -0.715 -0.500 110 104 106
116.8221 271.2425 -10.8998 -0.644 -0.718 -0.263 39 32 39
117.3141 271.3994 -10.9058 -0.694 -0.713 -0.099 39 33 36
164.7018 495.0699 -20.4423 0.262 -0.591 0.763 52 41 55
217.2925 438.0063 -17.9001 -0.428 -0.799 -0.422 51 50 55
232.8576 406.4331 -17.2940 0.565 -0.761 0.319 44 45 49
116.5971 273.0167 -11.9263 -0.847 -0.508 0.155 53 49 48
118.0130 297.5060 -13.6253 0.321 -0.712 -0.624 105 101 100
116.1420 277.1196 -12.6082 -0.833 -0.520 0.189 94 90 89
159.7805 426.9363 -20.0233 -0.759 -0.617 0.207 53 47 51
25.2999 444.0119 -22.0347 0.054 -0.982 -0.184 71 68 61
95.0164 426.2905 -21.8012 0.878 -0.339 0.337 71 71 61
119.1464 411.3290 -20.9285 -0.240 -0.962 -0.130 94 85 87
162.9091 442.9241 -22.5643 -0.650 -0.667 0.363 72 62 68
245.0530 397.3529 -19.8874 0.550 -0.224 0.804 62 63 68
269.3087 447.2209 -22.5672 0.538 -0.219 0.814 67 68 73
277.4134 455.0828 -22.9803 0.273 -0.097 0.957 18 19 24
215.4645 287.8294 -13.9499 -0.300 -0.765 0.570 25 26 30
82.0277 516.2773 -27.8174 -0.419 -0.872 -0.254 96 92 89
111.2590 345.3798 -17.9803 0.166 -0.725 0.668 90 83 90
175.7255 499.2458 -26.6295 0.523 -0.807 -0.274 76 70 72
245.1031 395.7162 -20.5521 0.541 -0.223 0.811 69 70 75
53.2525 275.6096 -14.6139 0.768 -0.495 0.407 78 81 70
137.0989 461.5782 -25.4865 0.736 -0.564 0.375 99 95 93
154.7609 340.4349 -18.2314 0.288 -0.799 -0.528 72 66 68
56.2900 320.4995 -17.8758 -0.112 -0.583 -0.805 28 20 33
132.9504 351.3390 -19.5946 0.177 -0.731 0.659 93 87 87
208.3776 274.2825 -14.6363 0.018 -0.568 0.823 49 50 54
57.2610 309.5182 -17.7642 -0.166 -0.666 -0.727 38 29 42
58.0138 316.6516 -18.2209 -0.174 -0.666 -0.726 25 21 32
95.4044 383.8208 -22.4423 0.911 -0.351 0.218 88 91 80
152.4388 572.8031 -34.4439 0.036 -0.852 -0.523 99 94 89
131.4495 345.3658 -19.8769 -0.076 -0.473 0.878 104 99 95
165.2788 307.2138 -17.3368 -0.752 -0.483 0.448 58 69 53
246.8031 383.6629 -22.0406 -0.224 -0.913 -0.342 39 40 44
207.6566 272.9276 -15.0230 0.133 -0.475 0.870 43 44 48
120.8944 421.5286 -25.6316 -0.561 -0.777 -0.286 54 43 60
163.7651 302.2246 -17.5632 -0.739 -0.464 0.488 70 79 62
186.2284 296.9329 -17.1501 -0.594 -0.655 -0.467 39 40 44
245.0341 379.9427 -22.5258 -0.290 -0.794 -0.535 38 39 43
218.0114 292.6653 -16.7802 -0.169 -0.966 -0.198 37 36 42
56.4769 314.7887 -19.2734 0.819 -0.542 0.185 65 51 68
57.9843 316.7110 -19.4019 -0.060 -0.709 -0.703 47 44 50
120.0586 421.2474 -26.4463 -0.245 -0.900 -0.360 42 31 47
192.5478 287.9923 -17.0441 0.885 -0.418 0.207 22 25 30
233.1842 327.4681 -19.6564 0.487 -0.575 0.658 27 28 32
56.5908 318.0630 -20.0918 -0.319 -0.652 -0.688 87 75 89
58.4190 317.8203 -20.0692 -0.050 -0.704 -0.709 22 20 23
52.7770 388.0781 -25.1035 0.229 -0.568 -0.790 20 18 23
76.8627 270.3988 -16.6290 0.497 -0.739 -0.455 20 20 22
133.7587 381.1385 -24.3741 -0.726 -0.372 0.578 56 48 44
145.3805 368.3853 -23.4296 -0.401 -0.338 0.851 41 38 31
163.7946 302.0860 -18.6412 -0.733 -0.485 0.478 77 85 70
232.1387 412.2742 -26.3138 0.920 -0.391 -0.035 53 54 58
226.9548 394.2028 -25.0381 -0.417 -0.551 -0.723 53 54 58
273.8928 361.6173 -22.5752 -0.092 -0.651 0.753 23 24 28
105.6751 378.9075 -25.0291 0.610 -0.785 0.109 62 63 57
130.7330 392.3501 -25.9464 0.374 -0.128 0.919 73 66 56
260.1758 330.1830 -20.9714 -0.323 -0.888 0.327 29 33 34
58.3101 322.9964 -21.6494 -0.124 -0.651 -0.749 48 46 51
71.0562 377.7785 -26.5194 -0.049 -0.768 0.638 57 57 57
71.6501 380.0168 -26.6934 -0.660 -0.748 -0.071 64 64 64
217.4447 379.5311 -26.1903 -0.319 -0.732 0.602 31 32 34
266.2221 348.9685 -23.6332 -0.534 -0.843 0.064 34 35 39
33.7558 395.1489 -28.7846 -0.194 0.043 0.980 81 66 95
59.4106 350.2553 -25.0653 0.156 -0.601 -0.784 18 15 22
113.0501 368.5049 -26.3664 0.442 -0.685 0.579 78 79 68
120.8484 400.7210 -28.9493 0.556 -0.782 0.280 86 82 70
253.9306 321.9596 -22.1343 0.182 -0.783 0.595 36 40 41
60.4909 340.8405 -24.9489 0.126 -0.591 -0.797 21 18 24
107.3712 355.2866 -25.9942 0.330 0.027 0.944 76 78 66
204.8224 400.9492 -29.4702 -0.373 -0.925 -0.068 63 75 63
220.8664 304.4274 -21.3698 0.501 -0.528 -0.686 30 31 35
59.7584 341.4261 -25.6517 0.074 -0.570 -0.818 32 32 30
107.5200 357.7743 -26.8869 0.229 -0.207 0.951 64 66 55
108.4506 362.0636 -27.2514 0.240 -0.195 0.951 60 60 51
211.8962 357.3152 -26.4831 -0.445 -0.705 -0.552 30 31 35
250.7028 319.3478 -23.0918 0.199 -0.840 0.505 50 52 51
58.6655 334.3742 -25.6862 -0.355 -0.531 -0.769 39 47 34
60.2641 331.7195 -25.4464 -0.333 -0.524 -0.784 40 45 37
110.0637 377.2259 -29.2789 0.138 -0.964 -0.229 64 64 56
124.1534 305.0248 -22.8638 -0.041 -0.151 0.988 103 97 74
227.4667 331.2770 -24.8067 0.754 -0.648 -0.113 36 39 44
231.0162 317.4647 -23.5764 0.738 -0.426 0.524 25 26 30
108.7295 354.6458 -27.9727 -0.530 -0.833 -0.161 74 74 66
125.8418 374.5206 -29.7091 -0.700 -0.503 -0.507 93 92 84
221.6101 337.5804 -26.0105 0.837 -0.509 0.202 36 37 39
100.3699 370.6097 -30.1683 0.571 -0.737 0.361 84 88 74
124.9979 349.1067 -28.0762 -0.856 -0.445 -0.263 92 84 81
149.2822 358.4170 -28.8494 0.837 -0.133 0.531 94 95 81
188.3560 344.8145 -27.4368 -0.500 -0.865 0.042 38 44 40
216.6758 411.6896 -33.5453 0.059 -0.873 0.483 43 44 48
126.3040 354.2305 -29.2254 -0.712 -0.537 -0.452 106 98 95
136.0387 328.6304 -26.7465 0.075 -0.624 0.778 93 89 83
153.8686 345.5264 -28.2881 -0.077 -0.163 0.984 84 84 74
59.2037 435.3164 -38.0988 -0.088 -0.927 -0.366 51 50 54
115.9902 337.1128 -28.2718 -0.089 -0.974 -0.210 82 81 78
225.9777 347.4732 -28.8450 -0.194 -0.785 -0.589 30 31 33
244.2203 325.9020 -26.6633 -0.383 -0.606 0.697 31 30 37
117.2187 336.5012 -28.8446 -0.253 -0.375 0.892 74 71 66
147.2114 338.1288 -28.8846 0.729 -0.123 0.673 80 81 63
201.2091 380.8404 -32.9414 0.926 -0.351 -0.141 49 53 56
219.6819 428.4755 -37.6369 0.931 -0.355 -0.090 53 57 61
226.9542 434.5839 -38.2189 -0.535 -0.807 -0.250 57 56 64
259.3892 353.3344 -29.9478 -0.713 -0.689 0.130 23 20 27
238.2587 314.8687 -26.1817 0.307 -0.457 0.835 29 28 31
105.4123 426.0182 -38.7140 0.887 -0.387 -0.252 104 107 99
109.0630 398.3891 -35.8647 0.345 -0.486 -0.803 93 96 88
124.0709 357.8354 -31.6420 -0.827 -0.522 -0.209 77 73 69
123.9839 351.1204 -30.9536 -0.860 -0.469 -0.203 80 72 70
222.8250 454.6348 -41.1560 -0.553 -0.527 0.645 65 72 63
222.0048 418.8999 -37.4941 -0.664 -0.724 -0.184 79 76 85
246.9109 363.9001 -31.7481 0.564 -0.815 0.131 37 37 37
241.6457 350.3008 -30.3753 0.160 -0.972 0.171 31 31 31
55.9857 414.9790 -38.6233 -0.092 -0.738 0.669 58 69 49
57.9336 412.1852 -38.3217 -0.167 -0.726 0.667 49 61 43
88.1169 373.9051 -34.1731 0.409 -0.732 -0.546 75 78 70
107.1871 427.3535 -39.7022 0.757 -0.648 -0.088 101 101 98
111.7369 417.3190 -38.6291 0.825 -0.532 0.190 91 90 87
222.9777 454.8894 -42.0948 -0.494 -0.653 0.575 60 67 61
222.2912 419.4928 -38.3817 -0.665 -0.723 -0.187 56 54 65
203.7711 335.4167 -29.6349 -0.300 -0.807 0.508 32 31 36
269.8995 444.6709 -40.8201 0.636 -0.543 0.548 26 27 29
190.0810 264.8197 -22.2824 0.829 -0.451 0.332 21 18 27
246.4673 360.4033 -32.0743 0.305 -0.914 0.266 37 37 37
79.2707 329.7862 -30.2062 -0.380 -0.881 -0.281 81 84 77
80.1165 339.1578 -31.2090 -0.472 -0.756 -0.454 78 78 72
87.1977 307.9915 -27.8307 0.368 -0.798 -0.478 79 82 75
116.5190 426.1745 -40.3939 0.856 -0.490 0.167 68 66 67
121.8091 349.1918 -32.1030 0.464 -0.176 0.868 82 72 73
148.6734 335.6814 -30.5337 0.476 -0.127 0.871 87 90 75
199.8016 275.5331 -23.8489 -0.085 -0.474 0.877 47 47 47
234.4736 334.4003 -30.0182 0.652 -0.694 0.306 26 26 28
78.3183 349.5189 -33.0048 -0.251 -0.752 -0.609 72 75 68
87.7490 349.2972 -32.9379 0.871 -0.354 0.341 85 88 81
103.3890 441.9317 -43.0398 0.180 -0.706 0.685 90 87 82
106.5529 394.1410 -37.7776 0.267 -0.075 0.961 91 91 89
116.9437 332.9463 -31.0109 -0.511 -0.569 0.645 67 58 59
120.8180 339.8320 -31.7495 0.201 -0.475 0.857 87 77 78
122.1953 346.4964 -32.4752 -0.819 -0.459 0.344 94 84 85
217.3582 332.8075 -30.5432 0.616 -0.567 0.546 23 24 26
194.6136 269.9509 -23.7433 0.530 -0.245 0.812 26 26 28
234.9229 285.2266 -25.2391 0.404 -0.751 0.523 42 44 43
88.4424 78.0919 -3.1718 0.559 0.062 0.827 89 100 91
79.8486 361.5295 -35.0214 0.269 -0.912 -0.310 94 90 87
83.1024 347.4189 -33.4228 -0.751 -0.563 0.346 80 75 72
85.4744 332.1829 -31.7020 0.814 -0.419 0.403 98 94 91
86.5116 343.8954 -33.0117 0.859 -0.410 0.306 89 92 85
113.7722 397.4866 -38.9005 0.396 -0.158 0.905 48 46 47
132.9114 296.9873 -27.5334 0.018 -0.943 -0.333 88 84 75
140.5371 302.6443 -28.1331 0.602 -0.142 0.786 94 97 76
173.2788 315.6800 -29.4452 0.834 -0.248 0.492 55 64 47
205.1631 380.9927 -36.6283 0.832 -0.423 0.359 48 48 56
190.5485 324.7566 -30.3843 0.701 -0.639 -0.318 27 26 32
233.5231 281.5897 -25.3417 -0.066 -0.575 0.815 36 40 39
85.3548 337.2387 -32.9158 0.784 -0.535 -0.315 91 86 83
124.5536 355.2042 -34.7910 -0.066 -0.376 0.924 89 77 81
191.2643 329.5784 -31.5388 0.596 -0.581 -0.554 29 28 34
208.5298 334.5526 -32.0277 0.202 -0.934 0.295 42 43 45
243.3781 401.1982 -39.5045 0.379 -0.894 0.240 30 32 31
234.0926 283.7816 -26.0865 0.401 -0.768 0.499 34 35 37
76.2166 328.3249 -32.5628 0.055 -0.875 0.480 47 50 41
77.7435 323.3175 -31.9692 -0.532 -0.806 0.259 47 50 43
79.0593 348.0249 -34.8554 -0.750 -0.514 0.417 47 50 43
79.6570 366.2087 -36.9814 0.467 -0.770 -0.435 47 43 40
107.8879 374.6355 -37.8320 0.669 -0.410 0.620 68 68 66
121.1582 348.6186 -34.7223 0.477 -0.772 0.421 74 64 65
121.9445 349.7469 -34.8506 0.479 -0.765 0.429 74 64 65
242.3739 398.8488 -40.0196 0.462 -0.885 -0.062 22 26 27
214.4417 330.1045 -32.1060 -0.810 -0.585 -0.022 53 54 58
228.9246 322.5873 -31.1562 0.627 -0.642 0.442 19 16 25
86.1791 361.6389 -37.1212 0.964 -0.218 0.155 83 86 79
121.1780 342.4861 -34.6605 0.436 -0.827 0.354 74 64 65
242.5869 399.1530 -40.8353 0.466 -0.883 -0.059 21 25 26
228.6463 321.9557 -31.6790 0.627 -0.642 0.442 19 16 25
67.0906 297.0587 -30.0500 -0.510 -0.803 -0.309 81 93 69
83.3532 339.5681 -35.1512 0.882 -0.324 0.343 73 67 69
113.2474 311.6914 -31.6025 0.283 -0.949 -0.135 95 93 94
155.2034 382.3079 -40.0017 0.452 -0.879 0.153 98 100 81
228.2689 427.5380 -45.1498 0.854 -0.467 0.229 36 44 31
231.1770 432.9294 -45.7925 0.854 -0.466 0.231 36 44 34
195.9501 314.7415 -31.5594 0.225 -0.828 -0.514 32 39 32
86.8084 366.4355 -39.1287 0.965 -0.242 0.105 76 79 70
87.3428 379.0316 -40.6923 0.961 -0.233 0.149 76 79 69
101.2167 349.2900 -36.9229 0.584 -0.541 -0.605 80 83 74
107.8055 326.1321 -34.0094 -0.694 -0.681 0.236 73 75 69
118.6311 398.3669 -42.9365 0.092 -0.740 -0.666 68 69 66
161.5526 285.9591 -28.7387 0.832 -0.342 0.437 80 92 68
172.5784 300.0501 -30.4345 -0.190 -0.950 0.248 72 87 64
172.8847 297.8957 -30.1650 -0.393 -0.847 0.356 63 78 55
213.6837 397.2243 -42.3079 0.138 -0.879 -0.456 59 67 54
224.2912 419.0935 -44.9730 0.844 -0.536 -0.028 47 55 42
232.2457 397.8527 -42.2910 -0.589 -0.681 0.436 33 38 32
228.4287 366.5244 -38.4148 0.305 -0.925 -0.228 22 23 27
72.5949 388.1571 -42.6766 0.685 -0.493 -0.537 47 53 41
82.0712 322.1793 -34.2622 0.451 -0.563 -0.693 51 52 57
102.6244 350.7305 -37.7747 -0.738 -0.423 0.526 70 75 69
104.1749 327.0344 -34.7624 0.983 -0.173 0.054 78 83 77
108.7695 341.2893 -36.5457 -0.781 -0.524 0.341 78 81 74
117.5681 376.2410 -40.9310 0.293 -0.594 -0.749 74 76 73
222.1434 428.6944 -47.0351 -0.326 -0.851 -0.411 70 83 63
222.8916 428.4478 -46.9999 -0.312 -0.855 -0.414 71 82 65
214.6050 397.4804 -43.1171 0.182 -0.928 -0.326 73 81 68
215.5943 398.0742 -43.1872 0.175 -0.936 -0.304 59 67 54
239.7241 422.7468 -46.1893 -0.099 -0.900 -0.424 39 46 39
233.3096 400.1693 -43.3603 -0.577 -0.681 0.450 34 41 34
197.7556 308.3639 -31.9066 0.402 -0.892 0.204 24 28 29
198.8995 309.6829 -32.0679 0.386 -0.890 0.244 23 27 28
230.4793 367.8311 -39.2752 0.204 -0.918 -0.341 21 22 26
82.6294 341.8166 -37.4099 0.848 -0.395 -0.352 73 74 77
93.1255 341.0196 -37.2510 0.837 -0.547 -0.006 84 87 76
101.7015 343.6289 -37.5425 -0.784 -0.381 0.490 74 79 73
211.8375 391.9573 -43.2009 0.235 -0.932 -0.276 82 90 77
242.5823 367.1075 -39.8263 -0.534 -0.825 -0.186 22 16 28
243.0094 362.6344 -39.2460 0.699 -0.489 -0.522 20 17 26
266.9418 335.8649 -35.6595 -0.085 -0.991 -0.107 29 29 31
84.8789 389.9101 -44.3908 0.792 -0.290 0.538 77 80 70
85.1889 414.0965 -47.5733 -0.036 -0.936 0.351 76 79 68
111.1398 367.2261 -41.2619 0.032 -0.802 -0.596 88 91 84
117.8022 340.3133 -37.6826 0.677 -0.068 0.733 94 87 90
223.8935 379.6180 -42.2814 0.532 -0.287 0.796 52 58 54
191.1628 293.3558 -31.1025 0.777 -0.629 -0.022 44 48 51
194.9595 294.8498 -31.2785 0.450 -0.673 -0.587 37 41 44
233.9870 345.0805 -37.6797 -0.229 -0.922 -0.312 25 24 30
236.4958 346.2316 -37.8176 0.065 -0.739 -0.671 25 24 30
227.7993 280.8595 -29.2585 0.534 -0.485 -0.693 25 26 28
73.8009 394.0902 -45.7917 0.783 -0.570 -0.249 84 90 78
84.6174 341.3295 -38.6572 0.053 -0.413 0.909 86 89 80
85.1580 346.1512 -39.3008 -0.018 -0.420 0.907 86 89 80
98.4969 346.4929 -39.2728 0.697 -0.648 -0.307 93 96 87
102.9405 326.3437 -36.5464 0.344 -0.921 -0.182 102 107 101
115.7132 338.4779 -38.1029 0.706 -0.074 0.704 77 79 76
122.8872 345.0892 -38.9497 -0.062 -0.978 -0.200 87 81 85
140.6276 328.0383 -36.5653 0.212 -0.515 0.831 57 58 44
214.9217 395.8090 -45.2418 -0.642 -0.720 -0.264 78 86 73
201.2018 330.6750 -36.5839 0.855 -0.407 0.322 65 72 64
223.8865 376.1184 -42.5519 0.437 -0.404 0.804 64 71 64
225.1142 333.7080 -36.8583 -0.179 -0.981 0.068 29 29 34
233.1844 347.1042 -38.6100 -0.726 -0.687 0.002 28 30 33
234.2684 347.9680 -38.7198 -0.724 -0.687 0.063 29 30 33
233.8483 345.9097 -38.4461 -0.740 -0.669 0.069 28 29 32
234.4105 345.7650 -38.4236 -0.244 -0.922 -0.301 28 29 32
235.9791 345.1154 -38.3279 0.262 -0.688 -0.677 28 29 32
221.8846 315.0571 -34.3753 -0.685 -0.697 0.213 17 21 22
244.3195 344.1535 -38.1528 0.074 -0.992 -0.107 20 19 24
249.1509 347.1019 -38.5214 0.578 -0.816 0.008 19 20 24
37.7645 334.2977 -38.6224 0.064 -0.882 -0.468 93 92 88
71.8440 414.2372 -49.3445 0.651 -0.601 -0.464 84 90 78
113.5339 320.6492 -36.3322 0.731 -0.064 0.679 82 84 81
117.1805 340.2269 -38.9846 0.784 -0.078 0.615 89 86 88
238.2138 388.5393 -44.8989 0.600 -0.534 -0.597 54 61 55
223.0087 345.8025 -39.1497 -0.795 -0.576 -0.191 46 54 49
217.7980 315.7905 -35.0815 -0.730 -0.675 -0.105 35 42 37
217.6372 311.1436 -34.4480 -0.691 -0.722 0.043 32 39 35
219.7457 311.9711 -34.5491 -0.704 -0.692 0.158 27 34 30
241.7491 339.4153 -38.1721 -0.339 -0.930 -0.146 25 28 28
243.6726 337.3496 -37.8792 -0.240 -0.956 -0.168 22 28 27
242.3993 334.0472 -37.4355 0.706 -0.704 0.078 21 27 26
246.2322 306.6228 -33.6697 0.691 -0.558 -0.459 41 45 44
199.0663 287.0561 -31.7815 -0.882 -0.461 -0.096 41 52 41
216.1516 312.4706 -35.2154 -0.445 -0.877 -0.180 39 51 39
217.8581 312.5197 -35.2125 -0.869 -0.468 0.162 34 46 36
225.5380 320.5937 -36.2905 0.583 -0.516 -0.628 29 42 31
240.5907 303.6018 -33.8428 0.507 -0.472 -0.721 29 33 32
239.2617 295.0804 -32.6662 -0.124 -0.968 0.219 41 45 44
219.4522 287.5818 -32.2549 -0.086 -0.753 -0.653 25 31 27
219.9148 287.5190 -32.2433 -0.086 -0.753 -0.653 24 30 26
270.8207 367.8985 -43.3131 -0.354 -0.654 0.668 22 28 26
190.0027 269.5107 -30.3479 -0.914 -0.382 -0.135 51 65 48
178.5956 229.9544 -24.7250 -0.164 -0.687 0.708 36 49 39
283.3434 393.4756 -47.6272 0.758 -0.650 -0.048 28 34 30
241.1724 298.5677 -34.2241 -0.054 -0.994 0.095 38 42 41
129.6592 274.8143 -31.9656 -0.545 -0.817 -0.190 58 76 54
132.7195 280.5121 -32.7808 0.952 -0.279 0.123 56 74 50
262.3107 453.6864 -57.3348 0.832 -0.457 0.314 73 88 65
154.5927 206.7257 -21.8527 -0.483 -0.342 0.806 70 85 62
219.5679 315.4452 -37.3669 0.755 -0.629 0.188 48 62 49
317.8483 473.3702 -59.8791 0.719 -0.645 -0.259 41 50 45
238.2684 297.2010 -34.5845 -0.404 -0.753 0.520 22 26 25
236.6051 293.0498 -33.9872 -0.458 -0.700 0.548 24 28 27
131.0894 272.0450 -32.0415 0.938 -0.335 0.090 63 81 57
135.6816 287.6168 -34.3298 0.602 -0.724 -0.337 62 80 56
203.9917 298.6894 -35.5570 -0.584 -0.746 -0.321 57 71 54
257.7446 342.6761 -41.7701 0.132 -0.307 0.943 34 40 40
236.4935 293.5585 -34.5938 -0.546 -0.658 0.519 27 29 28
148.9767 194.4356 -20.6840 -0.416 -0.412 0.811 80 95 72
208.9342 288.0967 -34.4723 0.217 -0.829 0.515 49 63 50
209.2649 286.8501 -34.2817 0.093 -0.921 0.379 51 63 53
247.6213 317.5781 -38.6885 0.276 -0.952 -0.132 35 39 41
195.2560 281.7277 -34.1025 -0.672 -0.419 0.611 67 84 66
208.3894 286.0541 -34.6838 0.206 -0.802 0.561 56 69 59
243.0194 346.4893 -43.7510 -0.018 -0.502 0.865 50 59 54
270.0597 354.0349 -44.7386 0.764 -0.564 -0.314 39 43 44
242.3123 307.3268 -37.7373 0.115 -0.991 0.069 37 41 39
244.8037 309.5172 -38.0580 0.476 -0.812 0.337 33 40 36
139.8286 302.2652 -38.1752 0.119 -0.609 0.784 69 87 63
205.6263 300.5871 -37.4882 0.737 -0.551 -0.392 71 85 68
232.0566 338.8528 -43.2919 0.050 -0.730 -0.682 64 80 66
239.5584 341.1900 -43.6084 -0.313 -0.451 0.836 49 62 52
241.7288 342.8531 -43.8540 0.016 -0.583 0.812 49 61 52
202.8074 294.7838 -37.1404 0.147 -0.878 -0.456 72 89 70
252.9978 376.0341 -49.6965 -0.172 -0.774 -0.609 70 87 69
244.6905 361.4364 -48.1363 -0.677 -0.615 -0.405 71 90 69
251.1632 365.9178 -48.8149 -0.149 -0.877 -0.457 72 91 69
205.3499 272.3658 -34.0535 -0.438 -0.875 -0.205 55 70 51
223.1972 296.6329 -37.8428 0.840 -0.539 0.071 49 67 53
244.6014 291.4659 -36.8679 0.527 -0.600 0.602 26 37 41
245.6828 292.2948 -36.9942 0.432 -0.658 0.617 26 37 42
89.6442 76.0483 -3.2210 0.078 -0.560 -0.825 107 93 127
251.4314 366.2717 -49.5822 -0.149 -0.877 -0.457 72 91 69
160.9040 181.1045 -19.9171 -0.473 -0.354 0.807 49 65 52
238.0757 340.2481 -46.0674 -0.682 -0.631 -0.370 72 91 69
221.2829 305.2803 -40.3787 -0.574 -0.793 -0.203 71 86 67
223.1231 272.1935 -35.3582 0.718 -0.638 0.279 45 63 47
170.2597 204.7320 -25.0100 0.580 -0.670 -0.464 67 83 70
171.0835 205.6050 -25.1554 0.519 -0.754 -0.402 67 83 70
275.9823 355.0610 -50.3171 0.601 -0.797 0.055 56 74 58
254.6069 308.5221 -42.4009 0.405 -0.740 -0.537 54 67 48
221.7563 274.1288 -37.1636 0.352 -0.743 -0.569 61 79 63
218.1584 267.0754 -35.9493 0.428 -0.548 -0.718 61 79 63
227.1039 273.7036 -37.0498 -0.702 -0.641 0.310 59 77 61
221.0406 272.1832 -37.3127 0.413 -0.674 -0.613 65 84 65
219.8416 269.5972 -36.8604 0.429 -0.546 -0.720 65 84 65
227.3113 276.7692 -38.0843 0.432 -0.524 -0.734 63 82 63
267.0904 328.2495 -46.9718 0.349 -0.915 -0.204 62 77 54
246.7247 315.6501 -45.4670 0.364 -0.424 0.829 72 90 73
224.3199 272.8324 -37.8921 0.481 -0.530 -0.698 66 85 66
226.0003 274.6779 -38.2132 0.480 -0.533 -0.697 67 86 67
277.9997 345.0802 -50.5544 -0.672 -0.689 0.272 71 85 63
264.3441 323.2391 -46.7071 0.477 -0.622 -0.621 71 86 64
275.0749 340.6411 -50.4249 -0.518 -0.753 0.407 71 88 66
261.1123 317.5583 -46.2996 0.437 -0.881 -0.184 70 87 68
203.4976 230.6960 -31.5871 0.486 -0.827 0.284 74 91 72
228.3342 280.7800 -41.3323 -0.633 -0.768 -0.100 81 100 81
46.6144 260.8386 -44.2591 -0.259 -0.836 0.483 66 70 55
46.6586 260.5786 -44.6850 -0.259 -0.836 0.483 66 70 55
46.7028 260.3191 -45.1102 -0.259 -0.836 0.483 68 71 59
45.8537 261.7992 -45.9359 -0.283 -0.774 0.566 69 72 61
48.8893 243.5240 -43.1040 -0.157 -0.852 0.500 58 57 52
55.4050 223.4488 -38.3538 0.614 -0.507 0.605 69 72 61
48.9854 243.0691 -43.4381 -0.164 -0.852 0.498 59 58 53
74.7112 232.3637 -40.6589 0.638 -0.379 -0.671 70 79 58
118.9204 223.8418 -38.2133 0.704 -0.710 0.018 87 105 83
119.4694 224.8271 -38.4404 0.687 -0.726 0.031 86 103 84
122.5689 246.6494 -44.4460 0.828 -0.365 -0.427 75 95 71
121.8359 229.2403 -40.2566 0.574 -0.815 0.083 81 98 78
122.6208 231.3226 -40.7507 -0.102 -0.877 0.469 80 97 77
51.3160 236.8563 -43.2271 0.611 -0.770 0.183 68 70 58
119.9164 224.9627 -39.6336 -0.248 -0.774 0.583 68 86 61
121.6845 228.3524 -40.4414 -0.474 -0.602 0.643 77 95 70
88.2676 77.7786 -4.1186 0.308 0.023 0.951 110 106 114
72.7983 224.8034 -40.4669 0.521 -0.838 -0.161 88 98 74
73.1373 225.1835 -40.5570 0.517 -0.854 -0.067 85 93 70
51.4488 236.1812 -43.9120 0.708 -0.666 0.235 63 66 53
51.7460 236.6808 -44.0331 0.705 -0.663 0.252 68 72 56
52.8836 233.6662 -43.2716 0.378 -0.786 0.489 75 79 62
72.1392 223.8903 -40.6409 0.154 -0.280 0.947 83 93 69
72.2591 225.9842 -41.1604 0.094 -0.328 0.940 82 92 68
73.5498 228.2402 -41.7081 -0.173 -0.584 0.793 78 86 63
61.0503 236.0119 -44.1948 0.687 -0.632 -0.359 62 70 49
72.6915 228.7849 -42.2573 0.269 -0.561 0.783 73 81 58
73.0439 229.1451 -42.3440 0.252 -0.560 0.789 73 81 58
73.5454 228.2313 -42.1092 -0.122 -0.606 0.786 73 81 58
125.1965 216.6896 -38.6687 -0.684 -0.715 -0.147 59 80 47
52.6211 229.5943 -43.0801 0.509 -0.354 0.785 61 68 52
60.7415 235.3855 -44.4639 0.671 -0.674 -0.307 73 80 62
52.7247 229.1114 -43.3650 0.509 -0.354 0.785 66 73 55
53.0889 229.2599 -43.3992 0.519 -0.445 0.730 74 78 63
55.9083 225.4860 -44.0012 0.743 -0.612 -0.272 68 82 59
55.7723 233.1068 -46.4545 0.074 -0.491 -0.868 71 79 55
113.1901 221.6672 -42.7313 -0.195 -0.608 -0.769 65 80 49
54.6685 223.5920 -47.0884 -0.268 -0.577 -0.771 69 79 54
55.0027 223.8187 -47.1500 -0.363 -0.577 -0.732 70 78 54
55.7462 220.6025 -46.9929 -0.143 -0.958 0.250 80 88 64
66.1860 221.8307 -47.2265 0.051 -0.811 -0.583 83 94 77
66.2451 223.7693 -47.7975 0.076 -0.809 -0.583 82 93 76
171.5503 221.7817 -45.9149 -0.541 -0.779 -0.317 66 85 55
169.8161 217.8308 -44.7712 -0.559 -0.823 -0.102 66 85 55
66.2426 221.4419 -47.5046 0.064 -0.808 -0.585 78 89 72
170.5352 219.7842 -45.7161 -0.194 -0.945 -0.263 70 89 59
68.7225 215.3913 -46.0517 -0.553 -0.812 -0.187 79 91 71
170.4215 219.4948 -46.0088 -0.228 -0.947 -0.228 76 92 63
165.8074 216.6278 -45.5770 -0.433 -0.463 0.773 76 92 63
170.7779 220.0953 -46.5637 -0.181 -0.945 -0.273 82 98 69
55.6158 206.5002 -44.2613 0.614 -0.648 0.450 67 80 54
166.4620 216.4706 -45.8918 -0.636 -0.415 0.650 81 100 70
170.8027 220.0680 -46.9346 -0.194 -0.945 -0.263 86 102 73
57.0054 202.4898 -43.3660 0.639 -0.577 0.509 70 80 56
86.7588 210.0246 -45.6664 0.530 -0.726 -0.438 70 85 52
131.0730 199.3967 -42.1233 0.396 -0.684 0.613 74 93 63
142.1378 218.0289 -47.8117 0.349 -0.528 0.775 69 86 52
153.8694 201.4857 -42.4792 0.432 -0.864 -0.258 76 96 68
128.2504 192.0228 -40.1642 0.930 -0.367 0.007 70 89 59
131.3307 197.1431 -41.7399 -0.527 -0.562 -0.637 70 86 57
153.5180 200.6796 -42.5637 0.395 -0.887 -0.239 73 93 65
154.4467 201.9711 -42.9591 0.423 -0.855 -0.301 74 94 66
131.9340 201.0379 -43.2973 -0.099 -0.799 -0.593 62 81 51
140.0171 212.6843 -46.8966 0.836 -0.192 0.513 69 86 52
153.6187 200.8261 -42.9416 0.395 -0.887 -0.239 63 87 55
154.5132 202.0444 -43.3174 0.245 -0.937 -0.251 63 87 55
74.1231 197.2016 -43.5105 0.028 -0.893 0.449 55 75 41
146.1053 214.9673 -48.2847 0.008 -0.532 0.847 80 95 74
174.6387 201.4307 -43.8531 0.536 -0.233 0.811 64 87 59
175.3636 202.0824 -44.0557 0.546 -0.243 0.801 64 86 58
176.3643 203.1616 -44.3940 0.540 -0.246 0.805 64 86 58
177.1633 203.9180 -44.6298 0.583 -0.261 0.770 64 86 58
180.5728 207.7178 -45.8225 0.582 -0.297 0.757 64 84 56
180.8097 207.5822 -45.7751 0.609 -0.294 0.737 64 84 56
73.6014 198.5306 -44.6213 -0.541 -0.840 0.034 59 78 50
75.6258 200.5112 -45.2446 -0.168 -0.763 -0.625 57 73 45
133.0536 199.2996 -44.0573 0.819 -0.537 0.203 61 76 47
112.4397 196.8883 -43.8766 0.644 -0.433 0.631 56 75 43
114.3243 204.3603 -46.3264 -0.135 -0.534 0.835 55 74 44
180.8047 203.5645 -45.1420 0.487 -0.811 -0.325 72 91 69
183.3624 203.6228 -45.1259 -0.452 -0.742 -0.496 70 89 67
115.4095 199.3899 -44.9997 0.389 -0.251 0.886 60 76 47
178.5379 201.9757 -44.9821 0.196 -0.759 -0.621 74 97 69
113.6645 202.2254 -46.3144 -0.217 -0.498 0.839 67 86 56
115.3352 197.2072 -44.6016 0.693 -0.354 0.628 68 84 55
132.3052 198.7156 -44.8706 -0.387 -0.805 0.450 73 89 62
114.9813 195.2343 -44.2676 0.282 -0.821 0.496 73 90 58
115.2782 195.1742 -44.2430 0.771 -0.395 0.500 73 90 58
129.9924 200.2337 -46.4248 0.719 -0.613 -0.326 72 91 61
74.8159 196.4467 -46.2486 0.153 -0.498 0.853 73 89 63
112.1681 194.7887 -45.1309 0.061 -0.638 0.767 68 89 58
113.5229 195.4946 -45.3563 0.261 -0.719 0.644 73 92 62
75.0198 194.8920 -46.0358 0.015 -0.664 0.747 69 85 59
75.3350 194.9009 -46.0343 0.015 -0.664 0.747 78 94 67
75.7482 194.1540 -45.7670 0.058 -0.660 0.749 78 94 67
85.4325 201.1866 -48.0852 0.043 -0.383 0.923 68 88 53
87.5734 187.4895 -43.2629 0.802 -0.368 0.471 65 87 51
112.4807 194.7427 -45.4356 -0.319 -0.569 0.758 61 80 50
114.1529 195.4834 -45.6703 0.419 -0.545 0.726 70 91 60
114.7420 195.3209 -45.6048 0.382 -0.472 0.795 72 91 61
115.1707 195.9618 -45.8228 0.467 -0.422 0.777 76 92 63
75.2330 193.2695 -45.7910 -0.173 -0.720 0.672 69 83 57
76.1961 193.0637 -45.7043 0.663 -0.749 0.015 73 87 61
113.9623 194.3480 -45.6003 0.384 -0.532 0.754 63 84 53
114.8124 192.3559 -44.8857 0.466 -0.292 0.835 73 89 60
127.0609 190.0995 -43.9100 0.921 -0.389 -0.033 56 75 47
69.7534 190.6712 -45.2760 0.843 -0.326 -0.428 75 89 66
111.8873 189.2793 -44.1561 0.265 -0.556 0.787 54 73 43
129.8256 197.1505 -47.3462 0.770 -0.418 0.482 60 79 51
152.8185 192.5619 -45.3461 -0.414 -0.825 -0.385 57 77 49
129.6909 196.6351 -47.4925 0.729 -0.437 0.527 65 84 56
153.8667 192.8241 -45.7419 -0.218 -0.641 -0.736 53 73 45
153.0525 192.3184 -45.8869 0.357 -0.598 -0.718 58 79 48
154.2584 193.5331 -46.3126 -0.185 -0.664 -0.724 53 74 43
79.7594 188.4428 -45.9052 0.063 -0.521 -0.851 74 88 65
154.3998 194.3375 -46.9263 -0.004 -0.761 -0.649 60 81 48
154.7144 194.3677 -46.9326 -0.188 -0.664 -0.723 60 81 48
89.1436 183.7223 -44.3231 -0.023 -0.888 0.459 60 80 45
152.9574 192.5927 -46.6235 0.037 -0.686 0.726 69 90 57
102.2616 186.8991 -45.6064 0.368 -0.690 0.623 68 88 53
102.5794 187.1806 -45.7066 0.221 -0.625 0.748 64 84 49
101.0971 186.8510 -45.9153 -0.172 -0.984 -0.035 62 79 45
101.3696 186.6165 -45.8228 -0.181 -0.983 -0.014 62 82 47
102.5466 186.7468 -45.8533 0.208 -0.623 0.754 64 84 49
160.1769 198.2383 -49.2702 -0.237 -0.958 0.165 61 80 60
101.1603 187.5550 -46.4900 -0.041 -0.601 0.798 57 74 40
101.5885 185.6856 -45.7748 -0.071 -0.630 0.774 56 76 41
102.4104 185.1998 -45.5776 0.148 -0.798 0.583 64 84 49
102.6520 184.7178 -45.3912 -0.182 -0.975 -0.129 64 84 49
160.7644 198.6924 -49.7657 0.272 -0.918 -0.287 61 80 60
161.4434 199.3754 -50.0138 0.298 -0.811 -0.503 61 80 60
77.7627 184.9380 -46.1761 0.653 -0.712 0.258 65 83 57
82.4149 188.8535 -47.5961 0.129 -0.615 -0.778 77 92 71
101.1761 184.1149 -45.4880 0.361 -0.566 0.741 51 71 36
101.4749 184.2731 -45.5436 0.357 -0.570 0.740 51 71 36
101.7718 184.4015 -45.5879 0.357 -0.570 0.740 51 71 36
102.3173 184.1196 -45.4716 0.188 -0.981 -0.041 57 77 42
102.5617 183.6926 -45.3047 -0.245 -0.863 -0.441 57 77 42
102.8392 183.6278 -45.2756 -0.265 -0.866 -0.423 57 77 42
159.7590 197.3309 -49.5963 0.131 -0.913 -0.387 73 92 72
160.6301 198.3789 -49.9824 0.473 -0.684 -0.555 72 91 71
161.2229 198.9034 -50.1731 0.484 -0.659 -0.576 71 90 70
161.8953 199.5698 -50.4167 0.480 -0.687 -0.546 71 90 70
162.3831 199.8923 -50.5319 0.288 -0.791 -0.539 70 89 68
162.8580 200.1887 -50.6375 -0.060 -0.843 -0.535 67 89 65
76.4318 183.9248 -46.1152 0.093 -0.969 0.229 72 91 63
83.4535 186.8960 -47.7683 -0.604 -0.429 -0.672 69 84 63
99.8140 184.7853 -46.6791 0.440 -0.574 0.691 55 70 39
82.7541 188.2555 -48.6258 0.111 -0.704 -0.701 54 69 46
98.2815 183.0822 -46.3411 0.449 -0.833 -0.324 58 77 45
99.4021 182.8704 -46.2396 0.082 -0.924 -0.375 57 72 41
99.7047 183.1476 -46.3434 0.555 -0.815 -0.166 58 73 42
100.0198 183.5778 -46.5070 0.563 -0.799 -0.212 61 76 45
100.2976 183.4858 -46.4663 0.571 -0.761 -0.309 61 76 45
77.8506 184.0399 -47.3582 0.537 -0.756 0.375 67 79 56
78.0977 184.4037 -47.4978 0.547 -0.753 0.366 67 79 55
99.3705 182.3194 -46.3227 -0.116 -0.898 -0.425 59 76 44
99.6463 182.2343 -46.2845 0.206 -0.965 -0.160 60 77 45
100.7643 185.7360 -47.6493 -0.098 -0.518 -0.850 66 83 51
124.2987 178.0201 -44.2122 0.334 -0.779 -0.531 54 79 40
124.0713 176.4048 -43.5779 -0.606 -0.795 0.040 54 79 40
98.3154 183.4834 -47.1023 0.132 -0.902 -0.412 61 81 46
99.3880 182.4906 -46.6896 -0.116 -0.898 -0.425 65 82 50
124.5386 179.5856 -45.4047 0.720 -0.593 -0.361 48 65 36
61.3320 189.0012 -50.5560 0.698 -0.275 0.661 63 79 52
61.8315 189.4585 -50.7320 0.534 -0.243 0.810 60 74 48
63.3700 186.9453 -49.6929 -0.804 -0.228 0.550 63 77 51
124.8038 179.5120 -45.6600 0.299 -0.805 -0.512 48 62 36
62.1067 188.3182 -50.5880 0.576 -0.286 0.766 74 88 62
62.7445 186.9862 -50.0366 -0.761 -0.279 0.585 71 85 59
63.5461 186.1778 -49.6950 -0.786 -0.254 0.564 69 83 57
62.2261 187.7969 -50.6936 0.648 -0.281 0.708 82 96 70
62.8347 186.5776 -50.1852 -0.697 -0.372 0.613 77 90 64
63.5632 186.0613 -49.9618 -0.767 -0.297 0.568 69 83 57
65.9986 184.5631 -49.3082 0.820 -0.555 -0.139 78 91 71
123.7336 178.5139 -45.8498 -0.631 -0.527 0.569 48 62 37
123.2427 178.6082 -46.1846 -0.542 -0.587 0.601 60 74 48
123.4685 178.4644 -46.1215 -0.542 -0.587 0.601 56 70 44
149.3710 153.3172 -35.3357 -0.481 -0.598 0.640 70 90 62
61.4599 188.3117 -51.5593 -0.040 -0.308 0.950 70 86 59
64.8166 183.2354 -49.4002 -0.664 -0.232 0.711 63 77 51
65.8651 183.7654 -49.6013 0.107 -0.392 0.914 68 80 58
69.7908 184.6985 -49.9195 0.590 -0.238 0.771 58 70 48
70.0866 184.6952 -49.9130 0.588 -0.237 0.773 56 68 48
150.7695 154.7048 -36.1025 -0.832 -0.539 0.134 69 89 61
64.2973 184.1267 -50.0881 -0.621 -0.395 0.678 58 72 47
65.8070 181.4595 -48.9506 -0.584 -0.307 0.752 59 73 48
80.7063 178.5953 -47.4976 0.739 -0.673 -0.011 65 78 58
80.9460 178.9733 -47.6508 0.750 -0.661 0.009 65 78 58
125.1085 176.7565 -45.9570 0.782 -0.592 -0.194 59 73 50
61.6562 187.4543 -51.8399 -0.850 -0.502 0.159 57 75 49
63.8452 183.5219 -50.1527 -0.646 -0.428 0.633 51 65 42
66.0871 180.2199 -48.7288 -0.606 -0.275 0.747 56 70 47
66.3488 180.3195 -48.7660 -0.107 -0.684 0.721 61 75 52
66.5516 180.6789 -48.9131 0.203 -0.541 0.816 61 73 53
66.8224 180.7456 -48.9364 0.203 -0.541 0.816 61 73 51
67.0889 180.8327 -48.9682 0.298 -0.586 0.753 62 74 52
81.0208 178.1943 -47.6173 0.765 -0.644 0.013 60 73 53
81.2569 178.6087 -47.7869 0.771 -0.458 -0.442 61 74 54
81.5566 181.3764 -48.9421 0.751 -0.403 -0.523 60 73 53
67.1880 179.0884 -48.5317 -0.181 -0.698 -0.693 56 68 48
81.0493 177.8782 -47.7760 0.780 -0.610 -0.137 54 67 47
81.6378 180.4662 -48.8577 0.773 -0.362 -0.521 56 69 49
68.1718 182.3930 -50.2145 -0.028 -0.494 -0.869 79 88 69
85.8205 176.2513 -47.2923 0.781 -0.554 -0.289 65 74 57
87.1697 182.9541 -50.1150 -0.256 -0.929 0.268 64 73 51
87.4516 183.0999 -50.1719 -0.329 -0.920 0.211 66 76 52
87.7439 182.9774 -50.1146 -0.374 -0.891 0.257 68 78 54
88.0350 182.8681 -50.0631 -0.247 -0.957 0.152 70 80 56
125.1455 175.8722 -46.4318 0.708 -0.613 -0.351 73 87 64
68.3295 182.9853 -50.7709 0.588 -0.806 -0.066 67 76 59
68.6167 183.0079 -50.7754 0.104 -0.926 0.362 68 77 60
69.2946 182.5382 -50.5625 -0.639 -0.465 0.612 72 81 64
69.6452 182.2350 -50.4267 -0.639 -0.465 0.612 74 83 66
75.1770 180.0723 -49.4033 0.292 -0.462 -0.837 53 66 49
87.2108 181.9506 -49.9907 -0.339 -0.891 0.303 68 77 55
87.5138 181.4842 -49.7859 -0.397 -0.812 0.429 73 83 59
87.8097 181.1488 -49.6373 -0.378 -0.821 0.429 80 90 66
68.2261 182.0490 -50.6780 0.556 -0.773 0.306 65 74 57
68.5078 182.0867 -50.6891 0.321 -0.909 0.267 65 74 57
69.0139 182.4464 -50.8347 -0.165 -0.602 0.781 65 74 57
80.6420 179.0675 -49.1718 0.770 -0.474 -0.427 52 65 45
80.8774 179.5060 -49.3562 0.703 -0.606 -0.371 46 59 39
87.2891 180.0393 -49.4701 0.101 -0.723 0.684 69 77 55
89.1248 174.0028 -46.8405 -0.722 -0.540 0.433 73 81 58
96.9456 177.5536 -48.2269 -0.802 -0.589 -0.096 65 79 54
98.7593 176.2145 -47.6183 0.712 -0.655 -0.252 60 75 56
73.5097 181.5217 -50.6596 0.226 -0.465 -0.856 60 73 55
79.1214 175.4176 -47.9157 -0.614 -0.420 0.668 60 72 48
80.8533 179.7161 -49.7449 0.703 -0.606 -0.371 46 59 39
81.7276 179.3775 -49.5825 -0.756 -0.655 0.003 43 56 36
86.6132 176.6280 -48.3038 -0.764 -0.645 0.001 62 71 54
87.3157 179.3916 -49.4873 -0.271 -0.636 0.723 68 77 55
88.3574 173.2135 -46.7942 -0.700 -0.653 0.289 84 94 70
88.8848 173.1504 -46.7573 -0.695 -0.639 0.330 77 87 63
89.1414 173.3837 -46.8536 -0.735 -0.539 0.412 78 88 64
96.9455 177.4571 -48.4753 -0.799 -0.593 -0.099 65 79 53
97.2020 177.1556 -48.3402 -0.797 -0.601 -0.064 63 77 51
66.9448 181.2132 -50.9489 -0.285 -0.748 -0.599 57 69 47
78.7338 174.1638 -47.6633 0.008 -0.648 0.762 58 70 52
80.5255 180.1396 -50.2335 0.775 -0.483 -0.407 52 65 46
85.1427 174.0751 -47.5078 0.864 -0.496 -0.083 53 61 46
86.8987 176.3284 -48.4572 -0.193 -0.708 0.679 63 69 55
87.3291 179.0635 -49.6407 -0.257 -0.649 0.717 70 79 59
88.3492 173.4742 -47.1875 0.295 -0.924 0.243 83 92 72
88.8718 173.6380 -47.2494 -0.482 -0.725 -0.493 83 92 71
89.1366 173.6033 -47.2294 -0.739 -0.540 0.402 81 90 70
96.9414 177.2769 -48.6871 -0.825 -0.558 0.089 66 78 54
97.1987 176.9990 -48.5614 -0.827 -0.558 0.063 63 75 51
78.5712 173.3130 -47.5770 -0.026 -0.655 0.755 50 58 43
78.8371 173.3097 -47.5707 -0.026 -0.655 0.755 49 57 41
80.2644 177.2900 -49.2890 0.802 -0.501 -0.325 55 64 47
80.3102 179.4703 -50.2438 0.770 -0.479 -0.422 47 56 39
88.6112 173.5434 -47.4936 0.452 -0.872 0.189 101 108 91
88.8693 173.7488 -47.5789 -0.458 -0.733 -0.502 99 106 89
97.2177 177.2782 -48.9726 -0.822 -0.556 0.122 60 72 50
97.9498 175.8732 -48.3433 -0.827 -0.556 0.087 47 59 35
118.8379 176.5380 -48.2512 -0.618 -0.762 0.193 61 81 46
152.9582 175.8785 -47.3358 -0.296 -0.439 0.848 75 93 67
78.8931 172.8317 -47.6403 -0.342 -0.542 0.768 48 54 40
80.2802 177.1118 -49.5023 0.800 -0.486 -0.351 51 57 43
80.4730 177.8915 -49.8426 0.302 -0.306 0.903 46 52 38
97.7150 176.3730 -48.8544 -0.833 -0.550 0.061 53 62 41
98.9659 178.9975 -49.9888 -0.361 -0.635 0.683 57 70 50
119.4086 177.6635 -49.0228 -0.529 -0.790 0.309 69 86 54
119.6257 177.4686 -48.9328 -0.709 -0.704 0.033 68 85 53
126.2744 177.4102 -48.7842 -0.544 -0.825 -0.156 69 85 59
78.9970 171.9736 -47.5381 -0.375 -0.532 0.759 47 53 39
80.5212 177.4022 -49.9187 0.349 -0.335 0.875 43 49 35
84.9835 176.5068 -49.4384 0.599 -0.517 -0.611 49 52 41
87.2599 174.2539 -48.3964 -0.908 -0.415 0.060 66 69 58
87.7842 174.4657 -48.4806 -0.109 -0.444 0.889 69 75 61
97.4679 176.6971 -49.2908 -0.525 -0.314 0.791 60 69 50
97.6877 175.7990 -48.8882 -0.504 -0.321 0.802 59 68 49
117.6556 173.8200 -47.6388 -0.622 -0.320 0.714 52 68 41
118.8521 176.4762 -48.7953 -0.666 -0.622 0.412 54 70 42
119.0389 176.1729 -48.6572 -0.651 -0.690 0.317 67 83 54
119.1492 174.5843 -47.9502 -0.739 -0.650 0.177 68 84 55
126.2783 177.3648 -49.0516 -0.567 -0.815 -0.122 63 79 53
83.5478 177.4229 -50.1644 -0.545 -0.506 -0.669 49 52 41
84.5295 175.1693 -49.1398 -0.334 -0.539 -0.773 38 41 30
84.9421 177.1349 -50.0097 0.599 -0.517 -0.611 50 53 42
88.5403 175.9102 -49.3956 0.392 -0.603 -0.695 53 59 45
105.0970 175.1726 -48.7566 -0.282 -0.927 -0.248 63 79 53
112.9313 178.7634 -50.2133 -0.221 -0.215 0.951 71 88 52
113.1875 178.6818 -50.1721 -0.221 -0.215 0.951 71 88 52
113.4433 178.6003 -50.1309 -0.221 -0.215 0.951 71 88 53
113.9823 178.5776 -50.1107 0.681 -0.556 0.477 67 84 51
114.4147 179.3496 -50.4473 0.681 -0.587 0.439 67 84 50
117.6217 173.6274 -47.8324 -0.622 -0.322 0.714 51 64 43
69.2178 174.5037 -49.4158 -0.851 -0.462 -0.248 46 58 46
83.4859 178.2038 -50.8094 -0.529 -0.531 -0.661 51 54 43
83.8286 177.3257 -50.4085 -0.527 -0.533 -0.662 49 52 41
84.7763 175.4881 -49.5652 -0.373 -0.551 -0.746 48 51 40
86.6851 175.1047 -49.3570 -0.823 -0.562 -0.084 51 54 43
104.3286 175.3261 -49.1244 0.191 -0.978 -0.080 53 67 42
104.6132 175.4819 -49.1890 0.194 -0.972 -0.131 53 67 42
105.2407 176.2323 -49.5144 0.259 -0.948 -0.183 64 78 53
69.7451 173.2680 -49.1343 -0.849 -0.466 -0.248 59 71 57
70.3824 172.7830 -48.9030 -0.526 -0.687 0.501 58 71 53
83.5555 177.2757 -50.6841 -0.607 -0.658 -0.445 52 55 44
84.1896 176.1084 -50.1445 -0.599 -0.652 -0.465 52 55 44
84.4892 175.7113 -49.9594 -0.591 -0.665 -0.457 52 55 44
84.7522 175.8305 -50.0083 -0.320 -0.737 -0.595 52 55 44
85.6213 174.8873 -49.5655 0.875 -0.158 0.459 60 63 52
85.8576 175.4595 -49.8197 0.875 -0.158 0.459 60 63 52
86.0869 176.2170 -50.1577 0.875 -0.162 0.457 59 62 51
119.3224 172.1733 -47.7008 0.687 -0.279 0.671 68 85 53
70.2042 172.3261 -48.9811 -0.362 -0.762 0.537 62 74 58
83.8410 177.1137 -50.8982 -0.629 -0.627 -0.459 54 57 46
84.1635 176.4504 -50.5904 -0.599 -0.652 -0.465 59 62 51
84.7089 176.4610 -50.5849 -0.294 -0.737 -0.608 58 61 52
84.8643 178.2946 -51.4157 0.756 -0.483 -0.442 59 62 53
102.7525 168.2606 -46.5125 0.624 -0.597 -0.503 60 74 51
104.9882 172.1039 -48.2174 0.387 -0.784 -0.485 66 81 58
84.4856 175.7218 -50.5421 -0.834 -0.438 -0.335 64 67 56
102.8682 169.2241 -47.2175 0.626 -0.597 -0.501 66 80 55
118.1760 171.5705 -47.9975 -0.865 -0.338 0.372 57 73 43
97.2933 178.0047 -51.6352 -0.092 -0.929 -0.359 64 78 55
104.7625 172.2229 -48.8304 0.574 -0.719 -0.391 77 93 66
77.2619 174.7711 -50.8212 0.762 -0.419 -0.493 63 72 55
84.4693 175.9157 -51.2113 -0.941 -0.304 -0.147 51 60 43
97.3388 178.7955 -52.2948 -0.111 -0.891 -0.440 60 74 49
97.6518 170.0572 -48.2435 -0.696 -0.711 -0.101 74 90 64
77.1914 175.2414 -51.3298 0.762 -0.419 -0.493 62 71 54
97.0282 178.0048 -52.2296 -0.363 -0.926 0.102 58 74 48
152.5885 176.9409 -50.6499 -0.631 -0.681 -0.373 68 91 63
97.2744 177.3562 -52.2160 -0.160 -0.969 -0.191 58 74 48
151.7153 176.2653 -50.6363 -0.614 -0.633 -0.471 62 85 57
84.9592 172.5957 -50.5096 -0.787 -0.533 -0.309 49 58 41
85.6115 170.5689 -49.5417 -0.845 -0.438 -0.307 64 70 58
92.3102 170.2188 -49.2445 -0.735 -0.584 0.345 63 76 50
111.8008 168.6674 -48.1286 0.612 -0.548 0.570 64 83 54
151.9422 176.1556 -50.8644 -0.652 -0.626 -0.428 59 79 52
69.0472 171.2825 -50.4854 0.083 -0.982 -0.169 70 82 60
85.0068 171.8646 -50.4443 -0.443 -0.729 -0.522 42 50 35
68.8384 170.9999 -50.6355 0.462 -0.887 -0.013 67 79 57
69.1185 170.9264 -50.5949 0.431 -0.902 -0.006 66 78 56
109.8725 167.5253 -48.1593 -0.103 -0.825 0.556 57 71 48
110.1111 167.4884 -48.1370 -0.093 -0.836 0.541 55 69 46
110.3391 167.3977 -48.0891 0.628 -0.679 0.380 54 70 44
69.3080 168.9047 -49.9016 -0.365 -0.780 0.508 64 76 54
85.3604 170.4037 -50.2978 0.176 -0.358 0.917 46 54 38
92.5429 166.4241 -48.2453 0.555 -0.625 0.549 58 71 45
166.4331 171.9701 -49.4197 0.192 -0.682 -0.706 60 83 54
85.3647 170.3189 -50.5336 0.360 -0.471 0.805 46 54 39
93.7847 166.7280 -48.6318 -0.773 -0.570 -0.280 57 69 47
100.4879 149.3888 -40.1346 0.803 -0.510 0.308 75 92 60
110.0892 167.2589 -48.5583 -0.241 -0.840 0.486 46 60 37
84.9137 169.3512 -50.3503 0.707 -0.560 0.431 42 50 35
93.0456 166.7617 -48.9291 0.703 -0.709 -0.054 46 58 36
93.5473 167.1142 -49.0899 -0.471 -0.730 -0.495 46 58 36
110.2266 170.6033 -50.4430 -0.570 -0.666 -0.481 57 71 48
110.3516 169.9148 -50.1066 -0.539 -0.732 -0.418 53 67 44
111.5031 165.7536 -48.0650 -0.481 -0.139 0.866 44 63 33
165.7384 170.9270 -49.4716 0.332 -0.918 -0.216 50 73 44
166.0632 171.0379 -49.5188 0.268 -0.951 -0.152 46 66 38
166.3689 171.1224 -49.5535 0.300 -0.939 -0.167 46 66 38
166.6496 171.1728 -49.5723 0.341 -0.937 -0.076 47 67 39
167.2605 171.6651 -49.7986 0.389 -0.918 -0.077 48 68 40
167.9584 172.2702 -50.0779 0.414 -0.901 -0.129 50 70 42
94.0239 166.1302 -48.8675 -0.746 -0.593 -0.304 55 67 47
103.4824 167.3860 -49.2867 -0.421 -0.610 0.671 77 92 63
110.4895 170.5930 -50.7077 -0.571 -0.674 -0.469 52 66 43
110.4724 166.5969 -48.7588 -0.239 -0.777 0.582 42 58 31
166.5815 171.0313 -49.7747 0.053 -0.897 0.439 46 66 38
166.9134 171.1503 -49.8259 0.280 -0.960 -0.009 46 66 38
167.0614 171.0233 -49.7609 0.385 -0.921 0.065 46 66 38
75.6792 172.4130 -52.5915 0.282 -0.520 0.806 47 56 39
88.9679 170.6859 -51.4711 -0.776 -0.587 0.230 53 65 45
103.2090 167.1013 -49.4197 -0.692 -0.424 0.584 74 88 62
110.6101 166.0052 -48.7299 -0.141 -0.764 0.629 48 64 37
165.4617 170.7811 -49.9448 0.310 -0.878 0.364 53 76 47
165.7961 170.9053 -49.9989 0.043 -0.905 0.424 52 75 46
166.0118 170.8685 -49.9764 -0.570 -0.583 0.578 48 68 40
166.3629 171.0142 -50.0407 -0.576 -0.562 0.594 46 66 38
166.5625 170.9558 -50.0079 -0.296 -0.707 0.642 46 66 38
166.6262 170.7162 -49.8890 -0.010 -0.946 0.325 46 66 38
166.7892 170.6104 -49.8338 0.349 -0.932 0.099 46 66 38
83.6360 163.3857 -48.2582 0.886 -0.388 0.254 41 47 35
88.9795 170.2945 -51.5560 -0.736 -0.648 0.197 47 59 39
102.7414 167.2630 -49.7759 -0.695 -0.411 0.590 71 85 60
116.0572 163.6917 -47.7387 0.188 -0.611 -0.769 72 87 59
166.2048 171.7409 -50.6725 -0.784 -0.441 0.436 53 76 47
166.2833 171.5152 -50.5596 -0.792 -0.439 0.425 53 76 47
166.2876 171.1909 -50.3995 -0.799 -0.435 0.415 48 68 40
166.5575 171.2261 -50.4113 -0.803 -0.424 0.419 46 66 38
75.8511 171.2520 -52.5815 0.063 -0.810 0.583 57 66 49
103.1308 166.3163 -49.5656 -0.686 -0.722 0.088 63 77 51
103.3366 165.9947 -49.4017 -0.352 -0.625 0.697 61 75 49
104.2022 167.0351 -49.8999 0.487 -0.434 0.758 60 76 49
110.1773 170.1004 -51.2963 -0.829 -0.476 -0.293 75 94 64
109.8634 164.5311 -48.5399 -0.508 -0.716 0.478 62 76 50
112.1333 165.1046 -48.7772 -0.720 -0.690 -0.076 45 58 32
151.2677 170.2205 -50.5014 -0.145 -0.952 0.271 69 84 61
166.3398 171.8738 -51.0081 -0.789 -0.562 0.249 58 81 52
165.7898 170.4691 -50.3227 -0.899 -0.303 0.317 52 72 44
165.8136 170.1756 -50.1765 -0.818 -0.412 0.402 46 66 38
75.4641 168.7841 -51.6404 0.228 -0.465 -0.855 61 70 53
75.6100 169.4656 -51.9773 0.239 -0.468 -0.851 62 71 54
75.8062 171.4994 -52.9878 0.601 -0.454 -0.658 65 74 57
76.4035 171.0494 -52.7508 -0.383 -0.923 -0.034 67 74 56
76.6126 171.4071 -52.9249 -0.393 -0.759 -0.519 66 70 53
83.2823 161.9466 -48.0657 0.882 -0.393 0.261 57 63 51
103.5063 165.3341 -49.3327 0.659 -0.414 0.628 59 73 47
103.8580 166.1995 -49.7571 0.648 -0.401 0.647 59 73 47
104.1602 166.6479 -49.9745 0.630 -0.399 0.667 57 73 46
104.6727 166.8080 -50.0436 -0.266 -0.545 0.795 54 72 46
110.3016 169.3556 -51.1969 -0.815 -0.471 -0.338 79 95 66
151.4371 170.4533 -50.8842 -0.126 -0.934 0.335 68 83 60
166.3350 171.8167 -51.2528 -0.787 -0.583 0.203 68 91 63
166.1478 171.2312 -50.9646 -0.845 -0.439 0.305 68 91 63
165.7010 170.2995 -50.5091 -0.899 -0.305 0.314 63 86 58
166.4563 170.0180 -50.3529 -0.505 -0.863 0.023 47 70 43
110.3067 169.3245 -51.4540 -0.808 -0.481 -0.339 80 96 69
165.9544 170.5913 -50.9192 -0.890 -0.384 0.245 66 89 61
165.7302 169.0024 -50.1268 -0.480 -0.862 0.162 52 75 49
112.3229 164.7124 -49.3578 -0.445 -0.850 -0.283 56 72 44
164.7198 167.5612 -49.9488 -0.422 -0.882 0.211 61 84 58
164.4748 167.1873 -50.0256 -0.596 -0.781 0.189 65 88 62
138.9346 163.4625 -49.1804 -0.263 -0.531 -0.805 66 81 62
132.1576 162.6728 -49.4264 0.593 -0.640 0.488 72 90 64
132.5565 163.0554 -49.6171 0.592 -0.651 0.475 72 90 64
133.0630 163.6765 -49.9297 0.635 -0.621 0.459 72 90 64
133.2409 163.5539 -49.8620 -0.665 -0.452 0.594 72 90 65
133.4158 163.4264 -49.7917 -0.655 -0.449 0.608 72 91 64
132.1314 162.5647 -49.6240 0.512 -0.508 0.693 63 81 55
133.0080 163.5036 -50.0968 0.631 -0.618 0.468 67 85 59
132.5566 162.9584 -50.0757 0.602 -0.644 0.472 57 75 49
133.5206 163.5623 -50.3725 -0.845 -0.448 0.292 57 76 48
133.8348 163.2309 -50.1910 -0.817 -0.451 0.360 71 89 63
134.0060 163.0989 -50.1177 -0.686 -0.397 0.610 71 89 63
134.0160 162.6176 -49.8639 0.087 -0.514 0.853 71 90 62
138.5647 162.5432 -49.7242 0.746 -0.574 0.337 53 67 50
133.3653 163.6858 -50.6980 -0.847 -0.439 0.300 58 76 50
133.4997 163.4669 -50.5790 -0.845 -0.448 0.292 57 76 48
133.7467 161.9832 -49.7876 -0.078 -0.558 0.826 68 87 59
133.3696 160.6723 -49.1016 0.215 -0.439 0.872 68 87 60
135.0425 163.7904 -50.7161 -0.270 -0.319 0.909 68 88 63
138.8008 163.4128 -50.4326 0.485 -0.198 0.852 64 78 61
138.8361 163.0286 -50.2283 0.452 -0.180 0.874 53 67 50
133.9779 162.4383 -50.2771 0.130 -0.369 0.920 64 83 55
138.4145 162.6026 -50.2655 0.474 -0.200 0.858 64 78 61
138.4025 162.1296 -50.0139 0.743 -0.565 0.358 53 67 50
138.3094 161.8994 -50.1452 0.695 -0.682 0.228 54 68 51
138.7701 162.3550 -50.3788 0.737 -0.588 0.334 52 66 49
86.2327 164.0958 -52.7545 0.532 -0.792 -0.299 61 73 49
92.5521 161.7907 -51.3714 0.638 -0.739 0.215 56 68 44
92.7942 162.2324 -51.6037 0.632 -0.699 0.336 57 69 45
93.6890 159.5587 -50.1447 -0.911 -0.398 -0.109 70 79 58
97.9849 161.6813 -51.1900 -0.067 -0.706 -0.705 59 68 47
98.2239 161.7288 -51.2102 -0.087 -0.702 -0.707 57 69 47
102.1250 162.9430 -51.7755 -0.219 -0.944 0.247 65 79 54
133.5586 161.4304 -50.2521 -0.091 -0.612 0.786 56 72 46
133.7403 161.3319 -50.1950 -0.087 -0.616 0.783 56 72 46
138.1129 161.4666 -50.1688 0.587 -0.787 -0.189 58 72 55
86.2558 163.6919 -52.8002 -0.613 -0.641 0.462 72 86 60
92.5542 161.7756 -51.6207 0.612 -0.771 0.173 56 69 43
93.0251 161.5235 -51.4736 0.134 -0.599 0.790 73 86 60
93.6936 159.6465 -50.4431 -0.910 -0.400 -0.113 96 105 81
94.8775 160.4399 -50.8454 -0.107 -0.614 0.782 59 66 48
97.9759 161.4782 -51.3368 0.151 -0.943 -0.298 65 74 53
98.4290 161.2424 -51.1989 0.266 -0.877 -0.401 63 75 53
98.7123 161.8842 -51.5397 -0.030 -0.596 -0.803 62 74 52
98.9624 162.0622 -51.6303 -0.180 -0.724 -0.665 59 71 49
139.4977 163.2285 -51.3416 0.737 -0.356 0.575 61 75 58
92.8005 162.3727 -52.1974 0.471 -0.664 0.581 60 72 48
93.0254 161.3690 -51.6465 0.129 -0.598 0.791 82 94 70
93.2598 161.2603 -51.5820 -0.835 -0.537 0.120 92 104 80
93.4899 160.9647 -51.4160 -0.834 -0.538 0.120 105 117 93
93.9185 159.2609 -50.4797 -0.909 -0.402 -0.109 61 70 49
97.9196 160.5834 -51.1076 0.208 -0.851 -0.481 71 80 59
