ply
format ascii 1.0
element vertex 854
property float x
property float y
property float z
property float nx
property float ny
property float nz
property uchar diffuse_red
property uchar diffuse_green
property uchar diffuse_blue
end_header
366.4506 130.1917 -44.0444 -0.708 0.236 -0.666 78 62 63
377.8802 116.8481 -46.7908 -0.139 -0.522 0.841 106 87 86
370.8527 109.3889 -45.7492 -0.851 -0.162 -0.499 104 90 90
364.5899 105.7802 -44.6953 -0.688 -0.152 -0.709 101 83 83
349.2393 87.5524 -42.4998 -0.823 -0.366 -0.434 108 90 86
354.3476 80.0822 -43.7896 -0.791 -0.070 -0.608 73 59 59
356.0940 66.3985 -44.6902 -0.412 -0.891 0.192 93 77 78
356.1517 65.8311 -44.7247 -0.419 -0.891 0.175 88 72 73
343.5108 62.7396 -42.4245 -0.990 -0.012 -0.144 89 73 74
342.9999 62.0934 -42.3530 -0.932 -0.120 -0.343 89 73 74
342.7542 61.5020 -42.3303 -0.933 -0.120 -0.339 84 68 69
351.4061 54.8024 -44.2688 -0.874 0.237 -0.425 70 55 60
351.1906 51.4704 -44.3650 -0.431 -0.854 0.292 78 59 61
355.5163 49.3059 -45.2853 -0.250 -0.964 -0.088 81 62 68
356.0012 47.1546 -45.4673 -0.885 -0.064 -0.461 66 47 53
355.3326 43.7849 -45.4781 -0.841 0.460 -0.285 72 60 62
356.8264 41.7519 -45.8489 -0.632 0.577 -0.517 93 77 80
355.5385 41.0842 -45.6292 -0.674 0.658 -0.336 88 76 78
354.2299 39.8830 -45.4274 -0.629 0.763 -0.148 91 85 87
353.4681 39.2788 -45.3061 -0.629 0.763 -0.148 104 95 98
354.2318 38.2723 -45.4943 -0.705 -0.247 0.665 111 102 105
354.0444 37.7218 -45.4811 -0.538 -0.406 0.739 89 80 83
354.0276 37.1862 -45.5000 -0.535 -0.407 0.740 70 61 64
358.9825 30.0092 -46.7481 -0.345 -0.932 -0.113 59 46 55
354.3730 27.7060 -45.9579 -0.850 -0.111 0.514 82 66 76
357.2142 25.1779 -46.6080 -0.954 0.264 0.140 119 102 108
357.2506 22.5641 -46.7230 -0.983 0.117 0.140 105 91 91
357.4742 22.0459 -46.7874 -0.941 0.256 0.221 102 90 90
357.5831 21.5263 -46.8297 -0.972 0.172 0.161 97 85 85
358.5094 20.4913 -47.0504 -0.596 -0.532 0.602 88 76 76
381.9943 18.8912 -51.6273 0.004 -0.907 0.421 64 52 52
373.3051 17.8033 -50.0033 -0.577 0.102 -0.811 82 68 68
352.6181 11.9228 -46.2728 -0.332 -0.853 -0.403 102 75 78
351.5222 11.4646 -46.0812 -0.238 -0.940 -0.243 97 77 78
358.1040 8.2006 -47.4802 -0.602 -0.178 -0.779 78 69 68
358.3442 7.6851 -47.5476 -0.602 -0.178 -0.779 83 73 72
357.3040 7.2358 -47.3664 -0.526 -0.317 -0.790 90 78 78
359.7758 3.0790 -48.0129 -0.917 0.353 -0.188 97 82 85
336.7972 3.3173 -43.5895 -0.527 -0.827 -0.197 97 82 85
337.6835 2.7987 -43.7812 -0.527 -0.827 -0.197 96 81 84
359.6760 -1.3935 -48.1784 -0.407 -0.467 0.785 74 68 75
359.2440 -1.8489 -48.1143 -0.436 -0.473 0.766 72 68 78
359.7834 -4.3614 -48.3217 -0.668 -0.686 0.289 60 57 66
359.7520 -4.8490 -48.3358 -0.673 -0.691 0.265 70 67 74
365.1701 -7.4092 -49.4822 -0.964 0.121 0.239 77 79 94
364.4816 -7.8300 -49.3673 -0.947 0.183 0.265 71 74 89
364.3872 -8.3158 -49.3693 -0.947 0.183 0.265 98 100 115
364.1181 -8.7801 -49.3368 -0.921 0.013 0.388 140 142 157
278.4004 -20.8290 -33.3705 -0.868 -0.070 0.491 103 110 128
270.1598 -20.0352 -31.7550 -0.635 0.752 0.174 73 81 104
244.7170 189.0337 -18.6388 -0.344 -0.490 0.801 53 51 61
396.8363 331.6529 -42.4300 -0.851 -0.338 0.403 54 52 53
396.9507 327.4097 -42.6245 -0.938 0.024 0.347 53 51 52
390.8865 314.1776 -41.9823 -0.813 0.570 0.116 55 49 53
385.0341 305.6260 -41.1914 -0.899 0.437 0.016 81 72 77
384.3402 303.8382 -41.1291 -0.899 0.438 0.013 81 72 77
385.7579 304.3671 -41.3833 -0.923 0.362 -0.132 75 66 71
385.6883 300.2015 -41.5388 -0.368 -0.696 0.617 96 87 90
384.5727 293.9494 -41.5756 -0.936 0.097 0.339 76 67 70
384.0352 289.3812 -41.6565 -0.955 -0.279 -0.097 65 56 59
385.3927 289.7967 -41.9036 -0.763 0.128 -0.634 66 57 59
384.9134 288.3015 -41.8711 -0.755 0.386 -0.531 68 60 59
383.5997 285.9511 -41.7111 -0.755 0.386 -0.531 74 66 64
384.9416 286.3418 -41.9562 -0.776 0.145 -0.614 70 62 59
387.7330 285.2114 -42.5448 -0.895 0.234 -0.381 66 58 55
387.6916 284.1741 -42.5789 -0.904 0.235 -0.357 61 53 50
387.1794 282.6657 -42.5405 -0.894 0.232 -0.384 54 46 43
385.9187 269.6892 -42.8221 -0.964 0.107 0.245 77 70 64
385.3026 266.2151 -42.8433 -0.938 -0.176 0.299 67 60 54
383.0031 259.3036 -42.6767 -0.979 -0.073 0.188 62 55 49
382.1352 257.5580 -42.5787 -0.847 -0.400 0.351 59 52 46
380.6361 252.4551 -42.4944 -0.749 -0.040 -0.661 51 43 40
379.2768 248.4610 -42.3922 -0.913 -0.406 -0.046 60 55 52
380.1647 248.3437 -42.5696 -0.916 -0.401 -0.014 61 56 53
381.9995 240.8320 -43.2312 -0.881 -0.339 0.331 69 60 55
383.7910 238.7313 -43.6649 -0.332 -0.209 0.920 83 74 69
370.5414 212.2103 -42.1649 -0.431 0.450 0.782 88 77 71
366.9778 207.7637 -41.6524 -0.420 0.459 0.783 98 87 81
369.7512 209.0947 -42.1377 -0.658 0.455 0.599 102 91 87
370.4969 208.8419 -42.2930 -0.437 -0.867 -0.241 101 90 86
373.0984 207.5050 -42.8531 -0.450 -0.030 0.892 87 76 72
372.6522 204.6754 -42.8812 -0.449 -0.035 0.893 73 60 57
372.5993 166.3981 -44.4245 -0.796 -0.130 -0.590 115 96 90
373.0033 165.1054 -44.5555 -0.815 -0.103 -0.570 119 100 94
372.3315 163.9478 -44.4719 -0.817 -0.096 -0.569 90 71 65
372.2471 163.1374 -44.4884 -0.986 0.163 0.030 61 42 36
372.1085 162.2973 -44.4955 -0.986 0.163 0.030 98 81 74
368.2986 157.8556 -43.9350 -0.638 0.064 0.767 91 76 71
370.1775 152.2295 -44.5287 -0.528 0.196 0.826 111 96 91
362.1787 141.5033 -43.4086 -0.865 -0.440 0.240 114 94 87
367.8426 138.6856 -44.6244 -0.777 -0.233 -0.585 97 78 74
367.6591 137.8837 -44.6213 -0.776 -0.243 -0.581 97 78 74
357.8172 116.3383 -43.5820 -0.186 -0.869 0.459 97 78 84
365.3802 116.1143 -45.0617 -0.030 -0.930 0.365 80 60 59
378.4009 114.3190 -47.6665 -0.156 -0.510 0.846 101 87 87
361.2153 104.6276 -44.7181 -0.833 0.175 -0.525 95 77 77
356.5730 91.0741 -44.3655 -0.646 0.250 -0.721 79 61 57
351.1763 86.4022 -43.5057 -0.812 -0.379 -0.443 93 78 75
351.6687 85.3523 -43.6440 -0.818 -0.383 -0.429 82 67 64
354.7487 83.8362 -44.3045 -0.726 0.061 -0.685 98 83 80
352.6869 75.5775 -44.2388 -0.774 0.422 -0.471 60 53 60
348.9498 70.6449 -43.7123 -0.690 0.009 -0.724 68 58 56
358.2624 70.4131 -45.5326 -0.266 -0.934 -0.240 81 70 68
358.0386 67.4268 -45.6103 -0.875 0.354 -0.331 94 78 79
356.0748 65.8620 -45.2919 -0.861 0.023 -0.508 81 65 66
355.9802 59.5286 -45.5306 -0.659 -0.685 0.312 64 49 52
356.4381 59.0381 -45.6395 -0.659 -0.685 0.312 65 50 53
356.3237 47.2313 -46.0965 -0.885 -0.064 -0.461 89 70 76
356.2507 46.6699 -46.1051 -0.883 -0.102 -0.458 86 67 73
356.1655 45.0075 -46.1560 -0.405 -0.829 0.386 122 107 110
356.0726 44.4481 -46.1606 -0.864 0.442 -0.242 108 93 96
356.1962 39.0097 -46.4054 -0.590 -0.433 0.682 99 88 92
354.0210 38.2884 -46.0117 -0.706 -0.239 0.667 90 81 84
352.9603 37.6678 -45.8307 -0.823 -0.054 0.566 86 77 80
353.8110 37.2023 -46.0150 -0.539 -0.414 0.734 75 66 69
357.3396 23.1144 -47.2729 -0.992 0.018 -0.124 97 82 85
357.4594 21.5518 -47.3597 -0.989 -0.136 -0.050 110 98 98
371.8681 17.8388 -50.3121 -0.282 -0.851 0.442 77 63 63
372.1473 17.2893 -50.3887 -0.300 -0.875 0.381 78 62 62
356.0936 13.8552 -47.4065 -0.621 -0.094 -0.778 97 77 78
352.0420 11.4684 -46.7155 -0.240 -0.942 -0.233 97 77 78
359.0278 8.1777 -48.2075 -0.532 -0.320 -0.784 84 75 73
358.0018 7.7231 -48.0264 -0.526 -0.317 -0.790 89 79 78
358.4972 7.1944 -48.1442 -0.526 -0.317 -0.790 95 83 83
357.7217 6.7331 -48.0121 -0.470 -0.473 -0.745 100 88 88
360.8333 3.5287 -48.7472 -0.894 0.435 -0.102 99 87 89
359.5037 3.1170 -48.5054 -0.924 0.347 -0.159 102 87 90
356.7494 2.8132 -47.9821 -0.746 0.575 -0.336 102 87 90
356.7310 2.3210 -47.9986 -0.740 0.613 -0.277 103 88 91
354.8892 1.4788 -47.6746 -0.746 0.571 -0.343 101 86 89
358.3399 -1.2581 -48.4567 -0.403 -0.504 0.764 78 72 79
358.2118 -2.2293 -48.4712 -0.463 -0.468 0.753 75 72 81
359.2623 -4.2926 -48.7592 -0.458 -0.770 0.445 68 65 74
358.9859 -4.7541 -48.7242 -0.466 -0.766 0.443 74 71 78
361.5851 -6.5023 -49.3006 -0.998 -0.034 -0.057 78 77 93
365.3334 -7.4118 -50.0663 -0.995 0.096 0.000 77 79 94
364.5457 -7.8219 -49.9298 -0.957 0.168 0.239 70 73 88
324.8822 -13.9356 -42.4653 -0.938 -0.258 -0.232 170 175 195
276.6691 -19.5137 -33.3166 -0.754 -0.655 0.057 119 125 141
390.1265 314.5793 -42.6616 -0.886 0.379 -0.269 58 49 54
384.6700 305.4119 -41.9531 -0.907 0.421 0.028 77 68 73
383.6664 303.2841 -41.8404 -0.900 0.435 0.010 74 65 70
385.0466 288.6151 -42.6969 -0.812 0.185 -0.554 68 60 59
385.6920 286.2925 -42.9166 -0.776 0.145 -0.614 57 49 46
389.3589 289.0421 -43.5287 -0.781 0.279 -0.559 53 45 42
388.7418 284.4087 -43.5920 -0.849 0.435 0.299 62 54 51
385.6569 278.3570 -43.2261 -0.853 0.426 0.300 95 87 84
385.0630 269.0304 -43.4810 -0.582 0.126 0.803 93 86 80
384.5466 266.6152 -43.4757 -0.582 0.126 0.803 98 91 85
383.7101 264.8638 -43.3808 -0.581 0.127 0.804 118 111 105
384.0532 264.2360 -43.4734 -0.796 0.355 0.490 124 117 111
383.3846 262.6540 -43.4049 -0.722 0.431 0.542 113 106 100
382.3185 260.7056 -43.2727 -0.722 0.431 0.542 87 80 74
382.8593 260.2689 -43.3966 -0.825 0.353 0.441 67 60 54
383.7801 260.1837 -43.5812 -0.930 -0.125 0.345 69 62 56
383.1858 258.6881 -43.5239 -0.950 -0.270 0.160 67 60 54
383.3884 257.9347 -43.5938 -0.950 -0.270 0.160 61 54 48
384.6100 258.1192 -43.8269 -0.919 -0.122 0.375 57 50 44
379.9310 250.1201 -43.2248 -0.871 -0.492 0.001 68 63 60
381.7531 240.7643 -43.9565 -0.881 -0.339 0.331 91 82 77
372.3876 222.2906 -42.8496 -0.716 0.681 0.153 78 67 65
372.5550 208.0495 -43.4503 -0.605 -0.078 0.792 76 65 61
371.9155 203.4200 -43.5090 -0.447 -0.027 0.894 84 74 73
371.5815 201.5259 -43.5188 -0.504 -0.026 0.863 83 79 80
375.4977 203.5880 -44.2075 -0.961 0.276 0.015 85 79 81
372.1576 197.8535 -43.7786 -0.841 0.537 -0.069 92 86 88
375.4844 196.9596 -44.4691 -0.728 0.404 0.554 110 102 100
374.9060 195.7298 -44.4043 -0.748 0.402 0.528 94 85 83
371.1339 192.2599 -43.8002 -0.849 0.500 -0.168 103 94 93
370.5799 191.0679 -43.7386 -0.859 0.483 -0.172 116 108 106
371.7238 187.0580 -44.1237 -0.865 -0.193 0.463 92 76 67
371.2924 185.9688 -44.0822 -0.909 -0.111 -0.403 91 76 68
376.3904 188.6093 -44.9804 -0.904 -0.427 0.024 91 76 68
377.9754 188.8625 -45.2823 -0.902 -0.405 0.148 95 81 72
373.9938 185.3919 -44.6369 -0.970 -0.094 -0.223 95 81 72
370.2087 162.8035 -44.7925 -0.771 0.204 0.603 100 81 75
370.5973 162.2747 -44.8901 -0.771 0.172 0.614 70 51 45
370.4066 161.4090 -44.8870 -0.771 0.172 0.614 75 58 51
370.8441 157.1517 -45.1429 -0.916 -0.197 0.350 90 75 70
361.3036 141.8405 -43.8755 -0.979 -0.162 0.123 114 94 87
361.6734 141.3281 -43.9687 -0.880 -0.429 0.204 114 94 87
362.3714 140.9830 -44.1198 -0.441 -0.871 0.219 118 98 91
363.9295 140.3657 -44.4511 -0.507 -0.846 0.163 120 100 93
368.2752 139.6978 -45.3331 -0.956 -0.250 -0.155 108 89 86
353.7895 117.9699 -43.3482 -0.938 -0.150 -0.312 80 65 72
355.2998 116.6613 -43.6976 -0.159 -0.968 0.196 109 91 96
357.0892 116.1061 -44.0720 -0.153 -0.975 0.161 107 89 94
357.9505 111.8878 -44.4097 -0.701 -0.631 0.332 81 61 60
351.4557 101.7848 -43.5341 -0.659 -0.621 -0.425 94 80 80
349.4737 87.1407 -43.7278 -0.900 -0.392 -0.190 89 71 68
356.7422 88.7241 -45.0954 -0.453 -0.797 -0.399 80 62 59
357.5522 88.3517 -45.2697 -0.453 -0.797 -0.399 92 77 74
364.1621 81.5538 -46.8418 -0.724 -0.414 0.552 51 37 37
358.7854 70.5766 -46.2211 -0.274 -0.930 -0.243 67 54 53
353.0097 68.7329 -45.1578 -0.808 -0.542 0.234 61 48 47
359.2421 67.7230 -46.4248 -0.895 0.392 -0.214 73 56 57
358.8130 67.0471 -46.3673 -0.909 0.400 -0.116 76 59 60
356.5389 65.4222 -45.9844 -0.830 0.461 0.314 77 60 61
355.0769 48.2206 -46.3825 -0.859 -0.032 -0.511 121 103 108
355.2271 44.9398 -46.5429 -0.497 -0.697 0.517 98 84 86
361.1596 43.9184 -47.7513 -0.627 0.586 -0.513 102 89 91
356.3432 41.2304 -46.9105 -0.588 0.784 -0.197 79 67 69
355.6704 38.9990 -46.8670 -0.590 -0.433 0.682 55 44 47
355.5585 38.4496 -46.8669 -0.600 -0.431 0.674 71 62 64
355.4913 37.9052 -46.8753 -0.604 -0.159 0.781 86 77 80
358.7024 33.8198 -47.6703 -0.825 0.546 -0.144 64 52 55
358.3211 33.2573 -47.6177 -0.825 0.546 -0.144 64 52 55
355.0821 28.3142 -47.1772 -0.635 -0.771 -0.036 75 62 70
357.6295 23.1464 -47.8847 -0.994 0.024 -0.105 91 76 79
357.1020 22.6161 -47.8020 -0.981 0.187 0.045 95 81 81
357.7632 21.5814 -47.9734 -0.992 -0.121 -0.037 105 93 93
358.6732 21.0671 -48.1730 -0.225 -0.957 0.181 111 99 99
361.2863 18.9781 -48.7707 -0.895 0.306 0.325 65 53 53
357.5263 15.8920 -48.1536 -0.798 -0.037 0.601 86 70 70
354.9459 13.9055 -47.7249 -0.507 -0.121 -0.853 91 72 72
355.0097 13.3994 -47.7576 -0.511 -0.117 -0.852 98 73 76
357.8914 10.2738 -48.4495 -0.694 -0.383 -0.610 73 65 62
369.4632 8.2318 -50.8086 -0.300 -0.736 -0.607 64 62 57
359.2604 8.1879 -48.8021 -0.517 -0.368 -0.772 89 80 79
358.1758 7.7354 -48.6066 -0.521 -0.354 -0.777 94 84 83
359.3351 6.6664 -48.8774 -0.518 -0.343 -0.784 105 93 93
359.1425 3.1612 -48.9793 -0.923 0.340 -0.183 109 94 97
357.3594 2.7886 -48.6432 -0.740 0.613 -0.277 108 93 96
356.9513 2.3234 -48.5814 -0.740 0.613 -0.277 108 93 96
356.5451 1.8604 -48.5199 -0.740 0.613 -0.277 108 93 96
355.6060 1.4412 -48.3518 -0.745 0.564 -0.356 107 92 95
357.0749 0.8346 -48.6651 -0.721 -0.606 0.335 107 92 95
357.7636 -1.1900 -48.8814 -0.401 -0.496 0.770 107 99 107
357.7049 -2.6550 -48.9282 -0.444 -0.496 0.746 103 100 109
358.1221 -3.1841 -49.0314 -0.444 -0.496 0.746 99 93 103
358.5176 -3.7122 -49.1303 -0.457 -0.778 0.432 77 74 84
358.4957 -4.1992 -49.1454 -0.395 -0.767 0.506 78 75 83
358.2113 -4.6584 -49.1078 -0.458 -0.768 0.448 79 76 83
356.7859 -4.9961 -48.8407 -0.821 -0.294 0.489 80 77 86
355.7514 -5.3690 -48.6519 -0.852 -0.317 0.417 79 77 89
276.7895 -19.5431 -33.6746 -0.842 -0.528 -0.110 119 125 141
346.0724 274.5220 -36.2975 -0.516 -0.214 0.830 43 41 42
383.7284 303.5379 -42.6633 -0.900 0.436 0.009 69 62 66
384.8953 298.6965 -43.0853 -0.342 -0.714 0.611 72 66 68
386.6600 288.4590 -43.8377 -0.808 0.173 -0.564 70 62 59
386.3811 287.1733 -43.8325 -0.808 0.173 -0.564 64 56 53
388.3766 284.2142 -44.3459 -0.849 0.435 0.299 70 62 59
385.9624 276.8687 -44.1525 -0.903 0.415 0.112 96 91 87
384.1895 274.1466 -43.9059 -0.860 -0.453 0.237 101 96 92
384.5100 273.4910 -43.9954 -0.860 -0.453 0.237 98 91 88
384.7304 269.8369 -44.1824 -0.598 0.145 0.789 97 92 89
384.4402 268.5945 -44.1732 -0.598 0.145 0.789 92 87 84
383.1831 266.4301 -44.0075 -0.585 0.119 0.803 88 83 80
382.4284 260.0229 -44.1080 -0.820 0.359 0.445 69 62 56
382.0176 257.7599 -44.1148 -0.942 -0.264 0.209 83 76 70
382.2142 257.0047 -44.1835 -0.942 -0.264 0.209 79 72 66
381.3237 248.7633 -44.3287 -0.911 0.050 0.409 80 75 72
380.4028 243.3700 -44.3565 -0.707 0.149 0.691 72 64 61
380.7261 242.7435 -44.4454 -0.717 0.099 0.690 75 68 62
379.5379 240.8004 -44.2847 -0.795 0.132 0.593 83 76 70
381.0668 241.2232 -44.5728 -0.835 -0.506 0.217 90 83 77
375.8603 226.1469 -44.1258 -0.915 0.359 0.183 92 81 79
366.5542 209.3258 -42.9304 -0.467 0.351 0.812 81 71 62
371.6422 208.3091 -43.9839 -0.399 -0.775 -0.490 79 68 64
372.4274 208.0765 -44.1494 -0.437 -0.859 -0.265 79 68 64
371.9457 204.3903 -44.1978 -0.915 0.345 0.207 119 106 103
371.6828 203.3678 -44.1854 -0.994 0.110 0.005 119 109 108
373.5840 202.3002 -44.6060 -0.998 -0.054 0.028 105 99 101
373.0588 200.2658 -44.5810 -0.927 0.369 0.060 92 86 88
371.7348 197.6660 -44.4190 -0.917 0.398 0.013 108 104 105
375.2960 197.7662 -45.1245 -0.810 0.351 0.469 111 101 100
373.0324 192.8993 -44.8641 -0.835 0.366 0.410 117 106 104
372.1012 191.4406 -44.7357 -0.779 0.537 0.325 107 96 95
371.6314 187.9056 -44.7806 -0.881 -0.238 0.408 82 68 64
370.8224 186.5562 -44.6722 -0.935 -0.123 -0.331 85 72 67
372.0792 184.2243 -45.0139 -0.963 0.228 0.143 89 76 68
371.8738 183.2942 -45.0094 -0.907 -0.171 0.385 89 76 68
371.8546 182.4897 -45.0370 -0.694 -0.644 0.322 89 74 67
364.9580 170.3010 -44.1403 -0.575 0.039 -0.817 100 81 73
370.6611 163.9246 -45.5262 -0.807 0.139 0.574 102 86 81
367.8515 158.5340 -45.1775 -0.930 -0.163 0.330 83 71 65
370.9373 157.2988 -45.8406 -0.921 -0.149 0.360 90 78 72
369.0929 151.0885 -45.7163 -0.322 -0.403 0.857 85 71 70
375.2111 138.8218 -47.4154 -0.880 -0.470 0.064 102 86 86
375.3470 138.1574 -47.4685 -0.870 -0.486 0.081 106 88 88
372.3380 135.2903 -46.9813 -0.801 0.212 -0.559 115 97 97
372.1109 134.4672 -46.9683 -0.801 0.212 -0.559 125 107 107
349.4011 101.0991 -43.7505 -0.721 -0.601 -0.345 84 68 69
363.2090 97.0769 -46.6587 -0.345 -0.352 -0.870 104 88 88
356.3940 92.3706 -45.4853 -0.596 0.176 -0.783 85 67 66
358.3993 90.5168 -45.9574 -0.668 0.393 0.632 94 76 76
358.4125 89.9013 -45.9841 -0.738 0.307 0.601 94 76 76
358.9636 89.4479 -46.1117 -0.737 0.275 0.617 94 76 76
359.4750 88.9807 -46.2319 -0.710 0.268 0.651 90 72 73
358.9820 87.5984 -46.1878 -0.582 -0.142 0.801 79 60 62
358.0023 83.6419 -46.1475 -0.411 -0.891 -0.193 86 73 73
358.7230 83.2304 -46.3072 -0.413 -0.891 -0.187 81 69 69
349.6439 78.9912 -44.6644 -0.510 0.343 0.789 64 52 52
353.9448 74.8142 -45.6848 -0.459 -0.877 -0.140 59 53 54
351.1905 70.6799 -45.2979 -0.803 0.222 -0.553 55 41 38
358.9181 70.6547 -46.8384 -0.271 -0.933 -0.235 73 57 54
359.5917 70.2090 -46.9901 -0.391 -0.921 0.005 74 58 55
357.1848 66.1790 -46.6683 -0.894 0.060 -0.444 68 49 48
357.7224 57.6284 -47.1102 -0.986 -0.112 -0.120 79 60 64
352.0752 53.9216 -46.1303 -0.781 0.350 -0.517 106 88 88
351.5865 52.1940 -46.1006 -0.878 0.083 -0.472 90 70 69
355.8336 47.8004 -47.1187 -0.900 -0.135 -0.415 84 70 71
356.9925 47.3879 -47.3657 -0.880 -0.083 -0.468 82 68 68
356.5142 46.2234 -47.3160 -0.905 -0.141 -0.400 82 69 71
354.4706 44.8921 -46.9610 -0.491 -0.691 0.531 72 62 63
362.0097 44.0440 -48.4962 -0.628 0.696 -0.347 84 73 77
357.3566 41.9098 -47.6528 -0.750 0.231 0.620 88 76 80
353.9170 39.4201 -47.0650 -0.627 0.765 -0.150 104 94 94
356.2044 39.0787 -47.5340 -0.589 -0.468 0.659 104 94 94
355.6930 38.4946 -47.4550 -0.541 -0.431 0.723 83 73 73
355.0004 37.8991 -47.3404 -0.599 -0.164 0.784 89 79 79
357.2361 31.6189 -48.0317 -0.888 0.301 -0.347 92 77 79
356.4318 31.0445 -47.8939 -0.844 0.329 -0.425 95 80 84
352.9890 28.2614 -47.3170 -0.849 0.275 -0.451 88 73 77
353.7111 27.2480 -47.5005 -0.843 0.275 -0.463 96 82 83
358.5565 23.1892 -48.6247 -0.998 0.057 0.019 74 60 60
358.1489 22.6582 -48.5643 -0.996 0.088 -0.004 81 67 67
358.1027 22.1341 -48.5756 -0.996 0.088 -0.004 85 71 71
358.5785 21.6161 -48.6907 -0.999 0.037 0.017 85 71 71
357.9414 21.0882 -48.5845 -0.218 -0.953 0.210 85 71 71
360.1662 19.5294 -49.0887 -0.731 0.019 -0.682 64 50 50
360.1114 19.0057 -49.0983 -0.822 0.559 -0.110 64 50 50
360.6849 18.4807 -49.2331 -0.822 0.555 -0.123 71 55 55
359.1140 17.9663 -48.9403 -0.837 0.336 0.431 66 50 50
358.0375 17.4556 -48.7458 -0.820 0.038 0.571 68 50 48
356.1076 16.4477 -48.4008 -0.892 0.449 -0.045 73 55 53
355.6898 15.4342 -48.3573 -0.839 0.529 -0.131 88 73 70
356.2889 12.8826 -48.5765 -0.907 0.355 0.228 92 74 74
357.7394 10.3017 -48.9665 -0.681 -0.386 -0.622 73 63 61
364.6457 9.5126 -50.3733 -0.199 -0.953 -0.230 66 59 55
359.8934 8.1791 -49.4787 -0.515 -0.380 -0.768 88 77 76
359.2180 7.7046 -49.3628 -0.500 -0.376 -0.780 92 80 80
360.6254 7.1257 -49.6658 -0.487 -0.381 -0.786 98 86 86
361.2902 6.5816 -49.8196 -0.520 -0.340 -0.784 103 91 91
378.4721 3.4743 -53.3642 -0.373 0.191 0.908 93 81 81
356.6483 -0.5851 -49.1754 -0.782 -0.613 0.112 108 96 102
356.8067 -1.0884 -49.2267 -0.763 -0.609 0.216 110 101 108
357.0887 -1.6028 -49.3030 -0.917 -0.363 0.164 108 102 109
357.2272 -2.1046 -49.3502 -0.808 0.386 -0.445 108 103 110
357.4285 -2.6122 -49.4102 -0.923 -0.235 0.304 109 104 111
357.5562 -3.1129 -49.4552 -0.666 -0.538 0.517 104 99 106
357.9920 -3.6440 -49.5628 -0.457 -0.778 0.432 85 81 88
357.8649 -4.1195 -49.5561 -0.402 -0.817 0.413 83 81 87
354.7865 -4.7706 -48.9683 -0.824 -0.434 0.365 82 78 85
278.4227 -21.1210 -34.3953 -0.986 0.167 0.000 88 95 114
334.3943 260.3430 -35.1987 -0.584 -0.702 0.407 62 61 59
383.7241 294.5928 -43.8276 -0.465 -0.418 -0.781 55 51 50
388.4318 293.4915 -44.8190 -0.844 0.195 -0.499 85 80 79
388.6495 292.7049 -44.8931 -0.942 0.293 -0.165 88 84 81
388.1592 291.1865 -44.8526 -0.940 0.292 -0.176 89 84 81
387.9750 288.9834 -44.9002 -0.983 -0.053 -0.177 64 56 54
388.3998 288.4140 -45.0077 -0.901 -0.180 -0.395 75 67 65
387.5004 285.4962 -44.9385 -0.981 0.037 -0.189 85 77 75
389.0432 285.0583 -45.2664 -0.631 0.349 0.693 75 70 67
384.7763 275.8647 -44.7595 -0.925 0.030 0.379 78 76 73
384.6864 274.8020 -44.7822 -0.947 0.002 0.322 74 71 70
382.7820 270.0372 -44.5814 -0.937 0.058 0.344 59 57 55
383.3483 269.6261 -44.7113 -0.957 0.045 0.286 92 90 87
384.3098 268.6317 -44.9434 -0.538 -0.345 0.769 84 82 81
384.0539 264.5564 -45.0485 -0.730 0.427 0.534 103 94 89
382.9580 257.8480 -45.0853 -0.950 -0.249 0.189 92 83 78
382.8330 256.7935 -45.1007 -0.914 -0.113 0.389 76 67 62
379.5107 252.8065 -44.5841 -0.638 0.277 0.719 58 50 47
381.3757 251.7320 -45.0014 -0.841 0.182 0.509 78 73 70
381.1316 250.5858 -44.9962 -0.841 0.182 0.509 89 84 81
379.1898 240.6420 -44.9869 -0.863 -0.476 0.170 82 75 69
377.8188 233.1978 -44.9966 -0.829 -0.498 0.253 66 59 53
379.1843 232.5719 -45.2960 -0.838 -0.525 -0.146 73 62 60
373.5188 226.9472 -44.3699 -0.396 -0.917 0.039 74 60 59
374.7316 227.0895 -44.6090 -0.655 -0.583 0.481 72 61 59
373.1234 207.8963 -45.0224 -0.983 0.176 -0.057 78 67 63
372.2829 206.4253 -44.9095 -0.980 0.184 -0.080 84 73 69
372.1017 205.4582 -44.9101 -0.980 0.184 -0.080 92 81 77
371.9211 204.4940 -44.9108 -0.980 0.184 -0.080 100 88 84
371.6931 203.4971 -44.9031 -0.994 0.110 0.005 103 93 92
371.5694 202.5806 -44.9134 -0.650 -0.241 0.721 100 93 95
371.7533 201.8940 -44.9769 -0.650 -0.241 0.721 96 92 93
373.4728 201.5130 -45.3382 -0.996 -0.095 -0.000 101 92 95
373.5527 200.7463 -45.3838 -0.996 -0.086 0.004 102 96 98
373.6911 200.0230 -45.4395 -0.916 0.322 -0.238 102 96 98
373.0545 198.7392 -45.3604 -0.917 0.350 -0.194 104 100 101
375.1262 197.7633 -45.8156 -0.810 -0.226 0.542 118 107 107
373.2919 195.6376 -45.5275 -0.941 0.260 0.217 122 111 109
373.1382 193.0888 -45.5945 -0.961 0.180 0.209 114 103 101
371.3059 191.0004 -45.3054 -0.777 0.549 0.307 97 85 85
369.7487 189.1161 -45.0638 -0.680 0.594 0.431 82 71 69
370.0623 187.7393 -45.1799 -0.910 -0.348 0.227 58 47 45
371.0851 187.6441 -45.3898 -0.882 -0.201 0.427 61 47 44
371.3804 184.6607 -45.5640 -0.907 -0.171 0.385 84 70 67
371.4943 183.9437 -45.6145 -0.907 -0.171 0.385 85 71 67
371.6082 183.2272 -45.6650 -0.907 -0.171 0.385 86 72 67
371.6611 182.4709 -45.7048 -0.697 -0.637 0.331 85 72 66
365.9444 174.8405 -44.8455 -0.925 -0.260 0.277 104 85 79
360.3698 140.8255 -45.0289 -0.522 -0.791 0.318 83 64 58
364.2528 138.5784 -45.8981 -0.534 -0.843 0.063 74 58 58
365.9659 138.7228 -46.2379 -0.538 -0.839 0.081 75 59 59
374.6957 137.9325 -48.0283 -0.714 -0.634 -0.298 104 86 86
373.2999 135.8249 -47.8279 -0.765 0.083 -0.639 116 98 98
371.8022 134.4056 -47.5805 -0.795 0.223 -0.564 122 104 104
370.9429 132.5808 -47.4774 -0.802 0.216 -0.556 102 84 84
366.9409 130.0379 -46.7683 -0.546 -0.041 0.837 92 76 77
364.8684 128.3972 -46.4135 -0.537 -0.053 0.842 91 76 76
364.8887 127.7157 -46.4438 -0.537 -0.053 0.842 78 66 70
364.9090 127.0352 -46.4741 -0.537 -0.053 0.842 59 48 52
373.9659 121.1964 -48.5244 -0.003 -0.965 0.263 78 64 63
377.3999 121.1847 -49.2171 -0.004 -0.972 0.236 81 63 61
377.8529 118.5402 -49.4101 -0.561 0.460 0.688 108 90 88
359.0409 93.2667 -46.5888 -0.605 0.186 -0.774 72 54 54
359.1745 90.8122 -46.7101 -0.729 0.202 0.654 81 63 63
359.1750 90.1905 -46.7341 -0.737 0.185 0.650 81 63 63
359.4466 89.6510 -46.8096 -0.556 -0.189 0.809 81 63 63
359.6325 87.2271 -46.9402 -0.622 -0.235 0.747 75 56 58
359.2528 85.8847 -46.9153 -0.769 0.223 0.599 77 58 60
365.6689 84.5595 -48.2597 -0.647 0.307 -0.698 74 62 62
359.1802 70.7613 -47.4818 -0.270 -0.933 -0.238 108 90 88
353.1143 68.8506 -46.3324 -0.809 0.392 -0.437 106 88 86
352.6834 68.1814 -46.2712 -0.739 0.496 -0.456 108 88 87
355.6160 60.7359 -47.1486 -0.956 0.236 -0.172 98 84 84
355.4672 60.1388 -47.1416 -0.956 0.236 -0.172 97 83 83
358.9027 58.4405 -47.8994 -0.976 -0.142 -0.162 83 64 68
369.3531 47.1726 -50.4394 -0.806 -0.545 -0.231 76 64 66
368.9519 46.5456 -50.3826 -0.824 -0.482 -0.299 75 65 66
359.9255 42.1956 -48.7300 -0.638 0.700 -0.319 80 69 73
351.2675 38.1599 -47.1396 -0.678 0.184 0.712 87 77 76
350.7779 37.5907 -47.0627 -0.654 0.181 0.734 87 77 76
353.0195 35.1152 -47.6098 -0.713 -0.309 -0.630 84 71 65
353.8217 33.0509 -47.8509 -0.617 -0.646 0.449 96 82 79
358.0547 31.6934 -48.7564 -0.867 0.390 -0.311 91 77 76
357.5190 21.1115 -49.0551 -0.221 -0.957 0.188 69 55 55
361.4638 20.6128 -49.8696 -0.678 -0.139 -0.722 65 51 51
361.9476 20.0860 -49.9874 -0.687 -0.134 -0.714 68 54 54
360.8147 19.5562 -49.7793 -0.989 -0.057 -0.133 67 53 53
359.5090 19.0324 -49.5362 -0.820 0.566 -0.086 68 54 54
359.5950 18.5102 -49.5736 -0.817 0.569 -0.090 69 53 53
359.2595 17.9908 -49.5260 -0.844 0.360 0.398 72 56 56
357.7008 17.4832 -49.2312 -0.820 0.038 0.571 75 57 55
355.2691 16.4825 -48.7794 -0.662 0.248 -0.708 75 57 55
355.9236 15.9640 -48.9313 -0.829 0.541 -0.143 76 58 56
355.8996 13.9296 -49.0047 -0.954 -0.062 0.293 86 66 65
356.8685 12.3816 -49.2595 -0.335 -0.625 -0.705 86 72 71
360.8462 11.7467 -50.0858 -0.469 -0.548 -0.692 84 73 71
357.8293 10.3202 -49.5324 -0.687 -0.398 -0.608 73 63 61
372.3035 7.6123 -52.5546 -0.399 0.150 0.905 76 64 66
376.1811 3.6389 -53.4890 -0.385 0.134 0.913 86 74 76
356.4324 0.4309 -49.6309 -0.955 -0.261 0.144 105 89 92
356.0697 -0.0291 -49.5754 -0.777 -0.611 0.148 104 90 95
356.4617 -0.5517 -49.6745 -0.777 -0.611 0.148 103 91 98
356.6874 -1.5496 -49.7584 -0.914 -0.378 0.146 103 96 103
357.6025 -2.6119 -49.9837 -0.815 0.335 -0.473 102 97 104
357.4726 -3.0884 -49.9759 -0.817 0.323 -0.477 99 92 100
357.1764 -3.5472 -49.9338 -0.964 -0.262 0.036 83 78 85
359.9620 -4.3145 -50.5248 -0.797 -0.532 0.286 83 78 84
340.6401 -47.9556 -48.3067 -0.373 -0.928 -0.019 34 39 58
391.9780 325.7936 -45.1502 -0.307 -0.707 0.637 52 51 49
392.5820 325.4073 -45.2879 -0.307 -0.707 0.637 52 51 49
381.6426 298.5786 -44.0682 -0.541 -0.824 0.171 60 54 54
384.4356 295.5308 -44.7529 -0.465 -0.418 -0.781 49 49 44
389.2255 294.4978 -45.7689 -0.844 0.195 -0.499 91 91 87
388.9439 292.1758 -45.7991 -0.961 0.252 0.117 90 85 82
388.5941 290.8036 -45.7794 -0.975 0.221 0.017 70 65 62
388.1084 289.2965 -45.7372 -0.983 -0.053 -0.177 59 54 51
384.3245 275.5855 -45.4824 -0.921 0.023 0.389 107 107 108
384.3764 273.6917 -45.5644 -0.925 0.030 0.379 114 114 115
383.7017 272.0622 -45.4882 -0.871 0.308 0.383 117 118 119
382.5294 269.9549 -45.3286 -0.937 0.067 0.344 108 108 110
382.7236 269.1835 -45.3973 -0.943 0.105 0.316 114 114 114
382.2422 266.8042 -45.3888 -0.923 0.013 0.386 91 91 93
383.2514 266.8182 -45.5941 -0.549 -0.372 0.749 95 94 96
383.7599 266.3482 -45.7156 -0.543 -0.375 0.751 102 98 97
381.3866 261.2444 -45.4239 -0.745 0.401 0.533 97 87 85
381.8470 259.7927 -45.5726 -0.816 0.365 0.449 88 78 76
382.3133 257.4069 -45.7577 -0.867 -0.194 0.459 82 72 70
382.4608 256.6053 -45.8180 -0.867 -0.194 0.459 71 61 59
380.7271 254.0763 -45.5597 -0.689 0.096 0.718 61 53 50
380.6150 250.2699 -45.6804 -0.955 0.096 -0.281 92 87 84
380.5191 249.2617 -45.6989 -0.955 0.096 -0.281 95 90 87
381.9419 239.5448 -46.3556 -0.867 0.008 0.499 90 85 79
367.4917 215.3068 -44.3219 -0.626 0.179 -0.759 93 83 74
368.4352 215.2311 -44.5172 -0.611 0.140 -0.779 93 83 73
373.6520 209.2615 -45.8066 -0.448 -0.773 -0.449 101 90 86
374.5719 209.1230 -45.9994 -0.793 0.260 0.552 103 92 88
374.2315 208.0249 -45.9714 -0.793 0.260 0.552 94 83 79
374.2525 207.2031 -46.0067 -0.794 0.312 0.521 81 70 66
374.1423 206.2841 -46.0189 -0.932 -0.158 0.326 71 59 55
373.6927 205.1135 -45.9713 -0.993 0.090 0.077 72 62 61
373.1714 203.8938 -45.9110 -0.997 0.073 -0.021 89 81 84
373.8883 203.5964 -46.0684 -0.938 -0.164 0.307 98 94 95
374.3079 203.0762 -46.1736 -0.933 -0.171 0.316 102 96 98
373.9444 201.9797 -46.1408 -0.995 -0.097 0.014 98 89 92
374.0191 201.2072 -46.1852 -0.995 -0.097 0.014 77 71 73
373.6828 198.4910 -46.2190 -0.944 0.298 -0.141 118 111 111
375.7156 197.4779 -46.6719 -0.686 -0.178 0.705 110 96 95
375.8488 196.7488 -46.7266 -0.686 -0.178 0.705 122 108 107
375.7691 195.8700 -46.7435 -0.778 0.559 0.286 110 96 95
373.0242 193.1244 -46.2871 -0.966 0.169 0.198 92 78 77
372.3245 191.8255 -46.1933 -0.787 0.540 0.298 86 72 71
370.1596 189.5146 -45.8389 -0.675 0.595 0.436 72 58 57
367.8589 187.1253 -45.4596 -0.764 0.555 0.329 63 49 48
371.1952 183.8538 -46.2636 -0.723 0.199 0.662 83 72 70
371.0100 182.9389 -46.2603 -0.916 -0.124 0.382 83 72 68
365.3130 175.3022 -45.3862 -0.939 -0.237 0.249 45 26 23
365.7426 174.8145 -45.4922 -0.927 -0.209 0.312 48 30 26
367.7000 173.0001 -45.9599 -0.765 0.120 -0.633 92 75 68
372.8806 169.2787 -47.1571 -0.889 -0.150 -0.432 98 81 74
361.3807 140.7297 -45.8879 -0.518 -0.824 0.229 89 70 64
362.5885 140.6445 -46.1375 -0.521 -0.852 0.057 86 67 61
362.7201 139.3025 -46.2149 -0.526 -0.848 0.070 85 67 63
363.3578 138.9196 -46.3594 -0.538 -0.839 0.081 88 70 66
365.1205 138.3877 -46.7391 -0.661 -0.706 0.254 75 59 59
362.7793 126.8397 -46.6970 -0.215 -0.361 0.908 84 73 77
362.7423 126.1391 -46.7159 -0.232 -0.362 0.903 67 56 60
363.0755 124.9223 -46.8297 -0.872 -0.438 0.219 69 58 62
358.3102 116.1724 -46.1876 -0.797 -0.252 -0.550 67 53 53
374.7028 120.8719 -49.3544 -0.002 -0.965 0.262 74 56 55
376.6261 118.1328 -49.8500 -0.563 0.454 0.690 82 64 62
356.7133 96.9511 -46.5868 -0.572 0.374 -0.730 71 55 55
361.1414 95.8904 -47.5301 -0.476 0.330 0.815 68 52 52
359.7034 94.1646 -47.3018 -0.691 0.187 0.698 69 51 51
359.3911 93.4376 -47.2655 -0.695 0.170 0.699 66 48 48
358.6823 92.5888 -47.1530 -0.710 0.196 0.677 80 62 62
358.0494 90.5271 -47.1016 -0.709 0.205 0.675 100 82 82
359.5516 85.4102 -47.6010 -0.599 0.166 0.783 84 65 67
367.1395 85.0151 -49.1638 -0.713 0.139 -0.687 74 62 62
351.3648 78.9651 -46.1740 -0.370 -0.493 0.787 60 48 48
362.3434 76.9558 -48.4893 -0.400 -0.842 -0.363 60 54 54
363.2513 76.5651 -48.6893 -0.752 0.604 -0.264 68 59 60
354.4338 68.6048 -47.1908 -0.922 0.206 -0.329 101 81 80
353.7387 66.7248 -47.1199 -0.923 0.202 -0.328 88 68 67
357.8378 57.7330 -48.2952 -0.816 0.090 0.571 75 56 60
357.9595 57.1812 -48.3408 -0.937 -0.256 0.239 74 55 59
350.8156 52.1611 -47.0728 -0.537 -0.806 0.250 98 78 77
356.3186 47.9366 -48.3547 -0.592 0.119 0.797 72 58 58
356.9655 47.4606 -48.5047 -0.589 0.090 0.803 72 58 58
357.5840 46.9790 -48.6490 -0.627 0.053 0.777 72 58 58
353.8239 45.4385 -47.9401 -0.868 -0.037 -0.495 70 58 60
356.5952 45.2029 -48.5143 -0.855 -0.481 -0.194 69 59 60
356.9282 44.6880 -48.6016 -0.857 -0.478 -0.193 68 57 61
355.6387 41.8133 -48.4470 -0.519 -0.469 0.714 72 61 65
355.2253 40.1448 -48.4256 -0.603 0.757 -0.251 71 61 60
350.1321 37.0450 -47.5035 -0.654 0.181 0.734 80 70 69
352.0690 36.6674 -47.9128 -0.763 0.030 -0.646 81 71 70
353.6406 34.6596 -48.3092 -0.826 0.165 -0.539 84 71 65
359.6762 18.5356 -50.1485 -0.817 0.569 -0.090 81 65 65
358.4781 18.0206 -49.9235 -0.797 0.518 -0.311 66 50 50
355.8949 15.4786 -49.4924 -0.839 0.529 -0.131 72 57 54
361.1401 11.7602 -50.7026 -0.381 -0.632 -0.675 90 79 77
362.0379 10.6963 -50.9259 -0.390 -0.491 -0.779 83 73 71
358.2761 10.3250 -50.1725 -0.651 -0.396 -0.648 79 69 67
367.7364 8.9039 -52.1559 -0.128 -0.992 0.013 67 57 55
374.0289 2.7269 -53.6725 -0.357 0.241 0.903 95 80 83
374.2816 2.1768 -53.7448 -0.355 0.233 0.906 99 83 86
356.5589 -0.5426 -50.2321 -0.747 -0.631 0.207 97 85 89
356.7328 -1.0474 -50.2866 -0.759 -0.621 0.198 95 85 91
359.6658 -2.7898 -50.9506 -0.699 0.040 -0.714 93 86 93
365.2704 -4.8322 -52.1709 -0.352 -0.929 0.114 84 77 84
277.5457 -19.4428 -34.8267 -0.767 -0.506 -0.394 126 132 148
337.6248 -46.6271 -48.1076 -0.394 -0.919 -0.024 42 48 64
391.4889 324.3562 -45.9607 -0.342 -0.725 0.598 48 47 43
392.1567 315.4963 -46.4263 -0.824 0.560 -0.088 50 44 44
389.2315 311.2033 -45.9814 -0.850 0.506 -0.146 65 56 57
384.1861 301.5323 -45.2978 -0.838 -0.207 -0.505 54 50 49
380.9435 296.9934 -44.7965 -0.556 -0.795 0.241 52 48 45
383.8634 296.1101 -45.4318 -0.514 -0.541 -0.665 49 50 45
387.3321 296.7599 -46.1237 -0.449 -0.491 -0.746 51 52 47
389.0928 294.5392 -46.5692 -0.948 0.277 -0.155 74 75 70
389.2342 293.6697 -46.6305 -0.961 0.252 0.117 79 75 74
388.8728 292.2805 -46.6073 -0.961 0.252 0.117 74 70 69
388.6283 291.0163 -46.6036 -0.975 0.221 0.017 63 57 57
388.0241 289.3863 -46.5392 -0.978 -0.085 -0.192 59 53 53
388.1136 288.4727 -46.5915 -0.978 -0.085 -0.192 67 61 61
383.2215 276.6060 -46.0209 -0.940 0.317 -0.127 79 76 77
384.0923 276.4978 -46.2046 -0.919 0.070 0.389 91 91 93
384.0500 275.4813 -46.2335 -0.938 0.004 0.347 124 126 130
384.1110 274.5686 -46.2798 -0.925 0.030 0.379 137 138 142
384.0668 273.5539 -46.3082 -0.925 0.030 0.379 141 140 145
382.3848 269.9776 -46.0934 -0.936 0.089 0.342 155 155 157
382.8773 269.4959 -46.2128 -0.956 0.055 0.287 109 109 111
382.8471 268.5067 -46.2432 -0.935 0.036 0.354 62 62 64
382.0340 266.7652 -46.1398 -0.930 0.023 0.367 72 73 77
381.8061 265.5930 -46.1361 -0.964 0.053 0.259 60 60 61
381.7439 264.5826 -46.1607 -0.964 0.053 0.259 72 68 68
380.4993 260.5641 -46.0525 -0.753 0.400 0.523 70 60 58
379.4956 255.8816 -46.0185 -0.594 0.112 0.797 73 63 61
379.8834 255.3114 -46.1197 -0.565 0.145 0.813 65 55 53
379.6074 254.1273 -46.1065 -0.546 0.244 0.802 63 53 51
379.2697 251.9662 -46.1168 -0.965 -0.088 0.247 70 62 59
378.9128 250.7185 -46.0893 -0.918 -0.388 -0.080 71 66 63
379.2434 250.0992 -46.1804 -0.920 0.085 -0.382 73 68 65
380.4048 250.2307 -46.4152 -0.947 0.091 -0.307 78 73 70
380.3141 249.2273 -46.4336 -0.947 0.091 -0.307 78 73 70
377.7854 239.7065 -46.2640 -0.929 -0.350 0.124 83 78 72
379.1602 240.0025 -46.5367 -0.864 -0.472 0.177 89 84 78
380.9611 239.7524 -46.9177 -0.883 0.020 0.468 50 45 39
373.8954 225.7967 -45.9757 -0.388 -0.921 0.025 61 50 48
373.3868 210.8641 -46.4231 -0.439 -0.776 -0.453 97 86 82
374.0852 210.5598 -46.5785 -0.439 -0.776 -0.453 103 92 88
373.4114 209.2027 -46.4897 -0.444 -0.839 -0.315 108 97 93
374.3404 206.5565 -46.7793 -0.921 -0.186 0.341 79 66 63
373.8600 200.3854 -46.9084 -0.415 -0.867 0.275 108 102 104
375.6491 200.0282 -47.2909 -0.477 -0.776 0.412 83 74 75
372.9593 192.3836 -47.0186 -0.781 0.560 0.276 88 74 73
372.6934 191.3892 -47.0005 -0.781 0.557 0.280 84 70 69
370.5711 183.5463 -46.8526 -0.723 0.199 0.662 84 73 71
365.5327 174.7833 -46.1369 -0.927 -0.209 0.312 84 66 62
370.0160 176.1249 -47.0126 -0.918 -0.224 0.326 94 76 72
370.5621 175.6958 -47.1411 -0.676 -0.704 -0.220 87 69 65
371.4748 171.6135 -47.4805 -0.639 0.066 -0.767 138 119 112
373.0646 169.4919 -47.8871 -0.896 -0.140 -0.421 98 81 74
365.8474 142.3959 -47.4000 -0.558 -0.702 -0.443 103 84 78
369.7515 132.9027 -48.5569 -0.635 -0.554 0.537 115 97 97
362.6392 124.8053 -47.3886 -0.653 -0.593 0.471 62 51 55
364.4154 124.9083 -47.7514 -0.355 -0.831 0.429 64 53 57
365.1124 124.5290 -47.9092 -0.355 -0.831 0.429 64 53 57
357.3394 116.4971 -46.6021 -0.600 -0.152 -0.785 56 42 42
377.7111 120.0461 -50.6752 -0.560 0.470 0.683 90 72 70
377.4879 119.2511 -50.6586 -0.553 0.469 0.689 131 113 111
361.5354 110.9555 -47.6731 -0.102 -0.733 0.672 131 113 111
359.2641 97.8686 -47.6885 -0.578 0.350 -0.737 74 58 58
365.0495 84.5041 -49.3769 -0.598 0.085 -0.797 74 62 62
363.5222 77.9081 -49.3057 -0.395 -0.840 -0.371 55 49 49
359.8950 74.0060 -48.7014 -0.736 0.601 -0.310 97 82 79
358.8408 71.3782 -48.5811 -0.275 -0.928 -0.253 123 105 103
359.6331 70.9593 -48.7601 -0.275 -0.928 -0.250 108 90 88
355.0230 68.7792 -47.8893 -0.926 0.192 -0.324 109 89 88
354.4799 67.5034 -47.8244 -0.922 0.210 -0.325 102 82 81
354.2087 56.0511 -48.1921 -0.763 0.517 -0.387 74 55 59
353.7412 55.4160 -48.1191 -0.763 0.517 -0.387 73 54 57
350.6441 54.3752 -47.5184 -0.719 -0.133 -0.683 77 59 60
350.7720 53.2931 -47.5848 -0.716 0.016 -0.698 96 76 75
352.5880 50.2527 -48.0721 -0.696 -0.517 0.498 94 76 76
354.7794 47.7840 -48.6157 -0.607 -0.788 0.105 67 53 53
351.5268 44.6724 -48.0595 -0.704 0.173 0.688 63 53 54
353.5694 33.6270 -48.8897 -0.821 0.165 -0.547 73 60 54
357.8735 29.6072 -49.9267 -0.842 0.349 -0.412 98 84 83
360.1134 27.0235 -50.4845 -0.610 0.245 -0.754 89 75 75
360.4241 21.7154 -50.7450 -0.646 -0.183 -0.741 85 71 71
360.8044 21.1906 -50.8429 -0.647 -0.181 -0.741 91 77 77
361.2723 19.0823 -51.0175 -0.707 0.560 -0.432 92 78 78
360.0472 18.5601 -50.7840 -0.755 0.455 -0.473 92 76 76
359.7009 18.0392 -50.7318 -0.755 0.455 -0.473 93 77 77
358.9247 17.5238 -50.5906 -0.713 0.278 -0.644 95 77 75
364.7212 10.6214 -52.0423 -0.398 -0.472 -0.786 89 79 77
359.9621 10.2821 -51.0726 -0.727 -0.124 -0.676 85 75 73
367.2193 9.4753 -52.6002 -0.197 -0.940 -0.278 80 70 68
371.0786 7.7152 -53.4618 -0.370 0.109 0.922 77 65 67
353.0141 -0.7033 -50.0451 -0.717 -0.691 -0.087 84 73 79
360.8008 -2.3832 -51.7142 -0.529 -0.725 -0.441 81 74 81
361.7090 -2.9655 -51.9232 -0.553 -0.723 -0.414 80 73 80
364.9922 -4.7876 -52.6682 -0.352 -0.929 0.114 84 77 84
388.8633 310.9873 -46.7541 -0.828 0.552 -0.094 72 64 62
379.0417 295.1094 -45.2796 -0.548 -0.835 0.060 44 43 39
383.6549 296.0681 -46.2079 -0.478 -0.601 -0.641 49 50 44
388.2151 296.8553 -47.1314 -0.450 -0.499 -0.740 35 36 30
389.3879 294.0089 -47.4795 -0.943 0.284 -0.171 53 49 48
388.9323 292.5205 -47.4384 -0.943 0.284 -0.171 58 54 53
389.0037 291.5813 -47.4874 -0.976 0.090 -0.197 57 51 51
388.3761 289.9247 -47.4164 -0.983 -0.053 -0.177 57 51 51
386.2640 282.7752 -47.2348 -0.826 0.399 0.399 86 78 76
385.7278 281.2458 -47.1783 -0.896 0.361 0.259 80 71 72
383.5844 277.1361 -46.8799 -0.963 0.263 0.055 51 47 48
383.2206 275.7995 -46.8524 -0.963 0.263 0.055 70 70 72
383.7725 275.3739 -46.9831 -0.938 0.004 0.347 126 127 129
382.0911 269.8550 -46.8323 -0.943 0.069 0.325 141 141 143
382.6309 269.4200 -46.9607 -0.939 0.055 0.338 100 98 101
382.5625 268.3941 -46.9837 -0.935 0.036 0.354 119 119 121
381.7410 266.6444 -46.8756 -0.930 0.023 0.367 169 169 171
381.1901 263.2654 -46.8832 -0.888 0.266 0.376 73 65 62
379.2129 258.5700 -46.6407 -0.946 0.022 0.323 89 79 77
378.5472 255.1536 -46.6256 -0.572 0.261 0.778 63 53 51
377.2377 252.0927 -46.4633 -0.566 0.277 0.776 57 47 45
376.9479 250.9074 -46.4458 -0.747 0.124 0.653 64 56 53
376.8845 249.0189 -46.5010 -0.893 -0.110 0.436 54 49 46
379.2186 249.3079 -46.9778 -0.940 -0.339 -0.029 51 46 43
380.1340 249.2152 -47.1723 -0.981 -0.078 -0.179 51 46 43
377.8160 239.8774 -47.0271 -0.932 -0.335 0.138 85 80 74
374.5895 225.6389 -46.8699 -0.378 -0.925 0.032 87 76 74
370.5602 209.6411 -46.6090 -0.423 -0.287 0.859 95 84 80
373.6284 211.1770 -47.1939 -0.439 -0.776 -0.453 100 89 85
374.3283 210.8728 -47.3510 -0.439 -0.776 -0.453 103 92 88
374.1122 208.1837 -47.4034 -0.839 0.300 0.454 124 113 109
373.9246 206.3675 -47.4301 -0.999 -0.008 -0.049 98 85 82
373.7314 205.3881 -47.4253 -0.999 -0.015 -0.047 84 74 73
373.5504 204.4204 -47.4226 -0.999 -0.026 -0.047 98 90 93
373.7408 203.7308 -47.4874 -0.997 -0.019 -0.069 129 125 126
373.3751 200.1521 -47.5409 -0.416 -0.865 0.281 130 124 126
372.1248 194.3456 -47.4905 -0.842 -0.128 0.524 110 96 95
372.2109 193.5950 -47.5356 -0.842 -0.128 0.524 116 102 101
372.5305 191.3905 -47.6823 -0.787 0.554 0.272 97 83 82
370.5878 188.4385 -47.3838 -0.906 -0.355 0.231 93 79 78
371.3965 186.5964 -47.6195 -0.956 0.203 -0.212 81 70 66
371.1964 185.6640 -47.6115 -0.956 0.203 -0.212 78 67 63
370.6328 183.6975 -47.5652 -0.694 0.204 0.690 94 83 79
368.6442 180.7983 -47.2552 -0.898 0.435 -0.060 89 78 72
365.6979 174.9947 -46.8506 -0.941 -0.186 0.284 127 109 105
366.7530 174.9079 -47.0740 -0.959 -0.254 0.126 122 104 100
370.8704 175.9977 -47.8941 -0.670 -0.711 -0.213 98 80 76
371.6078 173.3502 -48.1441 -0.780 0.151 -0.607 111 92 85
372.0516 172.8498 -48.2549 -0.766 0.260 -0.588 119 100 94
369.4236 169.6806 -47.8212 -0.624 -0.212 -0.752 108 89 82
368.5586 163.8323 -47.8527 -0.869 0.470 -0.155 98 83 78
384.8721 171.1057 -50.9947 -0.616 0.343 -0.710 90 75 70
384.2271 169.9294 -50.9027 -0.620 0.340 -0.707 88 73 68
371.7063 160.3758 -48.6352 -0.738 0.619 -0.269 69 58 52
365.9850 150.4988 -47.7990 -0.612 -0.001 -0.791 76 62 61
361.4751 137.4426 -47.3311 -0.327 -0.040 0.944 96 80 80
366.7955 130.9101 -48.6788 -0.582 -0.102 0.807 106 88 88
364.6869 124.4190 -48.4740 -0.355 -0.831 0.429 83 72 76
366.0268 124.3181 -48.7574 -0.371 -0.850 0.373 85 73 77
377.8987 120.1965 -51.3854 -0.109 0.063 0.992 113 95 93
374.7845 117.5570 -50.8310 -0.567 0.453 0.688 126 108 106
360.4263 98.3212 -48.5311 -0.562 0.362 -0.743 57 41 41
360.2546 95.7255 -48.5894 -0.768 0.526 -0.366 56 40 40
360.3514 95.1245 -48.6314 -0.806 0.475 -0.354 61 45 45
325.9976 69.7666 -42.3791 -0.213 -0.974 -0.082 56 50 50
362.3830 75.2439 -49.7767 -0.939 0.274 0.209 96 81 79
360.1671 70.5300 -49.4851 -0.354 -0.935 -0.016 103 85 83
356.9478 61.6836 -49.1338 -0.713 -0.630 0.308 99 85 85
357.3870 60.0363 -49.2853 -0.869 0.123 0.479 89 73 74
358.1092 59.5868 -49.4524 -0.880 0.134 0.456 83 64 66
358.8075 57.4047 -49.6773 -0.768 -0.416 0.487 81 62 66
353.4750 55.4152 -48.6362 -0.756 0.503 -0.418 80 61 64
353.2888 48.7347 -48.8396 -0.277 -0.911 -0.305 68 54 54
355.3777 47.8962 -49.3061 -0.572 -0.813 0.111 47 33 33
355.4927 44.0557 -49.4695 -0.938 -0.345 -0.033 65 54 58
354.4749 39.6059 -49.4184 -0.442 -0.348 0.827 73 63 62
354.3765 39.0582 -49.4177 -0.448 -0.337 0.828 78 68 67
354.6265 32.6627 -49.7019 -0.353 -0.709 0.610 72 58 55
359.4393 30.7824 -50.7748 -0.232 -0.844 0.483 90 76 75
362.2425 30.3749 -51.3749 -0.238 -0.845 0.479 89 75 74
357.1251 29.6043 -50.3344 -0.627 -0.442 0.642 91 77 76
364.0839 26.0969 -51.9145 -0.821 0.539 -0.188 81 67 67
357.3651 20.6694 -50.7086 -0.788 0.315 0.529 102 88 88
359.9950 18.5860 -51.3333 -0.742 0.457 -0.490 101 85 85
357.9699 17.0393 -50.9666 -0.726 0.291 -0.623 100 82 80
356.2777 16.5433 -50.6313 -0.815 0.561 0.141 100 82 80
355.9378 16.0363 -50.5787 -0.815 0.561 0.141 99 81 79
351.8763 15.0920 -49.7650 -0.922 0.362 -0.137 94 76 74
361.1959 12.8395 -51.7924 -0.323 -0.555 -0.767 96 87 85
362.0072 10.2258 -52.0566 -0.683 -0.362 -0.635 88 78 76
369.1817 7.2979 -53.6606 -0.157 -0.966 0.203 80 68 70
361.4216 -2.4231 -52.3931 -0.529 -0.725 -0.441 72 65 72
361.9695 -2.9730 -52.5275 -0.565 -0.714 -0.414 72 65 72
362.8869 -7.5420 -52.8847 -0.204 -0.978 -0.047 65 71 85
342.6987 -9.7624 -48.7505 -0.782 0.290 0.552 164 167 186
389.1424 293.9331 -48.2608 -0.951 0.277 -0.138 46 42 41
388.9113 292.6774 -48.2566 -0.962 0.166 -0.215 51 47 46
388.6978 291.4435 -48.2554 -0.962 0.166 -0.215 56 50 50
387.5772 288.2750 -48.1314 -0.913 0.404 -0.064 55 49 49
389.4125 288.1375 -48.5238 -0.819 0.563 0.115 45 39 39
384.7007 280.3840 -47.8045 -0.958 0.280 0.069 53 45 43
383.4988 277.2192 -47.6632 -0.964 0.258 0.060 26 21 21
383.2210 275.9676 -47.6491 -0.963 0.263 0.055 75 73 74
383.4952 275.2665 -47.7319 -0.938 0.004 0.347 134 134 136
383.6084 274.4062 -47.7864 -0.922 0.030 0.386 139 139 141
382.8649 271.7382 -47.7242 -0.895 0.267 0.358 135 135 137
382.1581 270.0840 -47.6338 -0.983 0.168 0.074 139 137 138
382.3574 269.3176 -47.7031 -0.939 0.055 0.338 104 102 103
379.9018 259.3755 -47.5380 -0.659 0.130 0.741 86 76 74
379.1452 257.7284 -47.4368 -0.649 0.147 0.747 79 69 67
378.2889 254.1409 -47.3835 -0.669 0.145 0.728 45 35 33
377.2621 252.2674 -47.2333 -0.854 -0.459 -0.246 49 39 37
376.7495 250.8762 -47.1745 -0.873 -0.117 0.474 58 50 47
377.8990 251.0140 -47.4124 -0.877 -0.132 0.462 58 50 47
380.2517 251.3180 -47.8984 -0.942 -0.336 -0.011 57 52 49
379.9750 250.1435 -47.8817 -0.926 -0.375 -0.044 60 55 52
380.1595 248.4681 -47.9802 -0.955 -0.294 -0.032 37 32 29
380.2125 239.3953 -48.3140 -0.883 0.020 0.468 43 38 32
373.9996 226.1543 -47.4727 -0.613 -0.704 0.359 113 102 100
374.6255 225.8041 -47.6173 -0.649 -0.606 0.459 84 73 71
376.2156 225.3727 -47.9685 -0.618 -0.702 0.354 99 87 87
375.7506 222.3856 -47.9765 -0.380 -0.830 -0.409 92 82 73
374.1721 220.2463 -47.7192 -0.629 0.196 -0.753 80 70 60
373.6791 206.3065 -48.1107 -0.897 -0.150 0.417 98 85 82
373.8521 205.6015 -48.1722 -0.996 0.053 0.073 79 69 68
373.4366 204.4580 -48.1252 -0.990 0.141 0.013 88 80 83
373.7886 203.8883 -48.2197 -0.997 -0.019 -0.069 109 105 106
373.8061 203.0705 -48.2525 -0.997 -0.019 -0.069 126 120 122
374.0550 202.4241 -48.3280 -0.998 -0.023 -0.058 128 119 122
373.7743 201.3897 -48.3056 -0.964 0.155 -0.215 126 120 122
372.7375 199.8072 -48.1429 -0.488 -0.771 0.409 118 112 114
370.9837 193.6527 -47.9913 -0.900 0.213 -0.380 91 77 76
371.1454 192.1516 -48.0788 -0.859 0.267 -0.437 102 88 87
370.7541 187.8665 -48.1485 -0.989 0.025 -0.147 103 92 88
370.7372 187.0569 -48.1738 -0.989 0.025 -0.147 102 91 87
370.7205 186.2487 -48.1990 -0.989 0.025 -0.147 102 91 87
370.7037 185.4419 -48.2241 -0.989 0.025 -0.147 102 91 87
369.5964 183.9023 -48.0450 -0.755 0.338 0.562 135 124 118
369.3906 182.9752 -48.0345 -0.694 0.200 0.691 127 116 110
371.2498 179.4804 -48.5514 -0.909 -0.039 0.415 118 101 94
371.5913 178.9159 -48.6436 -0.911 -0.024 0.412 123 105 101
371.1647 177.0727 -48.6190 -0.902 -0.283 0.326 114 96 92
371.0587 174.6647 -48.6822 -0.499 -0.740 0.451 104 87 80
371.5222 168.7604 -48.9900 -0.975 0.076 -0.208 107 90 83
371.0633 154.8487 -49.3877 -0.618 -0.599 -0.509 74 60 57
372.1405 154.6929 -49.6207 -0.625 -0.592 -0.509 74 63 61
370.1515 152.1196 -49.2922 -0.775 -0.193 -0.601 79 65 64
370.2444 151.4298 -49.3363 -0.773 -0.203 -0.601 86 72 71
361.0670 134.5400 -47.9988 -0.622 -0.632 0.462 98 82 82
356.7951 126.3691 -47.3872 -0.143 -0.429 0.892 100 82 82
367.1982 124.2143 -49.6606 -0.363 -0.849 0.384 82 70 73
359.5768 118.2431 -48.2635 -0.445 -0.498 -0.744 91 77 77
375.5203 119.3222 -51.5918 -0.109 0.063 0.992 109 91 89
375.7159 118.6985 -51.6553 -0.112 0.051 0.992 117 99 97
372.1126 116.5788 -50.9698 -0.581 0.339 0.740 128 110 108
359.5327 110.3167 -48.5359 -0.809 -0.495 0.318 109 91 89
371.1633 103.9952 -51.2167 -0.265 -0.375 -0.888 133 116 121
358.1350 84.5663 -49.1562 -0.675 0.232 0.701 64 47 48
356.4888 83.4984 -48.8466 -0.834 0.541 -0.112 63 50 50
355.9977 82.7573 -48.7692 -0.834 0.541 -0.112 62 50 50
360.6968 74.8977 -50.0410 -0.310 0.035 0.950 96 79 78
360.6136 74.2752 -50.0455 -0.310 0.035 0.950 99 81 79
359.9747 72.9264 -49.9585 -0.330 0.038 0.943 99 81 79
354.8737 69.4247 -49.0059 -0.707 -0.673 -0.217 103 85 83
357.0085 60.0137 -49.7912 -0.871 0.129 0.474 99 83 84
357.2230 59.4773 -49.8556 -0.872 0.134 0.471 97 78 80
356.6326 58.8033 -49.7549 -0.890 0.185 0.416 97 78 82
355.5533 47.9562 -49.9126 -0.486 -0.785 -0.385 46 32 32
356.5972 47.5300 -50.1482 -0.644 -0.762 -0.072 55 41 41
357.0117 47.0244 -50.2537 -0.832 0.061 0.552 57 43 43
357.8418 46.5662 -50.4453 -0.723 0.402 0.562 43 31 33
355.0708 44.0467 -49.9497 -0.703 0.104 0.703 69 58 62
357.8646 30.7361 -51.0129 -0.231 -0.829 0.509 93 79 79
365.4906 26.1663 -52.7857 -0.293 -0.798 0.527 83 69 69
365.4962 25.0761 -52.8256 -0.787 0.615 -0.053 77 63 63
363.5244 24.4892 -52.4301 -0.819 0.485 -0.307 81 67 67
359.3533 23.8694 -51.5714 -0.814 0.476 -0.332 87 73 73
357.3043 21.7373 -51.2145 -0.937 0.245 0.251 79 65 65
357.1704 21.2149 -51.2048 -0.937 0.245 0.251 91 77 77
357.0368 20.6938 -51.1951 -0.937 0.245 0.251 105 91 91
356.9036 20.1740 -51.1854 -0.937 0.245 0.251 106 92 92
356.3370 19.6548 -51.0842 -0.808 0.469 -0.357 106 92 92
357.4713 18.1019 -51.3790 -0.724 0.668 0.169 103 87 87
356.9305 17.5891 -51.2830 -0.770 0.613 0.179 101 83 81
355.9811 17.0834 -51.1005 -0.773 0.608 0.180 102 84 82
355.4229 16.5780 -51.0006 -0.770 0.608 0.193 102 84 82
355.6485 15.0453 -51.1027 -0.641 -0.280 0.715 100 82 80
354.6326 14.5578 -50.9055 -0.569 -0.219 0.792 95 77 75
354.4786 14.0556 -50.8909 -0.567 -0.267 0.779 88 72 70
357.2906 10.9358 -51.5956 -0.692 -0.685 -0.230 86 76 74
362.0036 9.7320 -52.6336 -0.651 -0.371 -0.662 85 75 73
366.5552 9.0220 -53.6200 -0.798 -0.328 -0.505 85 75 73
277.2386 -19.3598 -35.7683 -0.436 -0.899 -0.024 125 131 147
337.7008 -46.6567 -49.5064 -0.376 -0.922 0.096 43 49 65
386.8488 295.7754 -48.5371 -0.391 0.111 0.914 49 50 45
386.5147 294.4086 -48.5134 -0.391 0.111 0.914 49 50 45
386.4372 293.3152 -48.5349 -0.407 0.071 0.911 50 51 46
387.3473 292.2443 -48.7666 -0.463 -0.191 0.865 57 53 52
386.5125 285.3614 -48.8280 -0.885 0.461 0.056 60 54 54
384.8962 282.7262 -48.5746 -0.946 0.152 -0.288 66 60 60
384.4936 281.3312 -48.5372 -0.960 0.058 -0.275 70 64 64
384.2471 280.0982 -48.5275 -0.962 0.254 0.099 63 57 57
383.7317 278.5990 -48.4697 -0.962 0.266 0.057 50 44 44
383.4927 277.3817 -48.4610 -0.964 0.258 0.060 44 40 41
383.2215 276.1357 -48.4465 -0.963 0.263 0.055 74 73 73
