ply
format ascii 1.0
element vertex 860
property float x
property float y
property float z
property float nx
property float ny
property float nz
property uchar diffuse_red
property uchar diffuse_green
property uchar diffuse_blue
end_header
-280.0459 66.5355 18.5043 0.252 -0.290 0.923 47 46 51
-348.1948 104.2455 26.6215 0.693 -0.085 0.716 44 44 46
-359.2744 112.2964 28.2230 0.759 -0.153 0.632 50 50 50
-346.0474 106.2232 26.8304 0.873 -0.086 0.481 57 57 57
-323.3770 99.9608 25.0523 -0.441 -0.847 0.298 55 53 56
-292.9899 86.1333 21.8713 0.431 -0.834 -0.343 73 72 78
-292.9873 86.6597 21.9485 0.885 -0.422 0.199 77 76 82
-291.7118 86.3976 21.8617 0.890 -0.402 0.218 90 89 95
-344.1956 144.7478 32.4150 -0.007 -0.727 0.686 59 57 62
-236.5961 220.2705 39.4237 -0.190 -0.978 0.085 56 55 61
-235.6589 219.7096 39.3059 0.017 -0.692 -0.722 67 66 72
-235.0197 219.7451 39.2869 0.017 -0.692 -0.722 47 46 52
-234.4725 219.9654 39.2985 0.019 -0.692 -0.721 40 39 45
-222.7958 211.2357 37.5747 0.975 -0.137 0.176 19 20 25
-221.7137 214.2082 37.9701 0.180 -0.703 0.688 64 68 71
-218.0828 210.0491 37.2220 -0.053 -0.323 0.945 80 84 87
-285.2411 11.7225 10.3346 0.859 -0.080 0.505 55 55 65
-241.2325 31.9520 11.6696 0.775 -0.606 -0.179 107 108 113
-239.8587 34.2706 11.9560 -0.257 -0.962 0.091 167 164 171
-237.3811 34.0085 11.8280 0.102 -0.388 0.916 54 51 60
-279.7313 65.4958 17.9345 0.180 -0.349 0.920 58 57 63
-347.5657 103.9214 25.9737 0.693 -0.085 0.716 44 44 46
-293.5383 86.4906 21.4817 0.430 -0.840 -0.331 26 25 31
-293.4012 86.9357 21.5413 0.403 -0.858 -0.318 28 27 33
-292.6452 86.9976 21.5228 0.418 -0.844 -0.335 36 35 41
-282.9330 86.0773 21.0364 0.455 -0.889 0.058 130 132 131
-287.3370 90.5638 21.8472 0.486 -0.337 -0.806 125 125 125
-281.4394 117.7449 25.5757 -0.160 -0.950 -0.267 68 64 63
-278.3232 137.3567 28.3072 0.100 -0.931 -0.350 78 76 79
-276.5074 137.0567 28.1977 0.089 -0.934 -0.347 72 70 73
-275.8267 137.1268 28.1832 0.089 -0.934 -0.347 77 75 78
-285.0045 190.5180 36.2615 0.908 -0.224 0.355 224 221 228
-307.6786 222.6576 41.7475 0.596 -0.610 -0.522 224 221 230
-243.6930 229.1467 40.3635 -0.187 -0.957 0.223 131 128 135
-347.9947 58.0014 18.8302 -0.276 -0.960 0.044 87 88 93
-241.1037 31.9018 11.3700 0.778 -0.605 -0.170 111 112 117
-244.5084 34.2858 11.8302 -0.108 -0.583 0.805 160 161 166
-237.0454 33.2738 11.4255 0.142 -0.383 0.913 153 150 157
-321.9549 78.6307 20.8809 0.039 -0.618 0.785 110 103 114
-324.3925 80.8817 21.2884 -0.065 -0.567 0.821 209 202 214
-289.0688 89.5589 21.3029 0.308 -0.732 0.608 66 68 67
-287.5199 90.7072 21.4136 0.481 -0.341 -0.808 58 58 56
-300.8834 111.1077 24.8026 0.987 -0.159 0.009 68 65 72
-344.3561 148.1348 31.6223 -0.042 -0.927 0.372 84 81 88
-280.3297 116.8382 24.9088 -0.210 -0.959 -0.188 68 64 63
-272.4947 154.2517 29.9986 0.983 0.058 -0.172 104 99 103
-270.9026 153.2836 29.8045 0.982 -0.061 -0.177 83 78 82
-310.9586 228.1588 41.9300 0.265 0.001 0.964 236 233 242
-239.9552 224.5864 38.9474 -0.247 -0.942 -0.230 98 98 102
-239.1029 224.2337 38.8672 -0.137 -0.798 -0.586 79 78 84
-211.7980 0.5345 5.6662 -0.105 -0.993 0.059 66 65 73
-358.1480 60.5644 19.0324 -0.211 -0.902 0.377 81 82 87
-346.9899 57.6568 18.2497 -0.262 -0.954 0.147 82 83 88
-353.2840 77.6245 21.2864 -0.194 -0.798 0.570 88 85 92
-241.2824 31.9859 11.1001 0.770 -0.613 -0.176 118 119 124
-344.7707 88.1573 22.4948 -0.176 -0.761 0.624 115 107 118
-330.9391 82.5267 21.2376 -0.186 -0.899 0.397 96 88 99
-323.5448 79.9498 20.6269 0.079 -0.829 0.554 152 144 155
-276.5508 63.8089 16.7789 0.249 -0.442 0.862 84 79 83
-275.3173 63.5729 16.7044 0.273 -0.412 0.869 56 51 55
-243.4079 52.6889 14.1023 0.589 0.075 0.805 100 98 101
-242.9412 52.7801 14.0997 0.257 -0.241 0.936 105 103 106
-350.9859 128.3035 28.3862 0.115 -0.980 0.165 82 84 83
-286.6278 89.0638 20.6900 0.404 -0.914 0.015 56 58 57
-292.3587 94.4901 21.6489 0.371 -0.507 -0.778 35 35 35
-340.4518 150.8809 31.2329 -0.405 -0.875 0.266 132 129 136
-217.7355 136.7971 25.1585 0.892 -0.422 -0.163 151 149 154
-239.0112 221.4952 37.8593 -0.099 -0.710 0.697 132 130 137
-239.4902 226.5093 38.5852 -0.211 -0.888 0.408 107 106 112
-214.2618 200.4437 34.0555 -0.054 -0.325 0.944 33 36 41
-160.3233 385.6341 58.4853 0.184 -0.969 0.165 42 50 53
-344.8543 56.9186 17.5824 -0.272 -0.961 0.049 77 78 83
-354.1008 77.4407 20.7459 -0.323 -0.901 0.290 89 84 91
-347.1262 84.7783 21.5512 0.487 -0.624 0.611 79 76 83
-347.2368 85.3899 21.6402 0.477 -0.630 0.612 87 84 91
-350.2480 89.0878 22.2529 -0.216 -0.918 0.332 76 70 80
-349.1562 89.1416 22.2258 -0.064 -0.857 0.511 91 83 94
-346.7906 88.5778 22.0720 -0.071 -0.857 0.510 106 98 109
-279.7527 123.7705 24.8693 -0.177 -0.931 0.320 88 84 85
-294.8798 197.8588 35.7117 0.033 -0.771 0.636 107 106 112
-277.9705 206.1174 36.3308 0.896 -0.176 0.407 220 220 222
-216.6016 135.8883 24.5623 0.894 -0.414 -0.171 145 143 148
-248.3918 253.6535 42.0422 0.502 -0.711 0.492 37 36 44
-200.5551 -2.9034 4.4755 0.389 -0.056 0.920 76 75 83
-260.2803 13.7706 8.5797 -0.198 -0.974 0.107 103 102 110
-341.3435 65.1119 18.1163 0.790 -0.429 0.438 68 64 79
-285.2307 44.7131 13.6065 0.370 -0.650 0.664 76 72 87
-367.4213 79.1188 20.8375 0.278 -0.615 -0.738 65 60 67
-367.7491 79.8088 20.9427 0.269 -0.623 -0.734 58 53 60
-343.6941 75.6720 19.6459 -0.168 -0.907 -0.385 81 82 87
-338.2266 73.8220 19.2255 -0.069 -0.966 0.248 80 81 86
-349.8481 88.9113 21.6604 -0.061 -0.850 0.523 59 53 63
-348.4835 88.8334 21.6085 -0.017 -0.841 0.541 74 66 77
-358.6442 95.5175 22.8382 -0.118 -0.603 0.789 75 67 78
-344.6959 106.8428 23.9821 0.110 -0.765 -0.634 58 56 61
-267.0603 67.5976 16.2199 0.799 -0.538 0.268 87 80 88
-281.9096 124.3571 24.5085 0.420 -0.061 0.906 95 91 92
-228.2127 84.4827 17.3811 0.734 -0.178 -0.656 93 91 96
-237.2807 233.4361 38.2313 -0.332 -0.915 0.230 34 32 45
-209.1711 244.3064 38.8854 0.166 -0.601 -0.782 33 32 37
-210.4396 255.0723 40.4109 0.949 -0.299 -0.099 23 22 27
-210.9342 260.2198 41.1368 0.952 -0.301 0.060 27 24 31
-221.8470 299.0978 46.8366 0.888 0.199 0.415 31 28 35
-139.2734 68.6782 12.5162 0.482 -0.530 -0.698 47 41 55
-160.0558 384.8855 56.8244 0.167 -0.974 0.151 32 40 43
-338.2400 28.9643 12.5955 0.003 -0.520 0.854 80 80 90
-348.9090 32.2214 13.3450 -0.079 -0.635 0.769 85 84 92
-345.4638 66.2309 17.8857 0.767 -0.365 0.527 56 52 66
-368.4502 80.1042 20.4356 0.269 -0.623 -0.734 65 60 67
-344.6709 75.5790 19.1382 -0.153 -0.716 -0.681 82 83 88
-344.4359 76.0032 19.1894 -0.168 -0.907 -0.385 86 87 92
-357.5751 90.8392 21.5890 -0.277 -0.933 0.229 98 95 102
-348.2991 88.1862 20.9618 -0.172 -0.927 0.332 73 67 77
-347.5576 88.4036 20.9702 -0.017 -0.841 0.541 61 53 64
-356.2895 94.3858 22.0360 -0.111 -0.530 0.841 79 71 82
-353.6445 93.6917 21.8657 -0.117 -0.525 0.843 88 80 91
-351.7273 110.8485 24.1512 0.960 0.029 -0.278 73 71 76
-351.8039 111.5520 24.2494 0.965 0.033 -0.260 63 61 66
-233.9541 232.2212 37.3393 0.030 -0.999 0.013 34 32 45
-139.5149 69.0060 12.3738 0.278 -0.685 -0.673 40 34 46
-139.2760 68.7771 12.3357 0.408 -0.644 -0.647 42 36 48
-335.1458 27.8792 11.9318 -0.001 -0.498 0.867 78 78 90
-426.0409 57.8233 18.4235 0.732 -0.405 -0.548 97 95 106
-250.6996 30.0847 9.9444 0.652 -0.637 -0.411 61 58 69
-355.3404 72.6644 18.5097 0.635 -0.199 0.747 64 61 74
-360.8176 78.6430 19.4631 0.613 -0.669 -0.422 74 69 75
-361.1113 80.4214 19.7106 -0.264 -0.730 -0.630 74 69 75
-347.1657 76.6620 18.8270 -0.140 -0.712 -0.688 68 69 74
-292.9796 55.0041 14.4443 0.533 -0.721 -0.443 71 72 77
-352.5869 89.0862 20.6469 -0.313 -0.929 0.199 106 101 108
-347.5298 88.4048 20.4184 0.832 -0.540 -0.126 79 71 82
-349.2165 106.2195 22.8633 -0.027 -0.962 -0.271 94 92 97
-348.0208 106.1958 22.8277 -0.027 -0.962 -0.271 101 99 104
-344.7699 178.3094 32.4520 0.840 -0.427 0.335 63 59 60
-283.8893 140.8209 25.7562 0.226 -0.656 0.720 79 74 80
-284.8183 144.0576 26.2172 0.774 -0.232 0.589 80 78 81
-269.8227 194.8648 32.6543 0.285 -0.879 0.381 189 186 193
-276.3684 303.4666 47.4578 0.371 -0.822 -0.433 88 85 94
-227.0784 209.5314 33.4733 -0.342 -0.902 0.265 35 33 44
-230.8440 221.4750 35.1837 -0.307 -0.936 0.174 37 35 48
-236.2601 240.3226 37.8686 -0.394 -0.873 0.288 34 32 45
-239.5445 249.0516 39.1331 0.916 0.261 0.306 31 31 41
-210.0099 247.1072 38.0722 0.256 -0.580 -0.773 20 19 24
-139.7336 69.2388 12.2159 0.165 -0.764 -0.624 34 28 40
-139.5338 69.1682 12.2010 0.278 -0.685 -0.673 35 32 43
-139.2944 68.9384 12.1636 0.408 -0.644 -0.647 40 37 48
-229.0584 12.4261 6.7447 0.322 -0.081 0.943 76 76 86
-225.8091 12.0458 6.6112 -0.181 -0.983 -0.043 88 88 98
-348.1554 68.2925 17.2089 0.150 -0.873 -0.464 48 45 54
-359.7150 80.3974 19.1130 -0.253 -0.723 -0.643 71 66 72
-352.9117 78.5999 18.7006 -0.188 -0.730 -0.656 44 43 49
-350.4425 78.0815 18.5687 -0.188 -0.730 -0.656 50 50 58
-273.7504 46.5673 12.4233 0.834 0.026 -0.551 88 88 96
-368.3853 93.5063 21.0769 0.137 -0.989 -0.053 75 72 79
-352.4816 89.0506 20.0790 -0.255 -0.942 0.219 106 101 108
-348.2357 88.7581 19.9318 0.817 -0.559 -0.138 105 97 108
-345.8695 88.1920 19.7962 0.222 -0.850 -0.477 91 83 94
-345.7982 89.8785 20.0186 -0.180 -0.640 0.747 63 55 66
-331.6358 84.5715 18.9519 -0.210 -0.685 0.697 57 49 62
-350.5538 106.9796 22.4134 -0.094 -0.910 -0.403 86 84 89
-351.6486 116.8819 23.7578 0.675 -0.271 0.687 87 80 88
-350.6270 116.9572 23.7418 0.760 -0.249 0.600 100 93 101
-287.8436 133.3536 24.3207 -0.242 -0.919 -0.312 50 45 49
-285.4098 206.6513 34.0033 0.942 0.080 -0.326 84 78 88
-269.6106 194.6520 32.0052 0.285 -0.879 0.381 100 94 106
-230.1347 222.8544 34.7479 -0.189 -0.979 -0.077 38 36 49
-232.7967 230.0092 35.7670 0.893 0.206 0.399 44 42 55
-236.9915 243.5885 37.6793 0.917 0.267 0.296 25 25 35
-210.2507 247.9974 37.5836 0.272 -0.583 -0.766 31 30 35
-209.1862 246.6775 37.3810 0.175 -0.599 -0.782 52 51 56
-209.1687 250.1571 37.8431 0.420 -0.739 -0.526 108 107 112
-139.7388 69.3470 12.0345 0.195 -0.714 -0.673 33 30 41
-139.5389 69.2767 12.0200 0.302 -0.656 -0.692 35 32 43
-139.3248 69.1471 11.9973 0.499 -0.481 -0.721 40 37 48
-349.6319 68.8793 16.8034 0.503 -0.555 0.662 54 51 60
-348.4228 69.9246 16.9116 0.552 -0.480 0.681 61 58 68
-347.4627 70.0497 16.9050 0.301 -0.482 0.823 62 59 66
-361.0133 79.2946 18.4426 0.537 -0.723 -0.434 83 77 79
-356.1355 79.9895 18.4170 -0.222 -0.776 -0.590 50 49 55
-362.7866 91.5365 20.0914 0.480 -0.877 -0.012 71 68 76
-353.7564 89.0864 19.5536 -0.180 -0.982 0.052 95 92 100
-347.7557 88.5423 19.3385 0.846 -0.496 -0.197 128 120 131
-338.6946 86.4125 18.8421 -0.189 -0.966 0.177 69 61 72
-288.7845 119.5354 21.9930 0.030 -0.863 -0.505 39 33 33
-343.1956 170.5844 29.9944 0.490 -0.552 0.675 80 75 72
-279.3650 157.2575 26.7171 0.915 -0.251 0.315 105 98 105
-287.1884 210.2871 33.8626 0.943 0.095 -0.319 75 69 79
-230.0869 222.8923 34.1491 -0.189 -0.979 -0.077 57 55 68
-233.0728 232.1936 35.4411 0.902 0.209 0.379 32 30 43
-210.2951 248.3241 37.0121 0.278 -0.585 -0.762 43 42 47
-208.1934 245.7428 36.6231 0.105 -0.690 -0.716 94 93 98
-139.3510 69.3400 11.8280 0.525 -0.458 -0.718 41 38 49
-234.8381 2.9729 5.1776 -0.068 -0.974 0.217 58 56 69
-227.3866 11.9090 6.1677 0.450 0.008 0.893 72 72 80
-363.0363 60.7982 15.5358 0.854 -0.115 -0.507 80 79 87
-357.5340 60.8737 15.4224 -0.224 -0.973 -0.049 84 82 93
-209.7832 15.2886 6.2111 0.109 -0.843 0.526 48 44 45
-208.0768 15.4174 6.1895 0.017 -0.978 0.210 70 65 69
-350.1169 79.5859 17.6791 0.513 -0.347 -0.785 66 64 75
-296.6410 57.4835 13.6197 0.899 -0.186 -0.397 74 72 83
-366.9048 94.0642 19.9297 -0.056 -0.948 -0.314 64 62 74
-363.4044 93.0355 19.7181 -0.016 -0.968 -0.249 82 80 92
-342.9332 86.8041 18.4528 0.507 -0.830 0.230 114 108 118
-340.9511 86.4073 18.3571 0.279 -0.942 0.188 91 85 95
-317.9417 77.7855 16.7254 -0.194 -0.718 0.668 73 65 76
-343.8127 127.4564 23.7362 -0.149 -0.960 -0.238 67 65 68
-336.0423 204.2751 33.5086 0.038 -0.882 -0.471 80 78 83
-335.0569 204.3255 33.4931 0.038 -0.882 -0.471 84 82 87
-280.3518 158.4037 26.3220 0.937 -0.307 0.167 90 83 90
-287.6992 171.0444 28.1232 0.981 0.183 -0.065 93 86 93
-286.6655 197.5443 31.5313 0.360 -0.864 0.352 76 70 82
-286.7926 198.7794 31.6940 0.665 -0.691 0.283 76 70 82
-279.1201 204.9076 32.3157 -0.268 -0.934 0.235 118 112 122
-272.1864 197.3873 31.1867 0.189 -0.929 0.317 108 102 114
-269.2864 194.3680 30.7308 0.288 -0.948 0.133 101 95 107
-226.8741 213.4318 32.2493 -0.340 -0.895 0.290 87 86 100
-226.1071 213.1217 32.1920 -0.340 -0.895 0.290 88 87 101
-230.0137 222.8755 33.5424 -0.206 -0.974 -0.097 101 100 114
-210.4424 248.9474 36.4799 0.278 -0.585 -0.762 25 25 27
-211.1821 258.3107 37.7088 0.969 0.141 0.202 23 20 27
-139.3846 69.5623 11.6618 0.525 -0.458 -0.718 41 38 49
-234.3246 2.8605 4.9235 -0.062 -0.974 0.216 64 62 75
-352.1949 31.8058 11.0777 -0.171 -0.931 -0.322 72 70 83
-286.9672 22.2989 8.5038 0.682 -0.486 -0.547 72 68 82
-363.3158 61.8853 15.1520 -0.216 -0.970 -0.113 78 77 85
-355.6568 60.7133 14.8427 0.152 -0.783 -0.603 78 77 85
-351.3182 59.6799 14.6202 0.617 -0.416 -0.668 83 82 90
-347.0124 58.6421 14.3979 -0.103 -0.976 -0.190 84 83 91
-330.7489 54.2334 13.4958 -0.051 -0.875 -0.482 79 77 82
-359.8922 77.7535 17.1077 0.568 -0.729 -0.382 57 53 54
-326.2064 80.8494 16.8011 -0.216 -0.673 0.707 88 82 92
-351.2241 108.7098 20.8816 0.707 -0.171 0.686 125 123 128
-348.1708 130.3599 23.5836 -0.269 -0.963 -0.028 73 71 74
-276.5535 98.7873 18.0577 0.927 0.221 0.302 65 60 64
-342.1182 174.3334 29.0748 0.645 -0.362 0.673 61 55 55
-335.4656 169.4339 28.3103 0.831 -0.556 0.039 64 58 58
-286.6822 198.7190 31.0345 0.629 -0.740 0.239 104 98 110
-291.6452 211.9088 32.8229 0.964 -0.262 0.052 70 64 76
-276.1541 237.1443 35.7237 -0.205 -0.832 0.515 130 129 135
-233.6508 235.2125 34.5911 0.858 0.263 0.441 153 151 164
-236.9216 243.9021 35.7693 0.858 0.263 0.441 88 88 98
-236.9992 247.1436 36.1850 0.925 0.226 0.306 27 27 37
-206.7012 258.0485 36.9466 0.956 0.229 0.183 33 30 39
-139.5849 69.7241 11.4903 0.309 -0.637 -0.706 38 35 46
-139.4155 69.7746 11.4933 0.507 -0.471 -0.722 43 40 51
-245.1969 9.7316 5.7709 -0.205 -0.968 0.145 109 107 120
-373.3940 60.7608 14.6736 0.233 -0.865 0.443 53 53 63
-372.3362 60.9177 14.6730 0.165 -0.949 0.269 59 59 69
-361.7238 61.3455 14.5222 -0.205 -0.971 -0.120 92 91 99
-356.3209 60.9496 14.3681 0.152 -0.783 -0.603 81 80 88
-359.1920 77.4749 16.5058 0.438 -0.806 -0.399 54 50 51
-360.6772 91.1939 18.2631 0.237 -0.911 0.336 75 73 86
-354.8162 90.2116 18.0263 0.112 -0.932 0.344 115 113 126
-327.7301 90.9829 17.6011 -0.010 -0.939 -0.343 85 79 89
-287.5562 72.6760 14.5194 0.934 -0.256 -0.250 75 73 78
-348.7030 115.9094 21.1466 -0.173 -0.956 -0.236 42 37 44
-339.9630 112.0112 20.4868 -0.420 -0.907 -0.040 54 49 56
-289.1767 135.4768 22.4641 -0.030 -0.892 -0.451 51 46 50
-288.6308 135.7192 22.4841 0.227 -0.543 -0.809 51 46 50
-284.7440 155.6104 24.9156 0.041 -0.909 -0.414 76 74 78
-290.7962 174.6712 27.4341 0.966 0.043 0.255 84 77 84
-288.0282 199.4689 30.5055 0.398 -0.715 0.574 104 98 110
-287.4365 206.3732 31.3640 0.787 -0.331 -0.520 69 63 75
-298.4472 278.0544 40.6088 0.631 0.215 0.745 123 118 124
-238.4065 252.0192 36.1701 0.945 0.241 0.220 41 40 48
-245.5879 274.9494 39.1980 0.940 0.273 0.204 32 31 39
-235.8467 3.3804 4.5587 0.339 -0.850 0.403 61 59 72
-373.3688 55.3372 13.4541 0.645 0.110 0.756 115 114 120
-368.8301 61.2671 14.1105 0.766 -0.295 -0.570 88 87 96
-367.0925 62.1833 14.1936 0.418 -0.883 -0.213 100 99 107
-363.0088 61.7900 14.0723 -0.216 -0.963 -0.164 106 105 113
-356.7257 75.9308 15.7181 0.448 -0.735 -0.508 53 49 48
-294.2642 51.1329 11.5289 0.231 -0.603 0.763 66 62 63
-348.5225 115.1506 20.4466 0.112 -0.898 -0.427 85 83 88
-347.5902 115.9465 20.5290 -0.412 -0.910 -0.054 128 126 131
-348.9614 123.0063 21.4306 0.896 -0.330 -0.298 117 115 120
-347.1361 159.8803 25.9806 0.941 -0.108 -0.321 110 104 108
-341.2346 170.9219 27.2481 0.566 -0.392 0.726 87 82 79
-292.0767 135.9226 22.0270 0.192 -0.824 -0.534 66 62 63
-286.2377 146.5524 23.2444 0.766 -0.198 0.611 70 65 71
-288.9800 152.5478 24.0381 0.798 0.247 0.549 52 47 53
-294.7157 160.0743 25.0752 0.952 -0.253 0.171 70 68 73
-286.4005 163.4813 25.3511 0.684 -0.424 -0.593 72 68 69
-334.5558 223.0101 33.6028 0.981 0.159 0.108 59 52 59
-336.0598 225.8802 33.9861 0.972 0.228 0.057 66 59 66
-276.5620 188.8041 28.3236 0.217 -0.040 0.975 119 113 125
-282.6324 214.7317 31.6533 0.370 -0.920 0.127 105 99 111
-291.6576 240.3715 34.9996 0.401 -0.345 0.848 95 92 99
-233.0275 235.6147 33.3688 0.941 0.254 0.225 144 143 149
-368.2616 60.0900 13.4179 0.083 -0.949 0.305 69 67 80
-369.1457 60.8774 13.5287 0.563 -0.333 -0.756 85 83 95
-368.8497 61.2779 13.5730 0.563 -0.333 -0.756 87 86 95
-369.5857 62.0236 13.6763 0.568 -0.328 -0.755 89 88 96
-369.2927 62.4280 13.7211 0.568 -0.328 -0.755 93 92 100
-369.6732 63.0606 13.8048 0.567 -0.331 -0.754 100 99 107
-365.4090 62.1166 13.6201 0.770 -0.208 -0.603 107 106 114
-363.5995 61.9970 13.5762 -0.172 -0.900 -0.400 113 112 120
-352.9593 59.7895 13.1336 -0.196 -0.965 -0.173 119 118 126
-357.0702 76.0816 15.1964 0.448 -0.735 -0.508 61 57 58
-351.2346 95.6209 17.4962 0.893 -0.146 -0.426 44 41 52
-346.4288 108.6665 19.0170 0.215 -0.358 0.909 52 51 56
-351.1171 116.0327 19.9955 0.455 -0.132 0.880 103 102 107
-347.7484 115.3895 19.8622 0.119 -0.905 -0.408 152 151 156
-347.5112 115.9238 19.9238 -0.418 -0.906 -0.065 164 163 168
-351.1180 123.6720 20.9316 -0.206 -0.978 0.047 92 92 94
-342.0891 126.4385 21.1245 0.830 -0.421 -0.365 48 46 49
-342.5515 127.4626 21.2574 0.829 -0.438 -0.347 48 46 49
-347.4115 156.7271 24.9220 0.498 -0.819 -0.285 62 57 61
-346.1267 160.8468 25.4060 0.979 0.078 -0.189 94 88 92
-346.1770 161.7530 25.5178 0.979 0.078 -0.189 64 58 62
-348.0132 164.1017 25.8353 0.640 -0.245 -0.728 75 69 71
-335.6381 168.8366 26.2153 0.481 -0.452 0.751 81 75 75
-332.3619 166.8664 25.9209 0.996 0.061 0.066 75 69 69
-285.4950 145.0728 22.4923 0.629 -0.348 0.695 95 90 96
-284.9622 145.3338 22.5156 0.712 -0.241 0.660 108 103 109
-334.8783 221.1265 32.6103 0.993 -0.011 -0.120 79 72 79
-335.7623 225.6266 33.1760 0.977 0.189 0.094 73 66 73
-336.0801 227.1718 33.3705 0.977 0.189 0.094 73 66 73
-288.4718 200.2083 29.2964 0.367 -0.850 0.378 119 113 125
-282.0085 244.2679 34.5906 0.984 0.178 0.024 118 115 122
-257.4274 300.6677 41.1039 0.792 0.257 0.554 34 33 39
-239.2341 269.1104 36.9427 0.200 -0.854 -0.481 43 35 46
-358.4131 36.4922 9.8870 0.867 0.175 0.466 83 81 94
-358.3604 36.8923 9.9345 0.864 0.172 0.473 94 92 105
-384.7456 49.4599 11.8384 0.293 -0.176 0.940 106 102 116
-365.1066 58.5706 12.6518 0.622 -0.700 0.352 61 59 73
-365.7166 59.2587 12.7438 0.436 -0.863 0.257 71 69 83
-368.0250 60.5115 12.9289 0.806 -0.225 -0.548 84 82 95
-347.6238 58.8784 12.4334 -0.146 -0.954 -0.263 111 110 116
-364.2946 68.8548 13.8822 0.644 -0.122 -0.755 75 72 79
-296.2825 45.2927 10.0417 0.643 -0.208 -0.737 60 57 64
-362.5923 80.0140 15.2053 0.517 -0.762 -0.390 114 110 111
-347.5946 111.3199 18.7676 0.951 0.018 -0.308 42 41 46
-347.7093 112.0471 18.8572 0.948 0.020 -0.318 56 55 60
-289.8104 114.6528 18.3254 0.397 -0.434 0.808 52 46 50
-346.6475 162.1750 24.8968 0.987 0.080 -0.139 56 50 52
-287.0049 143.4626 21.7645 0.909 -0.410 -0.074 64 57 65
-286.7010 143.9489 21.8188 0.905 -0.425 0.027 69 62 70
-285.8061 145.4306 21.9847 0.690 -0.267 0.673 115 108 115
-287.8335 150.6725 22.6475 0.946 -0.008 0.324 104 97 104
-334.8843 217.7652 31.4399 0.814 -0.281 -0.509 120 115 116
-336.8828 228.1671 32.7256 0.975 0.182 0.123 78 71 78
-281.8431 181.6016 26.2960 0.600 -0.258 0.757 51 41 49
-281.8477 183.5851 26.5357 0.611 -0.252 0.750 83 77 87
-299.7124 225.4804 31.8576 0.970 0.155 0.186 118 112 122
-282.8354 247.0945 34.2217 0.864 -0.037 -0.502 114 109 115
-277.2366 240.7226 33.3702 0.868 0.028 -0.495 109 104 111
-227.8174 224.3981 30.6757 0.903 0.251 0.348 147 146 152
-363.2396 35.9966 9.4107 0.895 -0.186 0.405 59 57 70
-362.5435 37.4994 9.5805 0.836 -0.201 0.511 87 85 98
-366.7759 59.6104 12.2682 0.218 -0.758 0.615 73 71 85
-368.3123 61.6070 12.5260 0.570 -0.718 -0.399 82 79 88
-370.1117 62.7125 12.6811 0.808 -0.247 -0.534 93 90 99
-369.9408 63.1605 12.7322 0.808 -0.247 -0.534 104 101 110
-357.9649 61.5427 12.3832 -0.130 -0.901 -0.413 106 103 110
-351.7167 59.8455 12.0995 -0.005 -0.906 -0.423 107 104 111
-365.2745 69.2230 13.3930 0.717 -0.071 -0.694 68 67 75
-289.7863 42.4793 9.2230 -0.213 -0.765 -0.608 63 62 70
-295.6833 45.4540 9.6541 0.757 -0.354 -0.550 58 56 62
-354.8555 73.6014 13.7782 0.797 -0.013 0.603 61 56 62
-354.9510 75.2321 13.9736 0.737 -0.283 0.613 82 77 81
-356.8164 76.5353 14.1531 0.578 -0.691 -0.435 86 81 85
-351.6569 94.6631 16.2439 -0.260 -0.721 0.642 142 139 148
-202.0697 20.8118 5.4975 -0.268 -0.806 -0.528 66 60 72
-347.7961 105.6195 17.4979 0.259 -0.733 -0.628 63 60 68
-345.9543 115.0403 18.5955 -0.050 -0.432 0.900 153 152 157
-347.3567 127.7877 20.1314 0.754 -0.388 -0.531 56 55 53
-353.0033 170.9277 25.3413 0.070 -0.518 0.853 62 53 58
-288.1915 144.6648 21.3679 0.871 -0.489 0.049 64 54 62
-287.9073 145.1760 21.4250 0.871 -0.489 0.049 60 50 58
-285.4290 145.1067 21.3844 0.671 -0.276 0.688 109 103 107
-288.4602 151.3574 22.1682 0.676 -0.674 -0.299 113 107 111
-335.1848 218.1736 30.7334 0.814 -0.281 -0.509 120 110 113
-334.9419 219.0509 30.8347 0.813 -0.308 -0.494 101 91 99
-292.0380 174.4542 24.9647 0.004 -0.880 -0.475 88 78 86
-280.0684 172.8024 24.6117 0.200 -0.957 0.211 63 54 61
-301.0115 227.3328 31.3774 0.952 0.111 0.285 116 108 119
-279.0335 242.4176 32.8863 0.030 -0.829 0.559 114 107 114
-248.8811 290.5078 38.2178 0.972 0.177 -0.152 40 34 44
-347.3825 33.0107 8.3907 0.925 -0.342 0.165 77 75 88
-358.2745 50.3134 10.5459 -0.082 -0.607 0.791 42 41 49
-353.5100 49.3239 10.3750 -0.090 -0.589 0.803 72 71 79
-368.8191 62.7859 12.1304 0.283 -0.202 0.938 113 110 118
-357.4998 61.3859 11.8359 -0.026 -0.904 -0.426 95 93 98
-353.1732 60.3608 11.6659 0.020 -0.917 -0.399 96 94 99
-364.9667 69.1163 12.8287 0.716 -0.075 -0.694 62 60 71
-354.5483 74.0147 13.2835 -0.127 -0.769 0.627 74 69 73
-356.1065 75.1800 13.4382 0.817 0.026 0.575 83 78 82
-362.8260 97.1307 16.0906 -0.079 -0.628 0.774 71 68 77
-350.3918 115.0002 18.0439 0.075 -0.310 0.948 53 52 57
-349.1602 114.9499 18.0239 0.066 -0.314 0.947 111 110 115
-348.3257 115.1307 18.0355 0.068 -0.311 0.948 134 133 138
-347.3546 115.2279 18.0357 -0.011 -0.411 0.912 145 144 149
-284.3021 92.7180 14.6695 0.666 -0.386 -0.638 89 84 88
-349.5193 156.7870 22.9361 0.274 -0.959 -0.067 68 62 64
-343.1697 156.0739 22.7794 0.008 -0.980 -0.200 66 60 62
-345.1744 171.7547 24.6421 0.246 -0.836 0.490 92 82 90
-338.9403 188.0414 26.4810 0.628 -0.192 0.754 80 68 74
-339.7023 190.7589 26.8086 0.766 -0.034 0.642 79 67 75
-340.3316 192.3680 27.0046 0.781 -0.035 0.624 79 66 75
-340.4897 193.5339 27.1432 0.658 -0.177 0.732 80 67 76
-340.3639 194.4312 27.2470 0.658 -0.177 0.732 78 65 74
-285.5183 146.0375 20.9387 0.605 -0.444 -0.661 86 77 82
-287.4658 148.7823 21.2831 0.719 -0.376 -0.584 91 82 87
-336.9519 226.0342 30.9153 0.970 0.011 0.243 74 64 72
-337.0026 227.2779 31.0618 0.970 0.011 0.243 109 99 107
-335.9944 235.8188 32.0522 0.820 -0.335 -0.463 92 84 89
-336.9388 238.1740 32.3393 0.934 -0.327 0.142 99 91 96
-336.4391 238.8330 32.4109 0.792 -0.420 -0.443 74 65 71
-281.4251 180.2531 24.9056 0.762 -0.319 -0.564 74 63 69
-282.3069 182.3201 25.1583 0.962 0.216 -0.166 56 46 52
-283.1822 184.3950 25.4118 0.964 0.218 -0.152 53 41 51
-283.7562 186.1108 25.6197 0.965 0.213 -0.150 45 33 43
-290.1086 208.1268 28.2756 0.884 -0.418 0.210 67 59 72
-291.9613 214.0286 28.9893 -0.168 -0.605 0.778 81 73 84
-301.5010 235.5947 31.6290 -0.058 -0.993 -0.100 65 60 67
-196.5601 93.9548 13.8052 0.555 -0.466 -0.689 104 96 107
-291.2692 242.8887 32.3670 0.978 0.200 0.063 72 67 74
-299.0188 263.1650 34.8349 0.995 -0.095 -0.014 116 111 115
-290.2084 272.6667 35.8482 -0.103 -0.748 0.656 97 90 98
-289.2092 272.5017 35.8174 -0.103 -0.748 0.656 97 90 97
-288.4214 272.6917 35.8306 -0.105 -0.747 0.657 97 90 97
-235.8968 251.9146 32.7888 0.790 0.261 0.556 134 133 139
-375.3615 41.5121 9.1939 0.947 -0.071 0.313 128 126 139
-210.4527 1.8261 2.9671 -0.083 -0.638 -0.765 62 60 73
-377.3025 46.5360 9.7939 0.532 -0.121 0.838 160 156 170
-345.8858 47.0138 9.5366 -0.092 -0.597 0.797 45 44 52
-369.6751 55.1874 10.7179 0.620 0.070 0.782 47 45 56
-366.9964 62.6758 11.5567 0.283 -0.202 0.938 119 117 122
-358.2586 61.6554 11.3519 -0.019 -0.894 -0.447 84 81 88
-355.3844 61.1406 11.2638 0.017 -0.897 -0.442 85 82 89
-354.0839 61.1701 11.2543 0.017 -0.897 -0.442 85 82 89
-369.0362 69.0415 12.3127 0.763 0.031 -0.645 73 71 82
-366.5472 69.1820 12.3042 0.764 -0.016 -0.645 61 59 70
-354.8083 72.5480 12.5764 -0.018 -0.661 0.750 49 43 47
-353.9372 73.2491 12.6488 -0.095 -0.783 0.614 85 78 85
-357.9609 94.7841 15.1777 -0.097 -0.587 0.804 83 80 89
-355.3766 94.1287 15.0763 -0.159 -0.684 0.712 82 79 88
-354.8232 107.5914 16.6267 0.978 0.155 0.138 81 75 89
-354.2099 107.9064 16.6570 0.977 0.156 0.144 95 91 105
-346.2076 113.2302 17.1927 0.074 -0.317 0.945 79 78 83
-345.4675 113.4587 17.2118 0.074 -0.317 0.945 107 106 111
-343.3340 156.2460 22.1356 0.026 -0.879 0.475 66 60 64
-344.7532 171.4472 23.9066 0.246 -0.836 0.490 99 90 96
-342.1043 171.0106 23.8298 0.786 0.014 -0.618 86 77 82
-337.5034 184.7830 25.3758 0.896 -0.216 0.388 79 68 72
-287.4015 147.1616 20.5294 0.647 -0.414 -0.641 78 69 74
-287.0580 147.6213 20.5791 0.647 -0.414 -0.641 75 66 71
-288.7351 150.1038 20.8827 0.627 -0.427 -0.651 80 71 76
-288.5036 152.3295 21.1377 0.652 -0.391 -0.650 80 69 75
-336.8147 216.6922 29.0568 0.992 -0.125 -0.015 139 124 129
-336.3972 218.5163 29.2635 0.978 0.051 0.204 53 38 43
-337.3987 226.6199 30.2100 0.982 0.022 0.188 85 75 83
-338.1108 228.6155 30.4477 0.993 0.038 0.113 94 84 92
-336.6573 228.1624 30.3809 0.998 0.011 0.069 83 73 81
-337.3411 233.7869 31.0378 0.990 -0.009 0.142 97 88 93
-335.4797 232.8472 30.9106 0.792 -0.372 -0.483 109 100 105
-336.3391 236.3131 31.3198 0.852 -0.340 -0.398 107 98 103
-336.8298 238.1354 31.5353 0.934 -0.327 0.142 101 92 97
-336.5310 239.0329 31.6360 0.934 -0.327 0.142 78 69 74
-283.5303 184.9012 24.8526 0.964 0.215 -0.155 115 103 113
-293.8993 226.3305 29.7439 0.645 0.021 0.764 70 63 71
-294.2392 228.0416 29.9451 0.662 0.052 0.748 69 64 71
-300.8820 264.7428 34.2528 0.754 0.243 0.610 64 59 65
-298.6981 268.6554 34.6833 0.100 -0.960 -0.262 109 102 109
-249.7528 291.1040 36.7910 0.975 0.106 0.195 36 30 42
-369.4526 39.1821 8.3629 0.723 -0.276 0.633 87 87 99
-380.9272 45.6366 9.1938 0.010 -0.436 0.900 43 43 55
-377.1838 47.8942 9.4194 -0.186 -0.907 -0.379 71 67 81
-371.5496 56.7377 10.3789 0.721 -0.363 0.591 55 53 66
-366.0989 62.8768 11.0320 0.285 -0.196 0.938 103 101 106
-364.0096 63.6634 11.1040 0.991 -0.125 -0.048 80 77 84
-364.4198 64.3110 11.1811 0.991 -0.123 -0.053 80 77 84
-353.9069 72.7206 12.0503 -0.102 -0.776 0.622 52 46 50
-351.5460 72.8155 12.0413 -0.097 -0.785 0.611 146 139 146
-355.3864 93.5493 14.4337 -0.091 -0.580 0.809 91 88 97
-352.9448 92.9571 14.3458 -0.099 -0.590 0.802 86 83 92
-349.8878 114.0784 16.7244 0.985 -0.015 -0.170 86 85 90
-345.1992 111.9959 16.4480 0.165 -0.287 0.944 53 52 57
-343.9395 112.5756 16.5035 0.183 -0.271 0.945 91 90 95
-348.0015 118.3924 17.1997 0.987 -0.042 0.153 139 138 143
-345.9204 156.6254 21.5343 -0.075 -0.828 0.556 62 56 58
-342.7831 160.9763 22.0033 0.964 -0.106 0.244 63 54 59
-341.2864 160.6249 21.9508 0.672 -0.460 0.581 65 55 63
-338.4470 159.1681 21.7611 -0.085 -0.662 0.744 78 68 76
-342.1603 170.2000 23.0480 0.567 -0.691 0.448 93 84 89
-289.1837 153.9040 20.7488 0.909 0.037 0.415 74 63 69
-290.3372 155.9215 20.9881 0.911 0.002 0.412 82 71 77
-289.5533 155.9593 20.9858 0.912 0.016 0.411 83 72 78
-289.0133 157.0933 21.1104 0.914 0.017 0.405 86 75 81
-337.2758 217.2693 28.3651 0.990 -0.135 -0.029 127 115 119
-336.6603 217.7392 28.4134 0.993 -0.114 -0.026 93 81 85
-336.6419 218.8624 28.5411 0.981 0.088 0.171 72 60 64
-336.7852 220.1695 28.6911 0.981 0.088 0.171 67 55 60
-336.9295 221.4851 28.8421 0.981 0.088 0.171 59 49 57
-336.9244 222.6424 28.9738 0.837 -0.326 -0.439 54 44 52
-337.6573 224.6295 29.2061 0.972 -0.044 0.231 115 105 113
-337.2454 226.5300 29.4190 0.982 0.022 0.188 93 83 91
-337.0790 229.9275 29.8043 0.801 -0.348 -0.488 71 61 69
-337.3011 233.8278 30.2502 0.989 -0.003 0.145 108 99 104
-337.2914 238.7712 30.8128 0.949 -0.312 -0.044 101 92 97
-336.4220 238.9943 30.8309 0.934 -0.327 0.142 82 73 78
-284.6259 187.3458 24.5173 0.975 0.185 -0.122 90 78 88
-292.3139 224.2092 28.7780 0.641 0.016 0.767 72 65 73
-293.6039 227.2480 29.1347 0.645 0.022 0.764 71 66 73
-293.4809 228.3131 29.2549 0.662 0.052 0.748 72 67 74
-296.6549 234.0717 29.9371 -0.187 -0.919 -0.347 72 67 74
-295.6904 262.5277 33.1682 0.260 -0.053 0.964 106 99 106
-280.0781 260.1309 32.7644 0.325 -0.868 0.376 66 59 67
-242.0390 232.4698 29.2967 -0.053 -0.895 0.444 111 109 112
-229.9739 320.6461 39.2328 0.515 -0.745 -0.425 36 36 38
-229.3514 321.0529 39.2739 0.515 -0.745 -0.425 41 41 43
-226.1693 318.1935 38.9217 0.431 -0.792 -0.433 37 37 39
-370.9749 39.1187 7.8629 0.571 -0.497 0.653 61 60 75
-370.3649 39.4034 7.8907 0.576 -0.449 0.683 62 61 75
-376.5070 42.2402 8.2506 0.947 -0.138 0.290 98 97 111
-210.2928 1.7842 2.5814 0.963 -0.127 -0.236 98 97 111
-365.0431 63.5243 10.5580 0.849 0.081 0.523 104 101 108
-364.5093 63.8428 10.5901 0.991 -0.123 -0.053 98 95 102
-225.9974 19.5010 4.6744 0.109 -0.255 0.961 59 53 57
-220.6817 25.0553 5.2607 -0.020 -0.198 0.980 61 60 66
-349.5004 91.8783 13.6301 -0.065 -0.540 0.839 72 69 78
-284.1324 64.9943 10.1705 0.185 -0.854 -0.487 73 70 77
-353.5028 107.5601 15.4152 0.999 0.024 -0.049 107 101 111
-346.8279 112.3120 15.9023 0.111 -0.340 0.934 60 60 62
-342.1146 144.7539 19.5065 0.237 -0.921 -0.310 67 63 62
-340.8745 160.3349 21.2445 0.672 -0.460 0.581 66 56 65
-286.3871 128.9353 17.3530 0.623 -0.234 0.747 134 127 134
-289.9944 132.8760 17.8193 0.677 -0.126 0.725 173 168 174
-292.8203 155.9748 20.4278 -0.032 -0.947 -0.319 104 95 100
-289.6286 156.0918 20.4191 0.498 -0.717 -0.487 93 82 88
-289.0466 156.3358 20.4425 0.906 0.023 0.423 87 76 82
-289.1183 157.2581 20.5463 0.906 0.023 0.423 83 72 78
-289.0104 157.9980 20.6285 -0.070 -0.915 -0.397 89 78 84
-289.3870 159.2495 20.7714 -0.093 -0.926 -0.365 105 94 100
-287.1046 159.4204 20.7750 -0.117 -0.917 -0.383 108 95 102
-336.9011 214.6786 27.3087 0.985 -0.172 0.024 125 112 119
-336.5739 216.5847 27.5201 0.985 -0.172 0.024 112 99 106
-336.5964 217.7471 27.6506 0.995 -0.087 -0.056 100 87 94
-336.5759 218.8685 27.7761 0.995 -0.085 -0.056 79 66 73
-337.1449 220.6444 27.9791 0.987 0.077 0.140 79 67 73
-336.9101 221.5434 28.0782 0.985 0.081 0.155 59 49 57
-336.9309 222.7301 28.2114 0.981 0.088 0.171 57 47 55
-337.1655 224.1619 28.3735 0.971 0.008 0.238 138 128 136
-337.0466 225.2059 28.4897 0.969 -0.001 0.247 141 131 139
-337.6967 228.3141 28.8425 0.991 -0.002 0.130 136 126 134
-337.0114 232.3580 29.2911 0.991 0.011 0.132 89 80 85
-338.3222 238.8251 30.0250 0.817 -0.368 -0.444 131 122 127
-337.9228 239.6083 30.1100 0.817 -0.368 -0.444 105 96 101
-287.9588 218.2046 27.3699 0.853 0.104 0.511 108 101 109
-291.5498 224.4555 28.0950 0.669 0.061 0.740 127 122 129
-298.5171 258.4528 31.9533 0.954 0.039 0.298 68 64 65
-242.7449 228.4489 28.2095 -0.082 -0.932 0.354 33 31 34
-242.5811 229.5042 28.3267 -0.072 -0.918 0.390 36 34 37
-235.7857 253.7662 30.9998 0.895 0.283 0.345 154 153 159
-225.9713 251.4673 30.6751 0.326 -0.944 -0.050 25 25 25
-201.7236 235.6912 28.7413 0.922 0.179 0.343 37 37 37
-371.0196 39.5617 7.4063 0.672 -0.227 0.705 45 47 62
-376.6619 42.2776 7.7357 0.943 -0.168 0.287 61 63 78
-364.8569 62.4616 9.9007 0.910 -0.021 0.415 139 136 143
-348.7290 89.1852 12.7647 0.017 -0.366 0.930 89 86 93
-348.2326 89.5247 12.7995 0.022 -0.366 0.930 71 68 77
-347.4777 89.7381 12.8191 -0.011 -0.374 0.927 73 70 79
-359.1792 100.9918 14.1225 0.874 -0.486 0.022 85 84 90
-350.6264 104.0880 14.4191 -0.067 -0.979 0.193 74 67 75
-350.4527 104.6295 14.4779 -0.052 -0.961 0.273 64 57 65
-354.9197 109.6705 15.0577 0.992 0.110 0.068 72 67 73
-343.4935 111.0398 15.1487 0.117 -0.319 0.940 66 66 65
-342.3527 144.1746 18.7989 -0.087 -0.991 -0.100 79 75 74
-342.2923 146.5199 19.0574 0.973 0.232 0.009 71 65 65
-343.9780 151.0398 19.5650 0.954 0.101 0.283 64 58 60
-339.6237 155.1211 19.9924 0.142 -0.873 0.467 66 60 62
-285.2483 127.9621 16.7093 0.637 -0.230 0.736 53 48 54
-293.0910 152.9582 19.5088 0.749 -0.580 0.321 79 70 75
-290.1277 154.9751 19.7158 0.106 -0.926 -0.363 122 111 117
-337.0311 220.5983 27.2039 0.987 0.077 0.140 70 58 63
-337.1464 221.8847 27.3464 0.968 -0.011 0.251 45 35 43
-337.2608 223.1774 27.4897 0.967 -0.009 0.255 57 47 55
-336.9543 224.0074 27.5797 0.880 -0.459 0.121 123 113 121
-336.2229 224.3635 27.6151 0.891 -0.425 0.161 140 130 138
-336.2715 225.5976 27.7515 0.970 0.026 0.240 138 128 136
-337.1674 227.7982 27.9991 0.991 -0.006 0.137 128 118 126
-336.9048 232.3214 28.4968 0.991 0.011 0.132 72 63 68
-283.0585 182.5512 22.7214 0.653 -0.344 -0.674 105 94 100
-284.2363 186.0021 23.1084 0.678 -0.314 -0.665 98 86 96
-287.7168 217.9618 26.6534 0.800 0.025 0.599 106 99 107
-290.8675 250.9090 30.3055 0.394 0.053 0.918 50 46 47
-287.9996 251.9563 30.4060 0.295 -0.002 0.955 64 57 64
-276.9084 274.6702 32.8540 0.045 -0.846 0.531 120 115 121
-252.9504 308.8836 36.5031 0.375 0.032 0.927 44 42 45
-208.9636 213.4559 25.7416 0.984 0.118 0.134 34 32 37
-348.0652 46.8108 7.6017 -0.173 -0.799 -0.576 42 41 47
-357.7289 52.9116 8.3000 0.576 -0.543 -0.611 56 52 66
-356.0988 52.8623 8.2887 0.639 -0.566 -0.521 56 52 66
-351.1357 71.6352 10.3090 -0.072 -0.874 0.481 59 53 57
-346.2247 98.0324 13.1576 -0.381 -0.899 0.217 91 90 95
-353.7523 108.3904 14.3104 0.996 0.087 0.018 67 60 67
-354.6521 109.5435 14.4389 0.993 0.110 0.034 72 67 72
-348.8689 134.1414 17.0888 0.004 -0.629 0.777 83 76 83
-342.2951 144.1695 18.1536 -0.072 -0.995 -0.075 91 87 86
-340.8137 143.8652 18.1150 0.075 -0.995 -0.070 90 86 85
-342.3188 148.1897 18.5902 0.981 0.192 0.002 56 50 54
-341.7889 155.1997 19.3496 0.066 -0.893 0.445 61 55 56
-286.6247 129.2286 16.3249 0.696 -0.110 0.710 59 52 59
-307.4702 163.7351 20.1495 0.471 -0.882 0.018 83 70 79
-338.5268 220.0084 26.3757 0.981 0.040 -0.188 101 89 93
-337.4968 221.1905 26.5003 0.866 -0.459 0.201 58 47 51
-336.9727 221.7725 26.5616 0.870 -0.455 0.189 49 38 46
-336.8148 222.7622 26.6685 0.891 -0.425 0.161 62 52 60
-336.1723 223.2151 26.7153 0.828 -0.523 0.201 97 87 95
-336.1760 224.3927 26.8432 0.830 -0.518 0.204 112 102 110
-336.0717 225.4547 26.9581 0.970 0.026 0.240 114 104 112
-337.0585 227.7585 27.2120 0.991 -0.006 0.137 110 100 108
-337.4761 235.5253 28.0570 0.797 -0.332 -0.505 132 123 128
-293.6258 207.5598 24.8576 0.697 -0.570 -0.434 90 82 95
-294.0652 213.8257 25.5397 0.745 -0.167 -0.646 93 85 98
-293.7431 214.5549 25.6177 0.819 -0.370 -0.439 93 83 96
-294.7993 271.8741 31.8465 0.911 0.413 0.018 52 45 52
-264.8992 272.6872 31.8241 0.626 -0.371 -0.686 66 64 69
-247.5412 245.5332 28.8109 0.927 0.033 -0.374 35 35 37
-350.6973 37.8362 6.1645 -0.060 -0.487 0.871 49 50 68
-346.4711 37.1490 6.0820 -0.060 -0.488 0.871 52 54 68
-352.7431 48.2141 7.2778 -0.171 -0.808 -0.564 39 38 44
-348.6122 47.4132 7.1834 -0.171 -0.809 -0.562 40 39 45
-352.9105 53.6949 7.8638 0.984 -0.105 -0.145 64 62 73
-364.7958 58.9881 8.4548 0.641 -0.538 -0.547 64 62 73
-361.1771 58.2826 8.3717 0.619 -0.547 -0.564 64 62 73
-352.8549 65.6855 9.1449 0.469 -0.619 0.631 58 56 67
-356.5710 74.3570 10.0795 0.155 -0.980 0.122 61 54 61
-342.5728 135.1322 16.5437 0.600 -0.465 -0.651 68 64 65
-341.4141 135.0765 16.5352 0.579 -0.463 -0.672 44 40 41
-342.0768 144.8390 17.5798 0.626 -0.692 -0.360 95 89 89
-341.8420 145.4608 17.6458 0.966 0.177 -0.189 99 93 95
-342.3648 147.4556 17.8600 0.973 0.230 0.000 82 77 81
-342.0719 148.0424 17.9221 0.986 0.144 -0.087 63 58 62
-342.8736 150.2782 18.1627 0.948 0.107 0.299 70 65 69
-343.4618 154.8757 18.6553 0.838 -0.546 -0.021 50 43 50
-342.6014 155.0415 18.6711 0.358 -0.860 0.362 54 47 53
-342.4545 155.7670 18.7483 0.428 -0.850 0.306 61 55 58
-339.3404 166.2052 19.8570 0.511 -0.490 0.706 90 80 88
-341.8664 173.8117 20.6752 0.836 -0.198 -0.512 94 84 92
-340.6442 188.0228 22.1912 0.435 -0.523 0.733 94 83 87
-305.9940 162.3514 19.3739 0.347 -0.899 0.268 95 82 91
-336.6485 216.8968 25.2679 0.993 0.084 0.079 108 96 100
-338.7673 220.3493 25.6414 0.980 0.039 -0.196 97 85 89
-336.8391 221.7046 25.7821 0.870 -0.455 0.189 71 61 69
-337.2393 223.3151 25.9550 0.992 -0.126 -0.003 85 75 83
-336.4531 223.6101 25.9849 0.830 -0.518 0.204 80 70 78
-336.0325 224.3134 26.0591 0.830 -0.518 0.204 94 84 92
-335.6451 225.0560 26.1376 0.886 -0.432 0.165 107 97 105
-336.6339 227.3608 26.3860 0.990 -0.018 0.138 112 102 110
-337.7708 235.9576 27.3071 0.797 -0.332 -0.505 120 111 116
-294.7241 213.6346 24.8297 0.745 -0.167 -0.646 88 77 91
-294.4662 214.4494 24.9162 0.745 -0.167 -0.646 88 77 91
-294.2076 215.2666 25.0029 0.745 -0.167 -0.646 88 77 91
-284.9430 213.0948 24.7510 0.983 -0.070 0.171 78 71 79
-248.3535 247.3389 28.3319 0.925 0.039 -0.378 36 37 39
-257.5589 270.9926 30.8791 -0.083 -0.940 0.331 35 36 38
-235.3484 254.8814 29.1100 0.944 0.328 -0.031 80 80 80
-370.5197 45.6403 6.5236 0.121 -0.299 0.946 55 54 60
-367.8341 51.7956 7.1690 -0.190 -0.817 -0.544 87 86 92
-350.7329 48.4967 6.8124 -0.162 -0.795 -0.584 40 39 44
-361.8157 54.6677 7.4674 0.774 -0.299 -0.558 53 50 61
-352.9276 54.1660 7.4096 0.984 -0.105 -0.145 75 72 81
-357.1737 64.7772 8.5274 -0.160 -0.950 0.267 100 98 109
-356.6278 65.5827 8.6117 0.867 -0.491 -0.083 82 79 90
-352.9003 64.7114 8.5180 0.420 -0.824 0.382 66 64 75
-342.6821 135.9979 16.0049 0.812 -0.178 -0.555 51 45 47
-342.6864 136.7602 16.0851 0.827 -0.166 -0.537 88 82 84
-344.0190 147.1205 17.1748 0.986 0.153 -0.073 105 99 101
-341.2988 145.8918 17.0441 0.970 0.176 -0.165 89 84 88
-342.2232 147.3880 17.2019 0.968 0.165 -0.187 78 76 81
-342.2504 149.0279 17.3742 0.967 0.157 -0.202 68 66 69
-341.8544 149.5409 17.4279 0.936 0.218 0.275 60 58 61
-343.4012 154.8706 17.9890 0.874 -0.460 -0.156 50 45 52
-343.2337 155.5801 18.0635 0.877 -0.454 -0.156 52 45 53
-343.6915 156.7851 18.1904 0.879 -0.439 -0.185 52 45 52
-339.9947 187.4728 21.4138 0.435 -0.523 0.733 94 83 87
-339.1517 187.6694 21.4340 0.449 -0.527 0.722 87 76 82
-339.0495 188.5651 21.5281 0.402 -0.537 0.741 77 64 71
-305.1403 161.5735 18.6715 0.391 -0.875 0.287 100 89 97
-298.4643 161.9028 18.7023 0.312 -0.920 -0.236 83 72 80
-298.0527 163.2341 18.8420 0.377 -0.677 -0.632 97 86 94
-337.6885 221.5608 24.9954 0.971 -0.236 -0.050 92 82 89
-337.0983 222.0716 25.0488 0.862 -0.466 0.200 96 86 95
-337.6288 223.8294 25.2338 0.965 -0.255 -0.066 110 100 109
-335.8890 224.2342 25.2754 0.830 -0.518 0.204 92 82 91
-335.5251 225.0031 25.3560 0.886 -0.432 0.165 81 71 80
-335.9809 226.7038 25.5350 0.991 -0.019 0.135 88 78 87
-335.4667 227.3107 25.5985 0.977 0.048 0.206 121 111 120
-336.3203 229.4844 25.8275 0.989 0.033 0.144 113 103 112
-336.3833 230.7643 25.9620 0.989 0.033 0.144 96 85 93
-337.1464 232.8606 26.1828 0.994 0.022 0.107 97 86 94
-338.3145 236.6806 26.5850 0.800 -0.316 -0.511 63 52 60
-331.9246 248.0779 27.7793 0.821 -0.559 -0.114 95 85 96
-306.8211 224.8566 25.3241 -0.200 -0.968 0.151 88 77 91
-305.5086 224.3535 25.2704 -0.210 -0.961 0.181 93 82 96
-297.2092 244.5424 27.3877 0.279 -0.862 -0.424 76 69 77
-285.7516 255.7812 28.5624 0.142 -0.950 -0.277 60 50 61
-254.5515 258.5826 28.8389 0.936 -0.150 -0.318 38 39 41
-221.7316 236.8412 26.5348 0.396 0.031 0.918 52 50 53
-238.6303 280.1644 31.0981 0.892 -0.356 -0.280 39 37 40
-159.2849 113.4775 13.5322 0.329 -0.489 0.808 33 33 33
-193.9960 264.5951 29.4360 0.814 -0.466 -0.347 32 29 36
-346.3018 42.0362 5.6576 -0.142 -0.715 0.684 95 94 100
-341.3149 41.0445 5.5600 -0.148 -0.728 0.670 94 93 99
-359.4961 53.9405 6.8750 0.790 -0.300 -0.536 53 50 59
-350.6160 52.5054 6.7354 0.814 -0.522 0.255 64 61 70
-345.0417 51.1638 6.6022 0.150 -0.827 -0.541 84 81 90
-351.9909 53.8656 6.8746 0.648 -0.547 0.530 90 87 96
-365.4133 59.6902 7.4634 0.656 -0.311 0.688 87 84 93
-348.9890 57.9898 7.3039 -0.068 -0.481 0.874 96 93 100
-356.4020 65.5063 8.0735 0.807 -0.572 -0.144 81 78 89
-298.1065 46.0354 6.1186 -0.139 -0.594 0.792 61 58 69
-362.9654 76.9559 9.2504 0.820 -0.255 0.513 61 55 61
-345.4224 112.2680 12.9177 0.817 -0.333 0.470 73 74 66
-343.4138 111.7450 12.8656 0.852 -0.056 0.521 83 84 76
-345.8868 131.4850 14.9035 0.249 -0.530 0.810 95 85 93
-345.7415 133.6217 15.1245 0.767 -0.366 0.526 80 69 77
-341.4316 146.0296 16.4113 0.970 0.176 -0.165 84 79 83
-341.8828 147.1709 16.5288 0.989 0.138 -0.059 73 71 76
-340.8449 160.5374 17.9114 0.315 -0.920 0.232 66 59 67
-293.1139 141.1904 15.9588 0.878 -0.418 -0.234 92 81 85
-292.9643 141.8244 16.0245 0.876 -0.420 -0.237 97 86 90
-338.5899 186.2134 20.5675 0.198 -0.523 0.829 89 78 82
-338.5156 187.1292 20.6622 0.196 -0.516 0.834 81 70 76
-338.4589 188.0657 20.7591 0.188 -0.532 0.826 76 63 70
-332.5930 206.0405 22.6228 0.712 -0.565 -0.417 89 78 86
-281.8547 156.6445 17.5673 0.779 -0.478 0.407 91 83 91
-335.4376 215.7351 23.6220 0.991 0.078 0.109 87 79 87
-336.9576 221.9959 24.2676 0.862 -0.466 0.200 81 71 80
-337.6526 223.9369 24.4676 0.965 -0.255 -0.066 81 71 80
-336.2035 229.4357 25.0374 0.989 0.033 0.144 60 50 59
-336.2661 230.7152 25.1696 0.989 0.033 0.144 74 63 71
-337.0606 232.8484 25.3893 0.994 0.022 0.107 69 58 66
-337.6112 234.7135 25.5815 0.983 0.075 0.167 62 51 59
-307.6139 225.9788 24.7083 -0.184 -0.982 0.028 76 65 79
-297.0325 244.3935 26.6222 0.288 -0.854 -0.434 86 79 87
-289.5392 254.9124 27.7168 0.972 0.219 -0.087 91 81 92
-290.4372 257.7808 28.0124 0.971 0.218 -0.097 81 71 82
-291.4137 260.8004 28.3235 0.738 -0.431 -0.519 62 52 63
-289.6578 259.4055 28.1811 0.705 -0.524 -0.478 79 69 80
-276.5416 253.3794 27.5712 0.032 -0.998 -0.061 72 62 73
-277.7795 293.5297 31.7200 0.244 -0.680 -0.692 87 86 94
-258.0509 273.9985 29.7207 0.610 -0.611 -0.505 35 36 38
-211.6992 213.7695 23.5412 0.890 -0.135 0.436 27 25 28
-181.8161 243.4060 26.6340 0.959 0.209 -0.189 41 35 45
-400.0278 36.7721 4.5119 0.235 -0.583 0.778 66 65 71
-397.9885 36.7978 4.5198 -0.080 -0.901 0.427 63 62 70
-338.4435 39.8278 4.9797 -0.142 -0.715 0.684 60 59 65
-361.3388 54.5236 6.4145 -0.129 -0.879 -0.458 55 49 59
-348.7353 51.9057 6.1807 0.214 -0.787 -0.579 64 61 72
-352.3529 54.4493 6.4299 0.695 -0.475 0.540 94 91 102
-354.5577 61.8692 7.1783 0.613 -0.243 0.752 76 73 80
-356.4731 65.5389 7.5463 0.807 -0.572 -0.144 79 76 85
-352.8486 64.7054 7.4708 0.664 -0.744 0.082 78 75 84
-362.3669 75.6353 8.5571 0.856 -0.486 -0.176 55 52 60
-363.0466 76.4514 8.6383 0.805 -0.296 0.514 58 55 63
-345.7679 73.6323 8.3960 0.590 -0.140 0.795 70 65 72
-334.2090 79.0487 8.9759 0.527 -0.466 0.710 109 106 113
-348.9459 112.3555 12.3227 0.991 -0.107 -0.078 63 64 58
-343.7251 133.0260 14.4364 0.754 0.068 0.653 123 113 121
-341.3438 146.8042 15.8425 0.441 -0.837 0.323 67 65 70
-342.6492 151.0482 16.2704 0.934 -0.313 0.170 51 49 54
-342.1697 151.5031 16.3179 0.981 0.140 -0.137 65 62 69
-344.7522 157.7080 16.9418 0.882 -0.367 -0.295 50 44 54
-349.6926 163.3545 17.5029 0.880 -0.449 -0.151 52 44 55
-279.7689 110.1566 12.2759 0.388 -0.919 0.071 79 71 82
-294.6642 143.4519 15.6211 0.851 -0.189 -0.490 84 73 77
-294.1761 143.7798 15.6556 0.826 -0.216 -0.521 80 69 73
-338.3238 190.9966 20.3407 0.127 -0.400 0.907 81 70 76
-336.9690 190.6972 20.3138 0.092 -0.465 0.881 94 83 89
-300.6956 166.9438 17.9928 0.429 -0.587 0.687 97 85 95
-335.8123 207.3249 22.0063 0.765 -0.564 -0.311 84 72 82
-340.0426 221.9784 23.4845 0.994 0.047 -0.094 86 81 88
-332.3412 220.4102 23.3448 0.705 -0.474 -0.528 81 71 80
-332.0477 221.2407 23.4300 0.934 -0.343 -0.095 65 55 64
-332.2433 222.6293 23.5705 0.956 -0.223 -0.192 80 70 79
-283.1319 167.8044 18.1250 0.710 -0.696 0.102 76 66 75
-301.3418 207.6454 22.1269 0.873 0.138 -0.468 91 83 94
-306.4857 234.4709 24.8396 0.861 -0.003 0.508 51 39 53
-289.0312 259.9645 27.4746 0.964 0.176 0.198 78 66 76
-273.5243 269.1520 28.4478 0.138 -0.875 0.464 71 64 72
-260.9604 276.8793 29.2651 0.535 -0.663 -0.524 36 37 41
-260.3662 277.3218 29.3116 0.535 -0.663 -0.524 38 39 41
-260.2383 278.7387 29.4559 0.510 -0.677 -0.530 38 39 41
-259.7968 279.5063 29.5350 0.481 -0.691 -0.540 33 35 34
-259.5857 280.7642 29.6634 0.474 -0.688 -0.550 33 35 34
-258.8559 280.9275 29.6818 0.487 -0.681 -0.547 33 34 36
-213.2520 219.2212 23.5281 0.958 -0.068 0.278 28 23 27
-185.0227 233.9003 25.0918 0.867 -0.218 -0.449 48 45 53
-389.8777 35.5239 3.8804 -0.122 -0.909 0.398 58 56 67
-347.2563 41.4675 4.6496 -0.170 -0.896 0.411 48 47 53
-337.6556 39.2046 4.4632 -0.138 -0.725 0.675 48 47 53
-356.5516 53.4832 5.8112 -0.198 -0.921 -0.335 56 53 62
-350.1842 51.9192 5.6813 -0.185 -0.916 -0.355 61 58 67
-349.0234 52.0013 5.6942 0.225 -0.756 -0.614 64 61 70
-344.9790 51.1502 5.6259 0.163 -0.825 -0.542 76 73 82
-344.3534 51.3941 5.6529 0.669 -0.636 0.384 86 83 92
-368.2362 60.6312 6.4769 0.545 -0.764 0.345 88 85 94
-353.9572 57.3295 6.2060 -0.134 -0.660 0.739 75 72 79
-340.6213 54.1937 5.9478 -0.129 -0.630 0.766 64 61 68
-346.2669 58.4632 6.3509 0.518 -0.354 0.778 83 80 87
-346.2625 58.9336 6.3979 0.732 -0.187 0.655 85 82 89
-354.2039 64.7126 6.9423 0.500 -0.866 -0.025 79 76 85
-345.2803 61.9184 6.7000 0.152 -0.947 0.283 78 75 84
-332.6789 57.7230 6.3330 -0.079 -0.856 0.510 69 66 75
-242.1763 35.2169 4.4583 0.787 -0.368 0.495 83 80 87
-345.4164 87.1093 9.2151 -0.302 -0.953 -0.013 59 56 63
-345.2192 88.1564 9.3205 0.209 -0.965 -0.158 72 69 78
-344.9090 109.3839 11.4416 -0.095 -0.900 0.425 56 55 51
-288.3946 78.2496 8.5653 0.849 -0.194 -0.492 53 54 46
-191.3582 23.8525 3.5327 0.744 -0.231 -0.628 72 62 61
-191.2861 24.0348 3.5512 0.744 -0.231 -0.628 54 46 44
-341.5025 132.2785 13.7420 0.648 -0.382 0.659 129 119 127
-338.0986 143.6102 14.8877 0.380 -0.877 0.295 74 69 73
-339.9817 145.8181 15.1004 0.409 -0.851 0.330 63 61 66
-339.6383 147.1626 15.2361 0.048 -0.914 0.403 52 50 55
-338.6334 147.2022 15.2442 0.195 -0.921 0.338 47 45 50
-337.2353 146.9365 15.2234 0.264 -0.889 0.375 33 31 36
-342.1725 153.2030 15.8289 0.970 -0.080 0.231 39 34 41
-344.1003 156.3884 16.1390 0.962 -0.196 0.189 50 45 52
-344.9813 157.9320 16.2896 0.892 -0.409 -0.192 50 45 52
-342.3303 160.1064 16.5176 0.395 -0.907 0.147 41 36 43
-338.5844 161.3705 16.6593 0.349 -0.345 0.871 111 101 109
-338.0246 161.7750 16.7020 0.474 -0.397 0.785 117 107 115
-337.1793 162.8129 16.8091 0.474 -0.393 0.788 105 95 103
-341.5705 175.6199 18.0700 0.910 0.026 0.414 94 85 89
-343.3189 179.0480 18.4051 0.624 -0.776 -0.098 69 59 60
-343.1026 179.8069 18.4818 0.628 -0.771 -0.105 56 46 47
-342.5402 180.2584 18.5292 0.628 -0.771 -0.105 56 46 47
-341.9779 180.7097 18.5766 0.628 -0.771 -0.105 62 52 53
-291.7079 136.9451 14.4132 0.825 -0.507 -0.248 74 64 65
-288.7573 135.0040 14.2315 0.815 -0.457 -0.357 68 58 59
-294.1531 142.2444 14.9323 0.838 -0.206 -0.505 81 70 74
-337.6438 185.4430 19.0671 0.556 -0.815 -0.164 80 69 73
-336.4860 186.3152 19.1590 0.367 -0.478 0.798 86 75 81
-336.4926 191.3054 19.6573 0.285 -0.532 0.797 96 85 91
-338.7023 201.7668 20.6929 0.263 -0.493 0.829 96 84 94
-293.3272 258.3422 26.5297 0.666 0.096 0.739 80 72 83
-292.3397 258.2071 26.5203 0.702 -0.534 -0.471 94 84 95
-215.6916 218.1118 22.8320 0.782 -0.145 -0.607 25 23 26
-210.5589 212.6710 22.3098 0.909 0.003 0.417 26 24 27
-186.8388 253.2654 26.4614 0.120 -0.959 0.258 68 65 76
-347.3480 28.7385 2.9257 -0.162 -0.981 0.111 60 60 70
-340.7914 27.6502 2.8562 -0.162 -0.981 0.111 60 60 70
-352.8517 32.7127 3.2843 -0.051 -0.423 0.905 50 50 60
-354.8371 33.5782 3.3579 -0.065 -0.438 0.896 51 51 61
-352.0201 44.0761 4.4040 -0.139 -0.823 -0.551 51 50 56
-376.3219 55.7775 5.4138 0.047 -0.598 -0.800 38 37 45
-350.9114 52.6098 5.2475 0.197 -0.771 -0.606 57 54 63
-348.9563 52.4364 5.2416 0.199 -0.775 -0.600 56 53 62
-358.8482 56.5772 5.5917 0.446 -0.564 -0.695 64 61 70
-344.2414 56.8231 5.6988 0.814 -0.170 0.555 67 64 71
-350.4831 59.9548 5.9706 0.677 0.018 0.736 78 75 82
-360.0605 69.4461 6.8474 0.053 -0.759 0.649 79 76 85
-355.8302 68.8737 6.8153 0.942 -0.278 -0.189 74 71 80
-359.4282 72.3495 7.1358 0.949 -0.263 -0.174 68 65 74
-339.7435 145.6774 14.4423 0.409 -0.851 0.330 81 76 82
-342.0197 153.1258 15.1601 0.970 -0.080 0.231 47 45 50
