ply
format ascii 1.0
element vertex 853
property float x
property float y
property float z
property float nx
property float ny
property float nz
property uchar diffuse_red
property uchar diffuse_green
property uchar diffuse_blue
end_header
-334.5027 163.6830 2.3944 0.388 -0.904 0.179 66 56 65
-333.7775 164.0047 2.4543 0.560 -0.229 0.796 73 63 72
-343.9054 175.4588 3.0846 0.659 0.619 0.427 91 78 87
-315.3043 233.7467 9.6452 0.397 -0.859 -0.322 84 76 91
-310.2506 230.2808 9.5377 0.519 -0.766 -0.379 75 67 82
-309.5029 230.3864 9.5787 0.507 -0.777 -0.372 72 63 80
-317.1788 257.9824 11.7970 0.941 0.091 0.325 68 66 79
-236.2841 -70.6862 -15.4024 0.295 -0.955 0.031 120 131 149
-277.8633 -79.4938 -18.0376 0.499 0.740 0.451 130 141 163
-378.8610 -27.7314 -17.7534 0.890 -0.453 0.057 104 92 102
-332.2150 4.2833 -12.7745 0.034 -0.920 0.391 73 61 73
-346.8486 18.0690 -12.1589 0.661 0.635 0.400 67 56 70
-347.1910 28.6735 -11.2049 0.966 0.060 0.250 83 67 78
-351.7189 30.2001 -11.2647 0.421 -0.907 -0.001 91 78 88
-336.7319 43.0263 -9.4329 0.786 0.111 0.608 82 71 85
-332.1003 66.6267 -7.0724 0.714 -0.695 -0.090 166 151 168
-330.4984 66.7625 -6.9895 0.698 -0.708 -0.108 165 145 161
-328.1464 66.6311 -6.8980 0.866 -0.487 0.111 156 138 152
-329.2999 91.4465 -4.6811 0.902 0.323 0.287 98 88 99
-328.3399 94.5990 -4.3507 0.761 -0.382 0.524 159 152 160
-328.8876 97.0086 -4.1547 0.960 -0.050 0.277 39 32 40
-328.8693 97.7226 -4.0886 0.960 -0.050 0.277 122 115 123
-329.4074 98.6973 -4.0232 0.965 -0.016 0.261 129 119 128
-329.4532 103.8237 -3.5568 0.675 -0.591 0.442 160 152 163
-331.3748 136.7341 -0.6340 0.949 0.272 0.159 79 68 74
-323.9948 144.6107 0.4107 0.927 0.310 -0.211 82 70 82
-324.3080 145.5990 0.4872 0.927 0.310 -0.211 83 71 83
-322.7118 150.0293 0.9623 0.815 -0.392 0.427 98 88 97
-317.5085 258.6012 11.1128 0.625 -0.741 -0.246 62 60 73
-313.6122 256.0840 11.0543 0.722 -0.650 -0.236 50 48 62
-253.3227 -71.0093 -16.5584 0.352 -0.891 0.287 187 195 215
-353.2327 10.4661 -13.7813 0.606 0.646 0.464 71 60 76
-353.0721 11.1028 -13.7162 0.667 0.634 0.391 76 65 82
-356.9767 12.9126 -13.7323 0.618 0.703 0.351 107 96 113
-364.9779 15.9879 -13.8229 0.584 0.680 0.443 108 97 113
-340.2198 20.9503 -12.2288 0.854 -0.240 0.462 70 57 66
-342.1697 24.5132 -11.9956 0.354 -0.016 0.935 108 95 104
-347.3779 26.0923 -12.0930 0.503 -0.746 0.436 82 69 78
-349.2443 27.0936 -12.0883 0.490 -0.754 0.438 82 69 79
-346.1861 28.5315 -11.8166 0.963 0.063 0.261 82 69 79
-346.6924 29.2928 -11.7709 0.946 0.070 0.316 81 68 78
-345.2492 29.6823 -11.6688 0.932 -0.124 0.340 82 69 79
-347.9796 36.2804 -11.1963 0.933 0.075 -0.352 81 70 86
-346.6324 38.7016 -10.9144 0.711 -0.399 -0.579 110 96 111
-342.5167 41.8124 -10.4419 0.806 -0.166 -0.569 76 65 79
-332.6147 66.1889 -7.7726 0.714 -0.695 -0.090 144 144 146
-332.1057 66.7025 -7.7024 0.714 -0.695 -0.090 154 146 151
-330.5144 66.8420 -7.6163 0.698 -0.708 -0.108 151 140 145
-327.7488 88.0205 -5.5668 0.594 -0.708 0.382 91 79 89
-329.2338 98.7152 -4.6650 0.965 -0.016 0.261 140 130 138
-327.4050 106.5825 -3.8666 0.660 -0.558 0.503 113 100 103
-326.0237 109.5503 -3.5335 0.970 -0.180 -0.162 108 96 98
-333.1466 137.1510 -1.3581 0.765 0.165 0.622 75 62 69
-324.3832 145.7872 -0.1696 0.930 0.302 -0.211 60 48 60
-332.9835 163.7539 1.0633 0.431 -0.891 -0.146 164 154 163
-330.2389 162.6406 1.0891 0.873 0.145 0.465 163 152 160
-333.8631 166.8762 1.3060 0.630 0.669 0.394 110 97 106
-319.1413 258.7799 10.3254 0.996 0.053 0.075 65 62 73
-252.9339 -70.9312 -16.9094 0.334 -0.843 0.421 181 189 211
-360.3324 5.3347 -15.2346 0.984 0.146 0.106 66 52 65
-352.7260 10.4396 -14.4067 0.606 0.646 0.464 66 53 70
-352.4880 11.0660 -14.3387 0.660 0.636 0.400 79 66 83
-339.8929 20.9376 -12.8399 0.854 -0.240 0.462 69 56 65
-338.5025 21.3481 -12.7357 0.855 0.464 0.230 66 53 62
-346.5391 29.9780 -12.3470 0.944 0.119 0.307 66 54 64
-342.9016 50.8264 -10.2927 0.646 0.501 0.576 105 91 104
-333.1466 65.7546 -8.4757 0.560 -0.828 -0.003 72 54 57
-332.6204 66.2645 -8.4043 0.714 -0.695 -0.090 72 54 58
-332.1111 66.7784 -8.3334 0.714 -0.695 -0.090 78 61 64
-335.2263 86.9705 -6.6649 0.691 -0.556 -0.462 91 79 89
-326.9641 117.5747 -3.5078 0.998 0.040 0.039 85 74 78
-324.1249 145.7557 -0.8315 0.897 0.101 -0.431 77 65 77
-324.0584 146.4968 -0.7615 0.897 0.101 -0.431 90 78 90
-335.0017 164.4963 0.3307 0.534 -0.845 0.022 151 141 150
-331.0325 220.7127 5.5876 0.522 -0.467 0.714 100 89 97
-329.6228 220.3186 5.6203 0.532 -0.449 0.717 90 79 87
-318.4901 259.2509 9.6665 0.929 -0.290 0.230 56 52 66
-342.8682 -80.8586 -22.7220 0.592 0.029 0.805 122 128 144
-397.6394 3.8597 -17.9136 0.008 -0.991 0.135 98 86 96
-356.6555 12.9439 -15.0285 0.617 0.685 0.387 119 106 123
-348.4472 21.0616 -13.8872 0.501 -0.596 -0.628 83 70 80
-339.0945 22.1294 -13.3188 0.912 0.408 0.051 82 69 79
-342.0068 25.2234 -13.1893 0.924 0.376 0.072 103 90 100
-341.9042 26.5107 -13.0689 0.969 0.244 -0.026 93 81 91
-346.4533 42.8639 -11.8362 0.639 -0.359 -0.680 67 55 69
-336.7771 42.5426 -11.3756 0.692 0.126 0.711 69 57 71
-333.1433 71.3647 -8.6137 0.844 -0.152 -0.514 93 81 88
-333.8331 74.4107 -8.3761 0.614 -0.683 0.395 98 82 92
-326.6012 86.3002 -6.9468 0.938 -0.344 0.044 95 82 91
-325.8839 109.6943 -4.8179 0.681 -0.597 0.423 110 101 104
-326.9956 117.7065 -4.1575 0.990 0.085 0.111 60 48 52
-327.3470 132.3553 -2.8649 0.980 0.008 -0.196 83 71 75
-329.3504 134.3348 -2.7891 0.360 -0.302 0.883 94 82 86
-329.0700 134.9444 -2.7204 0.202 -0.345 0.917 107 95 99
-326.4531 137.2303 -2.3836 0.295 -0.275 0.915 117 105 109
-329.3811 162.3394 -0.2856 0.993 -0.059 0.102 100 89 97
-330.9443 165.1023 -0.1175 0.633 0.665 0.396 93 77 87
-332.2808 221.1577 4.8291 0.527 -0.583 0.618 89 76 85
-330.8995 220.7974 4.8667 0.534 -0.459 0.710 92 79 88
-330.6974 221.5256 4.9421 0.578 -0.568 0.586 91 78 87
-318.3009 259.2868 8.9467 0.929 -0.290 0.230 59 55 69
-307.8067 254.8348 9.0792 0.994 -0.110 -0.003 63 61 75
-358.4815 13.8847 -15.6994 0.578 0.709 0.404 174 160 175
-352.0875 21.6846 -14.6694 0.475 -0.609 -0.635 87 74 84
-339.2140 22.1915 -13.9452 0.874 -0.245 0.420 87 74 84
-346.6922 26.1044 -13.9922 0.831 -0.298 0.469 106 93 103
-352.5531 27.8295 -14.1482 0.989 -0.141 0.034 114 102 112
-350.9927 28.2223 -14.0310 0.986 -0.164 -0.001 122 110 120
-337.4060 35.4792 -12.6697 0.831 0.508 -0.228 131 116 124
-334.9203 72.0785 -9.2884 0.903 -0.385 0.191 97 83 88
-333.9807 73.8429 -9.0821 0.609 -0.677 0.413 189 173 183
-331.4409 84.8720 -7.9687 0.270 -0.893 0.361 86 70 80
-326.7984 100.0389 -6.3768 0.824 -0.564 0.057 75 68 75
-327.9902 103.5236 -6.1302 0.876 -0.477 0.066 79 69 77
-330.0001 124.0296 -4.4152 0.718 -0.556 -0.419 82 67 72
-325.0613 129.5819 -3.6616 0.809 -0.470 -0.352 101 87 87
-325.7171 131.5043 -3.5255 0.921 -0.386 -0.048 102 90 94
-326.5430 144.4669 -2.4179 0.895 -0.068 -0.441 113 100 109
-327.0898 160.0526 -1.0626 0.726 -0.647 -0.234 100 88 98
-335.5656 178.7842 0.1537 0.616 0.538 0.575 93 82 88
-333.0014 180.2654 0.4205 0.754 -0.230 0.615 82 71 79
-330.7084 180.2073 0.5363 0.656 -0.692 -0.302 89 82 90
-324.7030 184.7959 1.2607 0.602 -0.772 0.203 82 70 80
-332.8082 221.8532 4.1240 0.835 -0.497 -0.234 81 68 77
-317.3234 259.3864 8.2741 0.853 -0.297 0.429 62 60 73
-316.5363 259.4472 8.3210 0.971 -0.148 -0.188 62 60 74
-249.1880 -70.0437 -17.7564 0.846 -0.504 0.175 179 187 209
-357.2557 3.8042 -17.1843 0.625 -0.289 0.725 78 66 76
-344.7004 8.9382 -16.0417 0.989 0.035 0.144 79 65 82
-348.3246 17.1744 -15.5148 0.174 -0.981 0.082 73 61 73
-349.9760 22.0543 -15.1753 0.334 -0.853 -0.400 83 70 80
-342.6848 21.5203 -14.8217 0.328 -0.864 -0.382 80 67 77
-352.4324 28.5331 -14.7391 0.989 -0.141 0.034 89 77 87
-352.6003 39.5613 -13.7761 0.973 0.159 -0.165 96 81 86
-348.2903 39.2891 -13.5633 1.000 -0.004 -0.021 92 75 81
-348.2861 39.9738 -13.5027 1.000 -0.004 -0.021 100 83 91
-348.2819 40.6594 -13.4420 1.000 -0.004 -0.021 97 80 88
-347.3362 41.1276 -13.3487 0.998 0.035 -0.050 84 69 76
-345.7436 41.4407 -13.2336 0.991 0.035 -0.131 73 57 67
-347.5247 42.5453 -13.2341 0.991 0.029 -0.133 72 56 67
-346.7779 43.0552 -13.1481 0.994 0.029 -0.110 73 59 73
-340.7534 53.1756 -11.9249 0.874 0.440 0.206 128 114 124
-333.1434 73.6161 -9.7047 0.576 -0.689 0.440 178 162 172
-329.1668 98.3538 -7.3053 0.826 -0.563 0.043 78 63 66
-327.9659 100.6962 -7.0328 0.643 -0.764 0.051 86 80 84
-326.0091 104.1144 -6.6239 0.868 -0.495 0.039 82 75 82
-326.1664 132.6708 -4.1150 0.369 -0.329 0.869 113 100 107
-319.8196 131.0999 -3.9047 0.963 -0.167 0.210 120 108 112
-324.7731 146.6014 -2.8103 0.900 0.054 -0.433 93 81 93
-339.2176 165.3847 -1.9481 0.745 0.395 0.537 118 108 117
-338.6076 170.9065 -1.4278 0.593 -0.616 -0.519 102 88 97
-318.7434 178.4910 0.3324 0.796 -0.520 -0.308 80 68 78
-323.5530 184.8834 0.6317 0.597 -0.767 0.235 82 71 79
-331.6523 264.8598 7.2374 0.811 0.581 -0.068 53 50 59
-316.2086 259.3249 7.5980 0.976 -0.110 -0.190 64 62 76
-314.5441 273.7340 8.9598 0.715 -0.674 0.187 69 65 80
-231.5304 -54.4781 -15.7555 0.814 -0.540 -0.215 193 201 222
-358.8851 3.9897 -17.9163 0.746 -0.585 0.320 82 70 80
-352.5406 11.2114 -16.9217 0.641 0.614 0.460 79 65 80
-353.5927 21.3362 -16.0958 0.362 -0.826 -0.432 84 71 81
-345.7779 26.0307 -15.2384 0.806 -0.558 0.200 76 64 74
-357.0673 29.4314 -15.5859 0.966 -0.258 -0.028 71 59 69
-354.4015 29.6269 -15.4165 0.574 0.045 0.818 75 63 73
-346.0576 38.1621 -14.1927 0.997 0.068 -0.034 97 82 89
-348.3040 39.3465 -14.2174 1.000 -0.004 -0.021 102 87 94
-348.2998 40.0317 -14.1572 1.000 -0.004 -0.021 102 87 94
-349.8833 41.0823 -14.1558 0.998 0.046 -0.050 96 81 88
-349.4718 41.6787 -14.0801 0.996 0.081 -0.030 85 70 77
-351.2354 44.8779 -13.9009 0.960 0.067 -0.270 74 60 75
-343.6031 51.9596 -12.8450 0.709 0.506 0.491 83 70 80
-337.8803 53.7953 -12.3573 0.765 -0.141 0.629 87 75 88
-331.1536 70.8848 -10.4774 0.913 -0.374 0.165 88 74 79
-333.5182 79.4773 -9.8605 0.753 -0.538 -0.378 134 118 131
-324.7707 103.6060 -7.2491 0.984 -0.059 0.169 77 70 77
-329.1021 126.0617 -5.5314 0.037 -0.977 0.208 129 115 115
-329.6559 140.4068 -4.3076 0.989 0.140 -0.049 92 79 88
-335.0025 159.2821 -2.9613 0.722 0.343 0.601 94 84 93
-339.6863 173.5598 -1.9795 0.604 -0.640 -0.475 94 83 91
-338.8399 174.6661 -1.8343 0.618 -0.622 -0.480 88 78 83
-332.2694 180.8988 -0.9134 0.506 -0.309 0.806 155 145 153
-332.4907 182.7873 -0.7608 0.692 -0.265 0.672 77 65 75
-330.2806 181.9219 -0.7102 0.704 -0.270 0.657 89 77 87
-327.9157 180.9220 -0.6626 0.688 -0.245 0.683 88 76 86
-313.6892 175.4067 -0.3323 0.670 -0.739 -0.066 87 76 82
-323.2490 187.3507 0.1667 0.667 -0.738 -0.098 87 76 82
-224.5335 108.1299 -1.1252 0.528 0.276 0.803 84 72 76
-325.0781 195.7386 0.7962 0.976 0.113 -0.187 115 100 103
-325.1730 196.6859 0.8737 0.976 0.113 -0.187 112 97 100
-327.1801 199.2742 0.9855 0.295 -0.208 0.933 103 88 91
-332.2639 265.7799 6.5152 0.806 0.590 -0.042 55 49 59
-333.7221 269.3724 6.7462 0.858 0.437 -0.270 64 58 68
-333.8861 270.5564 6.8405 0.921 0.350 -0.174 65 59 69
-371.3032 -19.7299 -21.3732 -0.013 -0.876 0.482 69 57 69
-379.7827 1.7772 -20.0082 0.732 0.600 0.324 80 68 78
-360.9093 3.5472 -18.7345 0.753 -0.570 0.327 83 71 81
-374.6019 6.9189 -19.2541 0.807 0.048 0.588 88 74 89
-355.1279 10.9011 -17.7526 0.575 0.690 0.440 75 61 76
-355.7546 11.6415 -17.7255 0.650 0.684 0.332 73 59 74
-360.3029 13.5541 -17.8292 0.449 0.650 0.614 81 67 82
-349.8814 16.8196 -16.9271 0.347 0.586 0.733 81 69 81
-354.4472 19.4906 -16.9661 0.662 0.637 0.395 74 62 74
-352.5910 20.5493 -16.7639 0.694 0.648 0.314 94 82 94
-353.5193 28.1439 -16.1593 0.698 -0.436 0.568 77 65 75
-347.0630 30.3178 -15.5874 0.900 0.002 0.437 83 71 81
-337.2223 31.6641 -14.8865 0.555 -0.809 -0.194 89 73 84
-343.9538 37.7477 -14.7574 0.961 0.241 -0.137 105 90 97
-338.7657 49.3358 -13.4430 0.805 -0.436 -0.403 81 68 78
-337.3107 54.3793 -12.9185 0.765 -0.141 0.629 68 56 68
-341.2269 59.6877 -12.6898 0.941 -0.148 0.305 56 47 65
-339.3578 60.5083 -12.5076 0.729 -0.577 -0.369 70 58 76
-335.3319 60.6348 -12.2577 0.554 -0.694 0.460 47 33 53
-340.9366 65.2143 -12.1925 0.848 0.158 0.506 68 55 62
-329.9263 67.0850 -11.3766 0.146 -0.885 0.443 94 79 84
-328.1093 67.1374 -11.2643 0.452 -0.549 0.703 87 72 77
-331.0266 70.9167 -11.1091 0.913 -0.374 0.165 78 63 68
-330.1513 71.2935 -11.0244 0.836 -0.395 0.381 86 70 80
-332.7208 79.9607 -10.4240 0.963 -0.186 -0.193 108 92 105
-327.2783 87.6541 -9.4327 0.788 -0.612 -0.063 180 167 176
-327.0778 100.4740 -8.3072 0.665 -0.743 0.079 151 144 151
-325.2327 104.6659 -7.8336 0.952 -0.028 -0.304 108 101 108
-325.7742 121.2554 -6.4247 0.736 -0.675 -0.055 123 108 113
-328.8750 128.3611 -5.9914 0.714 -0.471 -0.518 113 99 98
-321.2153 133.7330 -5.0703 0.937 0.073 0.342 115 103 107
-336.6143 163.0455 -3.4378 0.861 0.220 -0.458 111 100 108
-340.9917 173.8036 -2.7630 0.484 -0.765 -0.426 97 86 92
-338.8262 173.1003 -2.6956 0.613 -0.633 -0.473 101 92 97
-331.1559 181.0643 -1.5486 0.506 -0.309 0.806 112 100 110
-329.4240 182.2768 -1.3405 0.667 -0.229 0.710 90 78 88
-330.7278 197.2017 -0.1214 0.727 -0.663 0.179 76 64 68
-325.3880 196.1873 0.1073 0.855 -0.440 -0.276 93 78 81
-324.5262 196.3191 0.1699 0.812 -0.577 -0.091 93 78 81
-335.5560 213.0133 0.9655 0.679 0.638 0.364 98 85 94
-331.5673 269.2539 6.0876 0.743 -0.648 0.166 63 57 67
-311.9712 -15.1925 -18.0031 0.901 -0.378 -0.211 86 73 90
-358.0988 -1.9366 -19.6989 0.879 0.468 0.087 70 59 73
-369.6956 8.5304 -19.5101 0.849 0.135 0.511 70 56 73
-351.0544 18.3542 -17.5160 0.451 0.542 0.709 70 58 70
-350.8582 22.3246 -17.1616 0.222 -0.806 -0.549 76 60 71
-348.8098 28.6799 -16.4876 0.704 -0.124 0.700 86 74 84
-335.2762 33.2602 -15.2598 0.439 -0.889 -0.133 86 70 81
-339.0203 49.4659 -14.0930 0.805 -0.436 -0.403 72 59 69
-336.3781 52.8136 -13.6418 0.676 -0.174 0.716 81 69 81
-335.2747 53.1768 -13.5426 0.667 -0.185 0.721 76 64 76
-332.3273 53.0012 -13.3763 0.829 0.004 0.559 70 58 70
-341.4858 66.8837 -12.7430 0.771 0.349 0.533 102 90 94
-332.1543 73.4921 -11.5990 0.600 -0.630 0.493 84 68 78
-332.3301 76.3627 -11.3623 0.903 -0.149 -0.403 106 90 100
-338.0027 79.9435 -11.4027 0.654 -0.651 -0.386 108 92 102
-326.2933 79.6144 -10.7105 0.920 -0.348 -0.180 121 105 118
-327.4127 80.7597 -10.6806 0.924 -0.325 -0.203 115 99 112
-329.0439 82.8241 -10.6030 0.997 0.078 0.016 100 84 94
-328.7898 83.4261 -10.5354 0.995 0.096 -0.001 98 82 92
-328.4374 83.9873 -10.4654 1.000 0.017 -0.013 99 83 93
-327.1747 91.2561 -9.7610 0.870 0.491 -0.049 79 68 76
-330.1626 96.1999 -9.5186 0.712 -0.656 0.250 105 90 93
-329.1317 97.9072 -9.3080 0.646 -0.683 0.341 83 68 73
-329.1656 128.6541 -6.6591 0.714 -0.471 -0.518 132 118 117
-324.3160 126.5930 -6.5384 0.866 -0.419 -0.273 129 115 115
-325.0482 127.7827 -6.4808 0.867 -0.444 -0.228 107 93 93
-321.9318 133.5411 -5.7926 0.904 -0.087 -0.419 125 113 115
-320.9774 133.7144 -5.7189 0.937 0.073 0.342 113 101 103
-337.1158 163.5473 -4.1399 0.861 0.220 -0.458 123 112 118
-341.1657 174.0927 -3.4800 0.484 -0.765 -0.426 123 114 119
-339.0438 173.4210 -3.4073 0.613 -0.633 -0.473 129 120 125
-331.1494 177.8159 -2.5426 0.761 -0.223 0.610 92 86 90
-330.3167 178.0293 -2.4729 0.680 -0.347 0.646 78 72 76
-329.2303 181.4434 -2.1117 0.605 -0.139 0.784 91 79 89
-327.7426 181.1278 -2.0474 0.675 -0.245 0.696 94 82 92
-326.5275 189.5500 -1.2464 0.682 0.718 0.141 103 92 98
-326.5768 197.3854 -0.5739 0.879 -0.399 -0.260 82 67 70
-325.2736 197.1439 -0.5145 0.803 -0.576 -0.152 83 68 71
-333.1243 209.2572 0.0467 0.569 0.570 0.592 101 85 95
-337.4516 213.9651 0.1863 0.575 0.550 0.606 101 88 97
-201.0950 -32.5495 -12.9664 0.685 0.595 0.420 57 47 58
-405.2148 -6.6464 -23.7609 0.207 -0.973 0.103 76 64 78
-368.9498 8.4842 -20.1546 0.846 0.129 0.517 81 68 85
-373.3684 16.7170 -19.7317 0.830 -0.549 0.102 85 71 86
-350.5887 22.9928 -17.7427 0.225 -0.802 -0.553 76 63 73
-347.3649 27.1183 -17.1842 0.553 -0.119 0.825 108 96 106
-341.7229 28.7200 -16.6875 0.637 0.401 0.658 86 74 84
-354.2771 35.9660 -16.8677 0.843 0.130 0.522 69 53 66
-354.3194 36.6706 -16.8101 0.801 0.091 0.592 68 52 63
-347.2899 42.0279 -15.9036 0.979 0.150 -0.141 84 68 78
-337.0367 45.6240 -14.9424 0.962 0.006 -0.273 88 74 88
-355.7212 70.9202 -13.9688 0.805 0.488 0.337 96 85 89
-325.4621 66.3630 -12.4300 0.498 -0.531 0.685 138 123 128
-328.4221 72.8911 -12.0600 0.892 -0.241 -0.384 95 79 89
-327.6270 80.9310 -11.3214 0.928 -0.297 -0.223 106 90 102
-327.6302 81.6332 -11.2615 0.947 -0.238 -0.217 103 87 97
-327.9944 82.4834 -11.2120 0.998 0.065 -0.008 108 92 102
-329.2074 98.0412 -9.9580 0.663 -0.736 0.140 96 81 86
-320.4594 98.2178 -9.3853 0.807 -0.567 0.165 101 94 101
-323.5510 125.5114 -7.2469 0.856 -0.515 0.033 149 137 137
-325.0207 127.1280 -7.2022 0.877 -0.443 -0.188 142 130 130
-324.8200 127.7724 -7.1343 0.871 -0.433 -0.232 114 102 102
-320.7292 133.6894 -6.3672 0.957 0.020 0.291 109 95 95
-321.9516 135.9831 -6.2489 0.997 -0.080 -0.008 88 74 74
-321.8924 136.7151 -6.1825 0.997 -0.080 -0.008 90 74 75
-333.5255 158.7238 -5.0407 0.621 0.467 0.629 115 104 108
-326.7702 174.6395 -3.2482 0.754 -0.196 0.627 85 79 83
-329.7788 177.7850 -3.1708 0.680 -0.347 0.646 76 70 74
-329.5598 178.4655 -3.0986 0.686 -0.354 0.636 116 106 114
-329.2937 179.1096 -3.0266 0.686 -0.354 0.636 132 122 130
-329.0278 179.7534 -2.9545 0.686 -0.354 0.636 141 129 139
-329.2898 180.8085 -2.8809 0.675 -0.328 0.661 114 102 112
-328.3599 180.9332 -2.8110 0.694 -0.288 0.660 89 77 87
-326.5253 180.3418 -2.7447 0.660 -0.247 0.710 97 85 95
-335.5968 212.5352 -0.5681 0.569 0.543 0.617 104 88 98
-336.0033 218.4172 -0.0907 0.737 -0.616 0.278 104 91 100
-332.9648 217.5146 0.0257 0.850 -0.414 0.326 97 84 93
-323.8915 258.3482 4.0982 0.715 -0.643 0.272 75 69 79
-322.4393 259.6452 4.3017 0.385 -0.370 0.846 73 67 77
-322.6617 264.7474 4.7241 0.617 -0.776 0.127 63 59 73
-318.1465 263.4986 4.9051 0.862 -0.441 0.250 72 68 83
-201.7160 -34.5332 -13.4663 0.124 -0.899 -0.420 87 77 86
-344.6055 11.0137 -19.0215 0.748 -0.551 0.369 73 61 75
-343.9608 11.5733 -18.9315 0.745 -0.555 0.370 74 62 76
-342.3262 12.6405 -18.7331 0.951 -0.160 -0.266 82 70 84
-337.6239 24.7461 -17.3950 0.982 -0.066 0.179 125 112 122
-360.9773 30.3432 -18.4597 0.900 0.122 0.419 121 109 119
-353.4664 29.6434 -18.0238 0.843 -0.124 0.523 115 103 113
-352.0934 30.7531 -17.8391 0.964 -0.138 0.228 86 74 84
-332.9404 31.5717 -16.5065 0.722 -0.334 0.607 75 59 70
-339.3271 35.5478 -16.5900 0.821 0.516 -0.245 56 40 50
-346.9785 39.9508 -16.7207 0.879 0.444 -0.172 114 99 106
-346.7272 41.2649 -16.5925 0.980 0.158 -0.122 97 82 89
-346.8353 41.9774 -16.5392 0.980 0.158 -0.122 89 73 83
-337.8782 43.2108 -15.8437 0.873 0.487 -0.015 93 79 94
-342.9748 52.0413 -15.4300 0.802 0.532 0.271 83 70 80
-353.0383 57.6902 -15.6139 0.889 0.458 0.002 82 70 82
-355.7285 61.3820 -15.4778 0.816 0.515 0.262 72 60 72
-352.6444 70.7270 -14.4809 0.568 0.290 0.771 111 99 103
-329.1255 77.4071 -12.3626 0.951 0.268 0.155 91 75 86
-328.7480 83.5837 -11.8132 0.997 0.046 -0.062 101 85 96
-329.1089 84.4402 -11.7643 0.921 -0.314 -0.230 101 85 96
-327.2821 87.9279 -11.3476 0.781 -0.616 0.102 103 90 100
-326.8716 88.4611 -11.2753 0.781 -0.616 0.102 120 107 116
-326.1110 88.8409 -11.1929 0.788 -0.608 0.100 118 106 116
-328.9650 90.7988 -11.2148 0.775 -0.622 -0.114 103 91 101
-329.0897 95.1802 -10.8510 0.980 -0.198 0.005 106 94 98
-328.9560 95.8439 -10.7858 0.980 -0.198 0.005 115 103 107
-322.6019 112.4177 -8.9593 0.791 -0.591 -0.161 72 57 64
-347.2032 134.4692 -8.7091 0.077 -0.997 -0.005 123 111 115
-322.2356 124.8673 -7.8779 0.859 -0.512 0.013 133 121 123
-322.9181 134.4085 -7.1127 0.893 -0.315 -0.320 105 91 91
-320.5320 133.6960 -7.0159 0.957 0.020 0.291 98 84 84
-321.6432 135.1528 -6.9654 0.880 0.088 0.467 93 79 78
-321.8835 136.0714 -6.9033 0.879 0.080 0.469 83 67 67
-329.1738 142.2279 -6.8612 0.836 -0.017 0.548 92 77 72
-329.1511 143.0076 -6.7935 0.831 0.038 0.555 97 82 79
-337.6348 160.8504 -5.8378 0.858 0.191 -0.478 122 111 113
-337.9838 162.7715 -5.6977 0.858 0.191 -0.478 122 112 113
-338.1184 163.7081 -5.6270 0.861 0.183 -0.474 136 126 127
-329.5383 177.7685 -3.8672 0.677 -0.359 0.642 87 81 85
-328.9831 179.8886 -3.6505 0.675 -0.328 0.661 115 103 113
-328.7345 180.5460 -3.5783 0.675 -0.328 0.661 100 88 98
-327.5260 180.4507 -3.5067 0.685 -0.306 0.662 91 79 89
-327.8386 190.9879 -2.6325 0.679 0.720 0.144 84 73 79
-332.3528 212.6006 -1.0949 0.589 0.457 0.667 114 101 110
-334.3701 216.2321 -0.9195 0.810 -0.287 0.511 113 100 109
-322.6729 241.1124 1.9647 0.270 -0.711 0.650 93 82 90
-326.8829 259.9282 3.2849 0.711 -0.646 0.279 78 72 82
-326.1248 260.0747 3.3473 0.713 -0.630 0.308 78 72 82
-323.2735 263.7393 3.8465 0.867 0.495 -0.063 78 72 82
-321.9661 265.1913 4.0560 0.617 -0.776 0.127 65 61 76
-195.7025 -47.6239 -14.4505 0.205 -0.966 -0.159 175 183 201
-415.4957 -8.3830 -26.1234 0.015 -0.428 0.904 86 75 91
-404.8429 -2.8602 -24.9320 0.857 0.290 0.426 118 107 121
-372.4245 9.6243 -21.6705 0.132 -0.911 0.391 79 68 82
-339.4915 9.7750 -19.4133 0.930 0.304 -0.208 62 50 64
-341.2621 10.6276 -19.4621 0.741 -0.615 -0.270 54 42 56
-340.5470 11.1709 -19.3676 0.745 -0.607 -0.278 51 39 53
-336.1337 11.8541 -19.0093 0.763 -0.479 -0.434 81 69 83
-336.3866 24.5674 -17.9552 0.978 -0.062 0.200 118 105 115
-343.6975 27.2031 -18.2313 0.912 0.143 0.385 130 117 127
-350.4649 29.1302 -18.5301 0.819 -0.084 0.568 129 116 126
-353.4485 30.3742 -18.6287 0.884 -0.161 0.440 96 83 93
-353.7104 31.1116 -18.5844 0.885 -0.147 0.442 94 81 91
-341.2387 59.2683 -15.3616 0.910 -0.300 -0.286 65 29 39
-330.9406 69.8093 -13.7715 0.958 -0.140 -0.251 113 98 105
-329.5273 74.1542 -13.3091 0.937 -0.133 -0.322 95 82 91
-329.3357 86.7571 -12.2340 0.980 0.050 0.193 93 77 89
-325.3043 89.2893 -11.7458 0.797 -0.595 -0.105 97 85 98
-324.1464 114.0936 -9.5767 0.896 -0.424 -0.135 96 79 87
-350.7792 135.7896 -9.5635 0.018 -0.997 0.071 102 91 97
-324.9390 132.6954 -8.0632 0.843 -0.538 0.001 87 73 73
-323.2853 134.7654 -7.7760 0.914 -0.284 -0.289 88 74 74
-320.7897 133.9853 -7.6717 0.928 0.023 0.372 81 67 67
-321.4177 135.1423 -7.6170 0.879 0.080 0.469 77 63 62
-321.5279 135.9794 -7.5539 0.879 0.080 0.469 77 62 59
-328.5105 144.3259 -7.3265 0.792 -0.073 0.606 97 82 79
-332.2263 155.6666 -6.6241 0.764 0.621 0.172 107 91 92
-332.8156 156.8884 -6.5613 0.762 0.623 0.176 110 95 96
-335.7501 172.3717 -5.4565 0.272 -0.809 0.521 107 101 105
-339.8828 177.9932 -5.2644 0.856 -0.398 0.331 105 99 103
-334.9677 176.0719 -5.0914 0.980 0.194 0.045 72 66 70
-327.8132 179.1487 -4.3445 0.683 -0.355 0.638 92 80 90
-327.7182 179.9229 -4.2728 0.686 -0.354 0.636 91 79 89
-325.2970 178.8731 -4.1962 0.667 -0.293 0.685 91 79 89
-320.6281 258.1323 2.8011 0.760 -0.608 0.231 87 81 91
-415.7450 -9.8862 -27.0474 0.475 0.229 0.850 81 70 84
-406.8755 -8.7427 -26.3277 0.014 -0.422 0.906 84 76 91
-373.1680 -5.4888 -23.6838 -0.053 -0.481 0.875 155 144 158
-402.7592 -2.2126 -25.4920 0.864 0.352 0.361 149 139 150
-377.2146 1.0135 -23.4249 0.842 0.529 0.105 82 70 80
-327.6414 5.3409 -19.5749 0.640 -0.344 -0.687 84 76 87
-340.7213 10.5937 -20.0560 0.748 -0.598 -0.287 135 124 138
-340.2328 11.1651 -19.9738 0.748 -0.598 -0.287 168 157 171
-352.1997 24.0644 -19.7373 0.224 -0.774 -0.593 98 85 95
-357.9214 31.2701 -19.5373 0.911 0.039 0.411 104 88 99
-330.9354 74.7603 -14.0020 0.884 -0.394 0.252 111 99 109
-329.7339 79.2134 -13.5451 0.989 0.129 0.072 82 71 79
-329.1408 82.5041 -13.2282 0.998 0.063 -0.012 135 119 130
-323.2527 116.6943 -9.9550 0.833 -0.462 -0.303 85 70 77
-323.6709 132.8221 -8.6358 0.631 -0.689 -0.357 74 60 60
-329.3443 145.8002 -7.9499 0.776 0.608 0.169 93 78 73
-322.0438 145.7707 -7.4386 0.903 0.104 0.418 92 76 77
-331.5331 153.7094 -7.4425 0.822 0.316 -0.474 97 81 82
-325.2082 151.8633 -7.1518 0.942 -0.132 -0.307 109 94 95
-333.5141 167.5235 -6.4268 0.970 -0.136 -0.201 92 86 90
-334.6821 169.2080 -6.3681 0.741 -0.610 0.281 91 86 90
-334.2625 169.7518 -6.2931 0.741 -0.610 0.281 91 85 89
-335.7141 171.6548 -6.2362 0.562 -0.726 0.396 74 68 72
-335.0618 172.0319 -6.1587 0.556 -0.730 0.398 68 61 68
-334.6927 176.0331 -5.7982 0.979 0.201 0.023 74 68 72
-324.4450 177.5343 -4.9516 0.757 -0.275 0.593 91 79 89
-327.7662 193.8975 -3.8170 0.455 -0.708 0.541 88 77 83
-324.0354 202.0645 -2.8716 0.909 -0.074 -0.410 101 88 95
-323.7916 204.4844 -2.6521 0.980 -0.187 -0.066 101 88 95
-331.2837 249.5384 0.5880 0.841 0.170 0.513 79 66 76
-331.2493 250.4718 0.6685 0.872 0.078 0.483 84 71 81
-323.1399 265.0750 2.4602 0.854 0.521 -0.008 80 74 86
-375.9542 -7.3599 -24.7312 -0.038 -0.528 0.849 134 126 141
-373.4404 -6.8131 -24.5034 -0.031 -0.494 0.869 150 142 157
-368.5520 -5.7419 -24.0598 -0.029 -0.352 0.936 178 170 183
-402.4558 -2.2043 -26.2269 0.864 0.352 0.361 157 147 158
-342.9940 10.2753 -20.8760 0.862 -0.331 -0.385 86 75 89
-342.1563 10.8086 -20.7709 0.729 -0.614 -0.303 79 68 82
-341.8018 11.4010 -20.6961 0.751 -0.601 -0.274 72 61 75
-357.2790 22.2155 -20.9221 0.570 0.528 0.630 83 69 82
-354.0020 24.4114 -20.5021 0.883 -0.323 0.341 92 79 89
-352.2376 28.1909 -20.0605 0.983 0.148 0.106 102 86 97
-341.8504 34.9149 -18.7487 0.204 -0.967 0.152 88 71 81
-342.7220 36.4450 -18.6851 0.374 -0.899 0.226 84 67 75
-352.5536 44.9040 -18.6968 0.903 0.406 -0.140 63 49 61
-332.9830 49.4784 -16.8969 0.591 0.131 -0.796 84 68 79
-331.2906 74.9739 -14.6589 0.551 -0.223 0.804 112 100 110
-328.3416 81.5614 -13.8983 0.952 -0.192 -0.239 107 95 104
-329.1541 82.5963 -13.8714 0.998 0.063 -0.012 126 111 122
-328.4111 106.1425 -11.8640 0.969 0.061 0.238 130 118 122
-328.6958 109.2559 -11.6263 0.958 -0.231 0.170 131 112 114
-329.0134 110.9116 -11.5120 0.909 -0.410 -0.072 111 95 95
-321.8294 131.0626 -9.3188 0.654 -0.616 -0.438 78 62 62
-323.1095 146.6195 -8.1210 0.922 0.354 0.158 116 100 101
-336.0848 158.5777 -8.0706 0.840 0.404 -0.361 96 80 81
-336.6436 159.7927 -8.0103 0.840 0.404 -0.361 105 90 91
-327.1470 182.3684 -5.4481 0.880 -0.424 -0.215 84 72 82
-328.1133 185.7068 -5.2413 0.833 0.477 0.281 82 70 79
-328.9671 187.2547 -5.1748 0.813 0.500 0.300 87 76 84
-328.2868 187.5690 -5.0994 0.887 -0.377 -0.266 81 70 78
-327.4525 187.7551 -5.0234 0.891 -0.379 -0.252 82 71 77
-327.4192 199.9219 -4.0116 0.883 0.408 -0.233 69 57 61
-326.8912 204.7670 -3.5713 0.833 -0.488 -0.258 90 77 84
-331.1244 250.5811 -0.0775 0.899 0.099 0.428 76 63 73
-328.8526 249.1847 -0.0285 0.369 -0.766 0.527 78 65 75
-284.4911 -78.3871 -24.4326 0.279 -0.940 -0.198 183 191 213
-337.3280 7.7339 -21.2956 0.929 0.271 -0.251 79 71 84
-354.0069 22.4166 -21.3345 0.794 -0.607 -0.010 84 71 81
-346.0488 27.1074 -20.3532 0.991 -0.033 0.130 90 74 85
-359.1037 31.5929 -20.9604 0.978 0.117 -0.174 85 69 80
-348.8629 37.1537 -19.7367 0.663 -0.637 -0.394 95 78 88
-352.8919 40.8218 -19.7362 0.779 -0.627 0.002 92 75 83
-354.0179 41.7806 -19.7414 0.740 -0.673 -0.020 82 65 73
-351.7679 43.3677 -19.4425 0.897 0.410 -0.166 77 61 71
-352.0313 44.1330 -19.3992 0.903 0.403 -0.148 73 57 67
-344.7395 46.5242 -18.6570 0.898 0.001 -0.439 81 68 78
-335.0466 49.4344 -17.6925 0.575 0.124 -0.809 84 68 79
-327.8961 73.0924 -15.2104 0.402 -0.233 0.885 108 96 106
-331.7823 75.9426 -15.2664 0.490 -0.253 0.834 90 78 88
-328.9301 81.8850 -14.5640 0.956 -0.204 -0.211 116 105 113
-329.1675 82.6886 -14.5156 0.998 0.063 -0.012 115 102 112
-331.3945 86.4588 -14.3718 0.928 -0.260 -0.266 104 87 103
-329.5515 87.1190 -14.1796 0.983 -0.176 -0.054 84 67 83
-328.1882 93.7115 -13.5350 0.794 -0.602 0.079 94 81 99
-327.5187 105.0669 -12.5503 0.966 0.106 0.237 114 103 109
-332.0551 108.0611 -12.6431 0.907 0.019 0.421 118 106 110
-333.0658 110.8303 -12.4908 0.945 -0.327 -0.003 117 101 102
-328.2383 110.6226 -12.1468 0.973 -0.230 -0.023 89 70 72
-322.8525 115.9604 -11.3046 0.834 -0.481 -0.270 99 84 91
-338.1368 146.0030 -9.9749 0.558 -0.727 -0.400 77 61 61
-329.0344 145.8789 -9.3043 0.795 0.606 -0.004 109 94 91
-326.2518 155.2869 -8.3218 0.939 -0.147 -0.310 70 59 63
-338.9229 176.0490 -7.5605 0.831 0.449 -0.330 94 85 89
-339.6615 177.4619 -7.4995 0.831 0.449 -0.330 95 86 91
-336.1221 177.4348 -7.2370 0.974 0.219 0.057 106 100 104
-327.8967 184.8498 -6.0114 0.755 -0.537 -0.377 77 64 73
-329.0877 186.6650 -5.9511 0.820 0.498 0.282 76 63 72
-333.3137 205.1778 -4.7433 0.896 0.398 -0.198 73 62 68
-333.7935 206.4940 -4.6709 0.983 0.085 0.162 76 65 71
-330.3549 204.4204 -4.5844 0.962 -0.267 -0.058 80 69 75
-326.0765 206.0180 -4.1329 0.877 -0.250 -0.409 62 50 54
-324.5027 205.5060 -4.0573 0.843 -0.451 -0.295 59 47 51
-325.4592 207.2457 -3.9857 0.879 -0.402 -0.256 70 58 62
-331.5832 226.5347 -2.8560 0.881 -0.156 0.448 78 65 72
-331.4749 227.3649 -2.7796 0.881 -0.156 0.448 79 66 73
-331.4415 228.2673 -2.7028 0.818 -0.349 0.458 86 73 80
-329.9106 247.6284 -0.9946 0.463 -0.803 0.375 72 61 69
-328.3600 248.9091 -0.7732 0.369 -0.766 0.527 76 63 73
-316.4766 244.8476 -0.2188 0.735 -0.632 -0.247 75 63 73
-305.3669 256.5786 1.5778 0.961 -0.198 -0.193 71 65 78
-272.7219 -74.7009 -23.6725 0.551 -0.668 -0.501 152 159 173
-351.6493 -7.9828 -24.3027 -0.044 -0.450 0.892 64 56 71
-354.2253 11.0706 -22.9452 0.907 0.320 -0.273 69 58 72
-356.5769 12.0270 -23.0482 0.908 0.313 -0.279 65 54 68
-357.5011 13.4892 -23.0000 0.841 0.540 0.020 72 61 75
-354.1717 16.4071 -22.5053 0.764 0.566 0.309 76 64 78
-356.4438 22.1683 -22.2098 0.422 -0.803 -0.421 83 69 82
-353.9182 22.4451 -21.9927 0.400 -0.853 -0.335 85 71 84
-354.1355 28.6315 -21.5043 0.432 -0.880 -0.198 82 66 77
-357.3284 43.3086 -20.5517 0.501 -0.865 0.031 77 60 68
-348.3044 43.3016 -19.8573 0.819 0.241 -0.520 80 64 74
-304.6455 42.3772 -16.5706 0.798 0.484 0.360 86 70 81
-339.2176 68.0720 -17.1348 0.610 -0.071 0.789 83 67 78
-337.7996 69.7153 -16.8914 0.736 -0.279 0.617 111 98 108
-332.1207 78.2738 -15.7552 0.952 0.293 -0.085 86 74 84
-327.5427 93.5167 -14.1579 0.788 -0.614 0.050 123 110 128
-329.4732 95.8404 -14.1169 0.917 -0.150 0.370 107 95 106
-330.9970 98.0020 -14.0577 0.925 -0.285 0.252 102 90 100
-327.8283 106.8044 -13.0949 0.976 0.062 0.208 94 79 82
-332.4087 116.6897 -12.6404 0.888 -0.439 -0.140 110 93 101
-330.3038 117.0952 -12.4452 0.782 -0.612 -0.118 142 125 133
-333.0233 170.1813 -8.3197 0.898 -0.440 -0.031 101 92 97
-332.6653 170.7664 -8.2444 0.893 -0.446 -0.049 101 93 98
-336.5282 177.9065 -7.9588 0.975 0.216 0.044 127 118 123
-328.6344 182.1798 -7.0019 0.653 -0.638 -0.408 119 106 115
-328.1610 184.3773 -6.7860 0.766 -0.556 -0.324 118 105 114
-326.3076 193.2288 -5.9205 0.696 -0.678 0.238 108 97 103
-327.5472 195.1397 -5.8599 0.567 -0.696 0.441 100 89 95
-332.0389 206.0742 -5.3129 0.956 -0.284 -0.066 86 75 81
-324.8522 209.5694 -4.4741 0.817 0.207 -0.538 95 83 87
-328.6685 224.9144 -3.5149 0.947 0.321 -0.015 89 76 83
-326.9631 231.6209 -2.8359 0.904 0.294 -0.311 82 71 77
-327.3708 232.9555 -2.7584 0.904 0.294 -0.311 84 73 79
-326.6258 233.1543 -2.6848 0.992 -0.054 -0.115 84 73 79
-329.8494 247.8018 -1.7369 0.454 -0.803 0.385 72 61 69
-324.7477 243.4788 -1.6970 0.499 -0.772 0.393 73 60 70
-327.3338 248.0760 -1.5208 0.256 -0.674 0.693 74 61 71
-325.2617 246.8660 -1.4600 0.266 -0.680 0.684 74 61 71
-324.4217 246.9375 -1.3895 0.257 -0.689 0.677 74 61 71
-323.8038 247.2388 -1.3173 0.257 -0.689 0.677 72 59 69
-308.7371 260.7949 0.9499 0.921 -0.101 -0.377 73 67 78
-326.1580 -9.9638 -23.0865 -0.056 -0.448 0.892 76 68 83
-359.5257 5.6920 -24.4621 0.679 -0.464 -0.569 89 79 90
-360.3749 21.4513 -23.2528 0.371 -0.844 -0.388 79 67 81
-358.0203 21.7743 -23.0401 0.422 -0.803 -0.421 91 79 93
-356.9180 22.2866 -22.9113 0.422 -0.803 -0.421 89 77 89
-352.7937 22.3063 -22.5829 0.409 -0.852 -0.325 84 70 83
-356.2858 25.6176 -22.5914 0.883 -0.347 -0.316 85 72 82
-355.2192 26.8091 -22.4103 0.883 -0.344 -0.318 86 73 83
-357.0318 28.5141 -22.4158 0.760 -0.586 -0.280 74 58 69
-344.6373 33.6392 -21.0187 0.701 -0.539 0.467 91 74 84
-356.8560 43.2571 -21.2077 0.468 -0.355 0.809 92 75 83
-355.2707 43.6003 -21.0543 0.469 -0.881 0.064 85 68 76
-354.1371 44.7527 -20.8711 0.657 -0.251 0.710 130 114 124
-337.0455 68.8248 -17.5670 0.520 -0.245 0.818 153 140 150
-325.9857 73.2292 -16.3339 0.415 -0.234 0.879 89 77 87
-329.9292 76.8099 -16.3563 0.883 0.450 0.133 98 86 96
-330.5115 82.6971 -15.9256 0.998 0.047 -0.047 94 83 91
-330.9171 84.2894 -15.8287 0.737 -0.507 0.447 94 80 93
-331.5142 87.4094 -15.6233 0.377 -0.572 0.729 73 56 72
-330.1774 87.5651 -15.5048 0.380 -0.562 0.734 74 57 73
-327.8858 87.3079 -15.3440 0.789 -0.495 0.364 73 56 72
-338.1496 93.9076 -15.6227 0.940 -0.336 -0.056 111 98 115
-329.1184 95.0489 -14.8147 0.918 -0.141 0.370 116 103 119
-329.0376 95.7393 -14.7523 0.918 -0.141 0.370 105 93 105
-326.5952 101.8858 -14.0609 0.746 -0.664 -0.048 137 126 132
-327.1219 102.8742 -14.0226 0.915 -0.330 0.232 129 118 124
-327.6326 109.7844 -13.5033 0.928 0.101 0.360 102 83 85
-327.1996 124.6596 -12.2640 0.789 -0.575 0.215 80 69 75
-327.8129 125.7779 -12.2220 0.785 -0.580 0.220 79 68 74
-325.8382 126.1742 -12.0335 0.873 -0.401 0.278 91 80 84
-327.2734 127.7759 -12.0175 0.840 -0.509 0.187 82 71 75
-327.3935 128.6176 -11.9588 0.818 -0.515 0.257 73 62 66
-324.2454 146.2127 -10.2841 0.928 0.322 -0.185 103 87 88
-332.6317 168.3675 -9.1539 0.805 -0.579 -0.128 108 97 103
-328.4803 183.0884 -7.6326 0.659 -0.632 -0.406 128 115 124
-328.2677 183.7781 -7.5598 0.862 -0.427 -0.273 132 119 128
-327.1567 183.7513 -7.4740 0.828 -0.474 -0.300 129 116 125
-326.8016 184.3237 -7.3995 0.828 -0.474 -0.300 112 99 108
-326.9377 185.2902 -7.3320 0.801 0.479 0.359 88 75 84
-328.1188 187.9668 -7.2087 0.895 -0.346 -0.282 129 118 124
-327.7611 188.5412 -7.1339 0.893 -0.380 -0.240 133 122 128
-327.2200 189.8297 -6.9866 0.914 -0.340 -0.223 144 133 139
-326.9597 190.4818 -6.9132 0.914 -0.340 -0.223 136 125 131
-325.6743 190.2854 -6.8273 0.966 -0.076 -0.247 128 117 123
-330.8130 199.8458 -6.4600 0.867 0.429 -0.254 108 97 103
-324.3778 248.0822 -2.0428 0.247 -0.856 0.454 60 47 57
-326.7294 269.1652 -0.5213 0.756 0.449 -0.476 72 67 74
-315.9603 262.7735 -0.1858 0.536 -0.446 0.717 79 76 83
-263.5072 213.1986 -0.0456 0.266 -0.954 0.139 76 73 84
-156.7640 -56.0882 -13.5803 0.409 -0.913 0.008 55 62 90
-329.7013 -9.1679 -23.8971 -0.026 -0.562 0.827 67 59 74
-356.5320 -4.4255 -25.7015 0.860 0.498 0.107 99 89 98
-365.5833 7.0205 -25.5191 0.431 -0.788 0.440 83 75 86
-352.3386 7.6164 -24.3924 0.569 -0.588 -0.576 62 54 65
-348.6796 9.1613 -23.9702 0.831 0.400 -0.386 40 32 43
-354.5621 25.3677 -23.1472 -0.037 -0.982 0.185 85 72 82
-361.2410 30.0273 -23.3169 0.113 -0.749 0.653 74 58 69
-356.0897 33.2603 -22.6375 0.033 -0.935 0.353 102 86 96
-345.5650 33.8820 -21.7303 0.682 -0.568 0.461 96 79 89
-343.3516 34.0954 -21.5328 0.664 -0.575 0.477 94 77 87
-344.6872 35.0518 -21.5648 0.682 -0.529 0.505 92 75 85
-351.6016 38.6035 -21.8426 0.647 -0.637 0.419 91 74 84
-349.6066 40.2446 -21.5482 0.535 -0.828 0.168 129 110 116
-355.9016 43.0939 -21.8321 0.468 -0.355 0.809 109 90 96
-354.5768 44.2058 -21.6348 0.600 -0.309 0.738 113 96 104
-340.1435 51.7058 -19.8565 0.798 0.243 -0.551 88 75 85
-354.1418 58.4855 -20.4520 0.772 0.505 0.387 102 89 98
-345.3140 63.7872 -19.3070 0.898 0.233 0.373 96 78 92
-336.9779 69.5854 -18.1621 0.647 -0.451 0.615 148 135 145
-326.0148 72.6307 -17.0244 0.492 -0.096 0.865 72 60 70
-328.9570 87.1393 -16.0983 0.782 -0.501 0.371 83 66 82
-331.1998 89.5346 -16.0885 0.936 -0.241 -0.256 81 67 84
-331.0523 90.1952 -16.0235 0.941 -0.232 -0.245 96 81 100
-338.1545 94.0059 -16.2958 0.940 -0.336 -0.056 112 99 117
-329.7544 94.7059 -15.5553 0.889 -0.100 0.448 113 100 118
-329.7055 95.4123 -15.4946 0.889 -0.100 0.448 111 99 114
-326.5606 101.9717 -14.7114 0.746 -0.664 -0.048 164 153 159
-327.2536 109.6992 -14.1469 0.970 0.118 0.214 105 89 90
-328.3941 111.0326 -14.1327 0.912 -0.079 0.402 96 80 81
-331.4020 115.6231 -14.0088 0.970 -0.213 -0.117 112 95 101
-330.9367 116.1390 -13.9295 0.947 -0.277 0.165 109 92 100
-327.4107 124.9018 -12.9382 0.490 0.129 0.862 91 80 84
-328.9774 126.5688 -12.9319 0.766 -0.615 0.188 107 96 100
-325.1218 152.5321 -10.5317 0.840 0.055 -0.539 95 82 84
-333.6882 169.2922 -9.8828 0.768 -0.625 -0.139 94 81 88
-333.2282 169.8061 -9.8041 0.782 -0.600 -0.167 93 80 87
-331.6255 175.4216 -9.2223 0.718 -0.503 -0.481 144 133 141
-328.5049 184.1412 -8.2675 0.855 -0.437 -0.279 140 127 136
-327.5643 184.2511 -8.1821 0.843 -0.451 -0.294 129 116 125
-332.0803 246.6991 -3.5323 0.182 -0.127 0.975 73 62 70
-329.6471 252.9147 -2.8347 0.313 -0.730 0.607 56 44 54
-324.6222 248.5788 -2.7738 0.255 -0.850 0.460 55 43 53
-315.4526 240.7363 -2.6570 0.289 -0.736 0.612 62 50 60
-332.7816 266.1512 -2.0265 0.704 -0.505 -0.499 72 68 75
-327.0364 261.8499 -1.9042 0.808 -0.576 -0.122 79 77 82
-322.5791 260.8354 -1.6226 0.755 0.421 -0.503 84 82 87
-327.9253 269.7751 -1.3398 0.757 0.452 -0.472 73 71 76
-315.5818 262.5929 -0.9114 0.537 -0.439 0.720 76 71 77
-264.3204 212.8294 -0.7343 0.452 -0.694 0.560 66 63 74
-243.0786 -23.2982 -18.3694 0.758 0.643 -0.109 75 63 73
-360.1370 8.5104 -25.6302 0.369 -0.796 0.480 69 59 69
-351.2553 9.4972 -24.8083 0.760 -0.590 0.274 53 43 52
-354.0579 24.6425 -23.8359 -0.027 -0.990 0.141 84 71 81
-360.0408 29.1531 -23.9771 0.046 -0.634 0.772 74 58 69
-358.8880 29.6445 -23.8414 0.117 -0.756 0.645 74 58 69
-343.3787 33.4793 -22.2380 0.664 -0.575 0.477 103 86 96
-358.7111 41.6500 -22.8699 0.595 -0.614 0.519 92 75 83
-358.1769 42.2455 -22.7777 0.595 -0.614 0.519 105 88 96
-352.6927 42.4074 -22.3059 0.440 -0.297 0.847 100 83 91
-351.8236 43.6123 -22.1371 0.523 -0.316 0.791 146 129 137
-353.4832 44.7140 -22.1882 0.577 -0.354 0.736 156 140 150
-340.6706 47.7830 -20.8715 0.469 -0.471 0.747 80 64 75
-353.1595 56.0959 -21.2541 0.596 -0.483 -0.641 91 75 86
-336.7833 61.8688 -19.4236 0.909 0.350 0.226 79 61 75
-339.0512 66.1158 -19.2750 0.912 -0.244 0.330 102 86 97
-331.5394 89.7731 -16.7611 0.943 -0.228 -0.243 93 78 96
-326.2973 92.5236 -16.1032 0.886 -0.239 0.397 129 116 133
-326.7637 93.4528 -16.0682 0.869 -0.171 0.465 128 115 132
-328.8617 95.1265 -16.1104 0.894 -0.108 0.435 117 105 119
-327.5518 95.2558 -15.9905 0.921 -0.137 0.364 93 81 91
-329.1243 99.6327 -15.7732 0.802 -0.568 0.183 76 65 73
-327.2323 103.8710 -15.2772 0.943 -0.248 -0.222 143 132 138
-327.9604 107.9344 -15.0143 0.869 -0.488 0.081 81 66 69
-326.4344 110.1312 -14.7115 0.912 -0.072 0.404 96 80 83
-331.1305 115.5939 -14.6691 0.992 -0.113 -0.052 112 97 102
-327.0760 115.7098 -14.3206 0.814 -0.580 -0.035 126 111 118
-326.8611 124.7097 -13.5854 0.701 -0.662 0.263 75 63 67
-327.7117 125.9652 -13.5565 0.774 -0.594 0.219 75 63 67
-327.9207 126.8564 -13.5030 0.789 -0.584 0.191 71 59 63
-327.2978 127.2673 -13.4181 0.867 0.466 0.175 71 59 63
-326.2254 129.7259 -13.1325 0.843 -0.503 0.190 74 62 66
-323.2391 134.8766 -12.4721 0.815 0.158 0.558 52 36 36
-334.9416 160.2267 -11.4312 0.652 0.357 0.669 65 55 60
-331.4464 166.9885 -10.5998 0.640 0.334 0.692 95 82 89
-331.6961 168.0099 -10.5393 0.816 0.120 -0.566 93 80 87
-328.5375 183.4817 -9.0420 0.980 0.142 0.142 97 84 93
-328.3181 184.1675 -8.9690 0.975 0.189 0.118 101 88 97
-327.9430 184.7288 -8.8929 0.837 -0.447 -0.315 110 97 106
-327.6013 185.3157 -8.8175 0.837 -0.447 -0.315 112 99 108
-328.3536 188.5147 -8.6255 0.895 -0.346 -0.282 94 83 89
-324.5239 187.1162 -8.4165 0.900 -0.348 -0.262 111 100 106
-332.0462 205.7642 -7.5599 0.957 -0.254 0.138 107 96 102
-329.3756 211.5469 -6.8756 0.812 -0.426 -0.399 92 80 84
-329.3532 212.4334 -6.8031 0.892 -0.295 -0.342 105 93 97
-329.4744 242.3585 -4.4284 0.189 -0.109 0.976 81 70 78
-328.4785 242.3026 -4.3495 0.186 -0.111 0.976 75 64 72
-333.7230 267.4343 -2.7856 0.318 -0.193 0.928 68 66 71
-324.3683 261.1221 -2.5058 0.830 -0.544 -0.120 82 80 85
-329.2514 271.5283 -2.0851 0.757 0.451 -0.473 72 70 75
-314.5099 261.6127 -1.6417 0.533 -0.446 0.719 71 66 73
-310.4490 259.7712 -1.4487 0.607 0.068 0.792 74 69 76
-318.2690 272.8060 -1.0643 0.724 0.064 0.687 58 52 62
-318.2433 274.7507 -0.9071 0.715 0.022 0.698 53 50 59
-232.1282 -54.4237 -20.2820 0.206 -0.967 -0.148 183 191 212
-374.9342 6.6437 -27.7242 0.404 -0.719 0.565 73 61 71
-355.0518 8.6460 -25.8578 0.535 -0.721 0.441 68 58 67
-359.3929 22.1181 -25.1660 0.566 0.531 0.630 88 76 90
-354.1506 26.7590 -24.3488 0.730 0.677 -0.095 84 71 81
-360.7525 28.6258 -24.7684 0.057 -0.667 0.743 85 69 80
-344.7920 33.8231 -22.9865 0.756 -0.541 0.367 109 92 102
-344.4523 34.4284 -22.9095 0.754 -0.552 0.355 98 81 91
-351.5851 38.7087 -23.1840 0.546 -0.722 0.425 69 52 62
-357.8600 41.5155 -23.5012 0.604 -0.611 0.512 81 64 72
-357.3358 42.1116 -23.4091 0.604 -0.611 0.512 92 75 83
-339.3062 66.2747 -19.9504 0.922 -0.143 0.359 92 76 87
-331.2285 89.7324 -17.4024 0.928 -0.257 -0.269 102 88 102
-330.8542 90.2961 -17.3257 0.946 -0.222 -0.235 99 85 101
-331.1895 91.1675 -17.2857 0.944 -0.228 -0.236 113 101 116
-330.7873 91.7188 -17.2075 0.945 -0.241 -0.220 123 110 126
-330.3019 92.2323 -17.1252 0.941 -0.231 -0.249 115 103 118
-336.8133 95.8470 -17.3990 0.605 -0.761 -0.235 114 101 117
-327.4964 96.0534 -16.5822 0.922 -0.141 0.361 72 61 69
-328.4641 97.2280 -16.5725 0.854 -0.481 0.195 74 63 71
-329.0810 99.7132 -16.4291 0.795 -0.579 0.179 106 95 101
-329.0045 100.4123 -16.3673 0.882 -0.470 -0.020 131 120 128
-327.9610 104.3332 -15.9677 0.937 -0.264 -0.227 130 119 125
-327.7637 104.9754 -15.9000 0.937 -0.264 -0.227 116 105 111
-327.2607 105.4659 -15.8181 0.933 -0.271 -0.236 116 105 111
-327.6846 107.9028 -15.6619 0.871 -0.483 0.088 110 95 98
-331.8466 116.8513 -15.3122 0.967 -0.228 -0.114 118 106 110
-327.8036 126.1409 -14.2306 0.771 -0.605 0.199 148 133 136
-327.5461 128.3087 -14.0372 0.864 0.469 0.183 112 97 102
-326.7288 130.1504 -13.8214 0.823 -0.548 0.152 88 73 78
-322.6848 133.8915 -13.1783 0.881 0.335 0.335 109 93 93
-338.5891 161.1908 -12.3871 0.618 -0.683 -0.391 84 68 69
-334.7043 160.2163 -12.1303 0.521 -0.759 -0.390 71 61 67
-328.6720 158.5303 -11.7453 0.534 -0.784 -0.315 104 95 100
-326.8451 183.1696 -9.6410 0.843 0.346 0.413 85 72 81
-327.4791 185.3938 -9.5197 0.836 0.354 0.420 74 61 70
-328.4406 188.7646 -9.3359 0.903 -0.358 -0.237 93 82 88
-328.0167 189.2876 -9.2581 0.884 -0.380 -0.272 111 100 106
-326.3308 188.7750 -9.1538 0.906 -0.400 -0.139 111 100 106
-324.5855 188.2038 -9.0490 0.901 -0.417 -0.117 103 92 98
-330.0912 198.9134 -8.6756 0.809 -0.540 -0.232 95 84 90
-328.2621 198.2479 -8.5710 0.799 -0.563 -0.210 84 73 79
-324.4102 204.6294 -7.7358 0.707 0.231 0.668 77 65 69
-328.0318 262.4612 -3.4761 0.278 -0.244 0.929 68 66 71
-325.5574 262.6913 -3.2454 0.177 -0.534 0.827 82 80 85
-329.7597 272.3632 -2.8420 0.792 0.366 -0.490 72 70 75
-311.8870 259.7927 -2.3000 0.823 0.092 0.561 70 65 72
-318.4198 271.2780 -1.9535 0.855 -0.062 0.515 63 57 67
-180.8578 -52.9402 -15.9955 0.408 -0.825 0.391 173 181 204
-354.8120 9.3174 -26.4488 0.562 -0.672 0.482 66 55 61
-335.8453 9.6236 -24.7530 0.164 -0.963 0.214 60 46 61
-367.3506 24.8380 -26.3375 -0.021 -0.983 0.183 80 66 79
-363.5297 24.9230 -25.9941 -0.003 -0.983 0.182 67 53 66
-354.9827 29.0239 -24.9193 0.422 -0.840 -0.341 65 49 62
-330.2242 58.5640 -20.4218 0.890 -0.096 -0.446 121 105 118
-329.9022 59.8219 -20.2948 0.779 -0.315 0.542 105 89 102
-329.2352 60.2887 -20.1994 0.793 -0.314 0.523 97 81 94
-339.4693 66.4034 -20.6222 0.918 -0.259 0.300 86 73 83
-330.2245 84.3593 -18.4000 0.638 -0.580 -0.506 129 116 125
-330.2438 90.8497 -17.8930 0.968 -0.077 -0.239 108 95 106
-329.8939 92.1473 -17.7605 0.984 -0.071 -0.164 97 84 95
-327.6951 96.2429 -17.2457 0.928 -0.130 0.350 75 64 70
-328.7410 101.1249 -16.9552 0.872 -0.485 -0.066 134 125 130
-327.2396 104.8218 -16.5331 0.918 -0.396 -0.018 108 99 104
-327.3809 105.6313 -16.4821 0.933 -0.271 -0.236 133 124 129
-325.8530 110.0499 -16.0011 0.926 -0.032 0.377 116 104 108
-331.4564 116.7591 -15.9692 0.966 -0.236 -0.103 116 105 109
-328.1990 121.8755 -15.2811 0.823 -0.433 0.368 122 107 110
-328.8711 123.0188 -15.2507 0.869 -0.455 -0.194 122 107 110
-327.4941 123.7791 -15.0697 0.793 -0.507 0.338 118 103 106
-326.5034 123.9828 -14.9664 0.829 -0.442 0.342 133 118 121
-327.8900 127.0862 -14.8454 0.775 -0.623 0.109 137 122 127
-326.8480 128.0258 -14.6799 0.872 0.451 0.191 132 117 122
-328.1710 130.3534 -14.6141 0.836 0.527 0.152 118 103 108
-326.3038 130.0249 -14.4753 0.889 -0.451 0.077 110 95 100
-327.6506 132.3823 -14.4092 0.159 -0.984 -0.085 93 78 81
-329.1895 160.6933 -12.3259 0.476 -0.828 -0.297 109 100 105
-327.7044 189.2125 -9.9598 0.903 -0.365 -0.225 115 104 110
-325.0432 187.8987 -9.8282 0.897 -0.114 -0.427 127 116 122
-323.0096 187.0854 -9.7127 0.846 -0.309 -0.435 131 120 126
-326.5941 197.0180 -9.2501 0.864 -0.501 0.054 83 72 78
-324.0390 201.8462 -8.6465 0.752 -0.508 -0.420 72 61 65
-148.0566 53.6420 -4.7507 0.979 0.019 0.204 74 62 66
-318.8287 237.5575 -5.3883 0.280 -0.349 0.894 58 47 53
-332.6261 265.7459 -4.3951 0.287 0.101 0.953 56 54 59
-316.9058 268.7862 -2.7712 0.827 0.037 0.560 72 67 74
-317.6668 287.6054 -1.3632 0.913 -0.324 0.246 52 49 60
-350.9160 -36.8540 -30.3506 0.069 -0.996 -0.058 68 55 62
-349.1243 3.4998 -27.0524 0.247 -0.465 0.850 62 50 62
-362.0169 19.1336 -27.0026 0.665 -0.498 -0.557 68 54 65
-357.8283 19.2082 -26.6182 0.657 -0.513 -0.552 67 53 66
-349.4839 36.2796 -24.5373 0.968 -0.120 -0.220 94 78 89
-357.8842 41.6345 -24.8803 0.740 -0.528 -0.417 117 104 114
-358.0366 42.3855 -24.8358 0.716 -0.589 -0.375 122 109 119
-347.4748 42.7540 -23.8526 0.533 -0.428 0.730 142 129 139
-349.7025 58.2058 -22.8530 0.859 0.508 0.069 135 121 134
-328.1138 59.9986 -20.7625 0.802 -0.278 0.529 92 76 89
-339.1576 71.3672 -20.8771 0.936 -0.348 0.050 127 114 123
-341.8823 73.7700 -20.9366 0.993 -0.059 0.104 112 99 108
-329.5499 72.1728 -19.9462 0.378 -0.808 -0.452 94 83 92
-330.9672 83.3192 -19.2080 0.910 -0.413 -0.035 84 71 78
-330.4808 83.8371 -19.1238 0.939 -0.195 -0.284 80 69 75
-328.8476 91.7804 -18.3588 0.964 -0.250 0.096 104 91 99
-327.3126 91.8228 -18.2168 0.741 -0.670 0.031 97 84 92
-330.8774 94.1372 -18.3591 0.773 -0.631 -0.073 98 85 91
-326.2920 95.6946 -17.8236 0.934 -0.113 0.338 76 65 70
-327.3811 96.9240 -17.8265 0.928 -0.130 0.350 80 69 77
-326.9274 104.7726 -17.1755 0.919 -0.392 -0.025 109 100 105
-327.1273 106.3519 -17.0709 0.946 -0.251 -0.205 139 130 135
-326.9407 106.9998 -17.0036 0.946 -0.251 -0.205 150 139 143
-327.4871 108.0186 -16.9738 0.871 -0.483 0.088 135 123 127
-328.4592 123.6773 -15.8447 0.821 -0.447 0.355 90 76 76
-327.7848 127.1494 -15.5139 0.767 -0.627 0.133 102 85 91
-327.9718 129.5846 -15.3416 0.841 0.521 0.145 123 106 112
-328.7382 130.8152 -15.3152 0.841 0.521 0.145 97 82 87
-320.3570 145.1217 -13.4458 0.732 0.676 0.090 108 92 93
-343.6620 161.5142 -14.2781 0.653 -0.692 -0.309 108 92 93
-330.9939 161.2849 -13.1510 0.832 0.487 0.266 86 77 82
-326.2108 173.6803 -11.7553 0.865 0.226 0.448 80 69 77
-325.6716 186.0093 -10.7484 0.770 0.605 0.200 61 50 56
-326.0851 188.9330 -10.5586 0.917 -0.297 -0.266 97 86 92
-323.8165 187.9288 -10.4316 0.928 -0.210 -0.308 108 97 103
-326.4913 197.1181 -9.9591 0.864 -0.501 0.054 80 69 75
-324.5002 196.2962 -9.8431 0.851 -0.479 -0.215 69 58 64
-329.9396 212.6584 -9.0630 0.705 -0.393 0.590 85 73 77
-329.1086 212.8197 -8.9754 0.689 -0.380 0.617 91 79 83
-326.8553 211.6883 -8.8597 0.623 -0.368 0.690 93 81 85
-321.0411 217.1162 -7.9123 0.796 -0.604 0.039 72 57 62
-321.3876 237.6330 -6.3491 0.325 -0.845 0.424 98 87 93
-319.4048 237.4534 -6.1839 0.356 -0.679 0.642 69 58 64
-329.7642 274.9182 -4.2084 0.741 -0.274 -0.613 78 76 81
-350.5938 -36.8358 -30.9465 0.050 -0.990 0.133 72 59 66
-349.6565 3.5812 -27.7452 0.435 -0.439 0.786 57 45 57
-352.5825 4.5202 -27.9438 0.504 -0.304 0.808 57 45 55
-366.7636 10.7662 -28.7759 0.442 -0.489 0.752 66 55 61
-343.0462 24.9346 -25.4875 0.292 -0.953 0.085 102 88 101
-356.9598 30.8806 -26.3179 0.728 0.679 -0.093 86 69 85
-353.4757 32.3010 -25.8858 0.445 -0.852 -0.275 81 65 78
-349.2457 36.2815 -25.1873 0.977 -0.102 -0.189 102 86 97
-353.6598 37.9236 -25.4696 0.939 0.157 0.306 79 63 74
-349.4754 41.8880 -24.7766 0.612 -0.744 0.269 128 114 127
-344.9772 42.2178 -24.3345 0.710 -0.471 0.523 127 113 126
-345.0761 42.9313 -24.2887 0.702 -0.397 0.591 116 102 117
-338.7126 50.2520 -23.1352 0.869 0.108 -0.483 87 66 83
-345.5474 55.6481 -23.3524 0.435 0.532 0.727 94 80 93
-329.9027 72.3811 -20.6140 0.378 -0.808 -0.452 93 81 91
-331.7469 88.7808 -19.5211 0.502 -0.787 0.360 116 103 112
-325.4333 101.9385 -17.9224 0.635 -0.772 0.029 157 148 153
-327.5362 106.6632 -17.7531 0.926 -0.282 -0.251 139 130 133
