ply
format ascii 1.0
element vertex 850
property float x
property float y
property float z
property float nx
property float ny
property float nz
property uchar diffuse_red
property uchar diffuse_green
property uchar diffuse_blue
end_header
393.9571 315.1653 -25.9439 -0.953 -0.119 0.277 135 129 155
374.5802 284.6904 -24.1124 -0.802 -0.546 -0.243 58 47 79
382.2245 330.9231 -26.3139 -0.824 -0.529 0.205 52 50 64
374.7526 283.2419 -24.7985 -0.750 -0.589 -0.302 78 69 100
375.2655 282.8892 -24.8241 -0.672 -0.738 -0.062 74 65 96
375.4922 282.3157 -24.8263 -0.766 -0.610 0.201 69 60 91
381.9497 283.5372 -25.2706 -0.714 -0.193 0.673 71 62 93
379.2461 274.9534 -24.9099 0.027 -0.808 -0.588 87 78 107
34.5889 432.4833 -6.8008 -0.661 -0.233 -0.713 45 45 55
235.9051 278.6446 -16.3059 -0.858 -0.353 0.373 38 36 38
271.3748 305.3686 -19.2647 -0.281 -0.300 0.912 45 46 41
394.0609 363.4077 -28.6786 0.425 -0.731 0.534 74 56 80
378.4486 327.3724 -26.7971 -0.866 -0.442 0.233 53 51 64
375.3429 282.8785 -25.5324 -0.672 -0.738 -0.062 113 102 134
375.0634 281.9128 -25.4911 -0.782 -0.597 0.181 107 96 128
382.0619 275.5335 -25.7969 0.100 -0.729 0.677 86 77 106
349.3020 249.6113 -23.0345 -0.095 -0.894 -0.438 84 75 104
351.8022 250.8010 -23.2265 -0.146 -0.881 -0.451 84 75 104
365.7678 285.8843 -25.6813 0.484 -0.870 0.095 92 85 118
389.0914 354.9943 -29.9023 -0.250 -0.871 -0.424 56 51 66
395.2404 326.9469 -29.5203 -0.753 -0.656 -0.044 84 73 103
377.1475 295.8950 -27.4308 0.561 -0.824 0.081 76 69 102
375.2108 284.1432 -26.9687 -0.802 -0.388 0.455 124 115 146
177.4917 127.0986 -9.2922 -0.148 -0.520 0.841 102 93 122
106.9436 285.2199 -9.5557 0.539 -0.811 0.227 95 79 79
250.9595 356.7171 -21.4834 0.717 -0.506 0.479 32 31 36
264.0385 378.9472 -23.0468 0.144 -0.873 0.466 31 30 35
381.4463 326.0495 -29.3779 0.273 -0.937 -0.220 71 67 84
394.8598 326.5428 -30.3007 -0.755 -0.654 -0.044 83 74 103
386.8358 313.2372 -29.3517 -0.883 -0.201 0.424 87 81 107
395.9458 319.1509 -30.1486 0.565 -0.808 0.167 75 69 95
375.5489 283.5793 -27.6829 -0.798 -0.364 0.480 100 89 118
180.3778 129.9415 -9.7869 -0.530 -0.614 0.584 94 84 110
163.6184 452.7457 -19.4298 0.641 -0.765 0.058 48 37 52
274.7993 357.3606 -23.9137 0.125 -0.914 0.385 42 42 44
280.0103 359.7166 -24.3473 -0.615 -0.254 0.747 40 40 42
281.0145 356.9077 -24.3241 -0.677 -0.302 0.671 28 27 32
381.1772 327.6680 -30.2196 0.379 -0.917 -0.125 64 62 75
383.1628 328.5098 -30.3830 0.379 -0.917 -0.125 68 66 79
393.7735 317.2461 -30.7402 0.566 -0.809 0.161 81 75 101
373.8772 292.2817 -28.5617 0.601 -0.795 0.080 75 66 97
340.4887 249.1084 -24.8639 -0.977 -0.211 -0.022 86 80 106
256.6922 311.9113 -21.8704 0.713 -0.453 0.535 37 37 37
391.4841 354.9255 -32.6968 -0.126 -0.325 0.937 56 52 67
381.1999 327.6210 -31.0309 0.354 -0.929 -0.103 64 62 75
383.0580 328.3459 -31.1847 0.354 -0.929 -0.103 69 65 79
381.8307 309.7221 -30.4486 0.480 -0.877 0.009 115 106 133
373.8255 292.1699 -29.2813 0.601 -0.795 0.080 69 60 89
393.9749 297.7770 -30.8709 -0.459 -0.290 0.840 86 72 95
351.8162 244.3613 -26.0875 -0.015 -0.858 0.513 93 80 98
210.9378 450.7086 -24.5185 -0.882 -0.115 0.457 46 43 45
243.2382 407.0064 -25.1511 -0.753 -0.588 -0.295 26 25 31
256.6781 303.6853 -22.2477 0.199 -0.208 0.958 36 36 34
392.3173 394.5353 -35.1089 0.490 -0.407 0.771 45 30 49
391.6003 358.3096 -33.7114 0.349 -0.839 -0.418 65 57 75
382.1186 309.8966 -31.2479 0.478 -0.878 0.011 114 104 131
379.2910 295.7328 -30.5235 0.578 -0.813 0.074 74 64 90
353.9409 252.5831 -27.1464 0.432 -0.900 -0.059 85 79 105
349.9473 244.1815 -26.5548 -0.149 -0.646 0.749 89 76 94
351.4374 244.0300 -26.6533 -0.015 -0.858 0.513 97 84 102
354.9271 245.8665 -26.9655 0.434 -0.895 0.107 96 83 101
156.1116 274.7876 -14.6697 -0.679 -0.672 -0.296 48 49 44
166.7893 302.9965 -16.5362 -0.377 -0.415 0.828 48 50 43
393.1802 394.0934 -36.1230 0.461 -0.399 0.793 36 23 41
381.0890 362.5128 -34.0237 -0.832 -0.354 0.427 55 47 58
383.0228 310.5954 -32.1135 0.431 -0.881 0.195 118 105 131
383.1288 309.8067 -32.0899 0.417 -0.877 0.237 115 102 128
382.2362 308.1779 -31.9626 0.457 -0.877 0.147 111 98 124
375.5932 292.6651 -30.8816 0.587 -0.806 0.076 71 61 85
388.2179 294.7340 -31.8552 -0.770 -0.265 0.580 81 66 89
381.6151 288.7866 -31.1542 -0.732 -0.249 0.634 84 70 93
349.3458 243.6924 -27.0964 -0.149 -0.646 0.749 83 70 88
300.6553 366.1058 -29.3220 -0.396 -0.764 0.509 41 41 39
397.2111 395.7778 -37.4522 0.272 -0.346 0.898 54 39 58
397.7719 395.0585 -37.4623 0.212 -0.328 0.920 54 39 58
397.1830 381.5778 -36.8587 0.503 -0.843 0.191 55 47 58
373.8823 356.1385 -34.1352 0.581 -0.813 0.032 57 47 58
393.1193 339.3245 -34.8083 -0.775 -0.534 -0.338 65 58 74
371.6983 270.1284 -30.3963 0.118 -0.654 0.747 116 110 136
351.3870 245.6668 -27.9270 0.021 -0.821 0.570 78 65 85
161.5566 279.6016 -16.3296 -0.449 -0.889 0.095 59 67 53
195.6868 255.5106 -17.7346 0.566 -0.780 0.267 30 27 34
302.3875 368.5941 -30.3966 -0.201 -0.697 0.688 38 38 36
304.1946 369.7578 -30.5781 0.481 -0.791 0.378 37 37 35
297.9944 291.3896 -26.6909 -0.849 -0.422 -0.317 50 37 57
394.7616 361.2204 -36.7376 0.537 -0.700 -0.471 59 53 67
347.7650 300.2777 -30.6719 0.161 -0.617 0.771 47 40 56
377.5753 308.4347 -33.1807 -0.512 -0.251 0.821 74 61 87
378.2727 305.5492 -33.1044 -0.308 -0.371 0.876 87 74 100
377.9084 304.3814 -33.0268 -0.311 -0.374 0.874 87 74 100
366.8107 280.8209 -31.1920 0.321 -0.727 -0.607 69 57 81
369.5109 279.2014 -31.3157 0.376 -0.560 0.739 77 63 86
370.3092 269.0275 -30.9267 0.162 -0.636 0.755 123 117 143
375.0684 260.9941 -30.9175 0.402 -0.884 0.236 61 48 66
374.8885 259.5656 -30.8418 0.458 -0.840 0.291 63 50 68
188.8729 480.1715 -28.1172 -0.740 -0.566 -0.362 73 78 68
161.5136 279.5658 -16.8684 -0.449 -0.889 0.095 71 79 65
276.5110 361.6033 -29.0360 0.689 -0.480 0.543 46 47 42
315.6235 312.8596 -29.6386 -0.785 -0.615 -0.075 65 54 82
307.5760 302.9136 -28.5931 -0.389 -0.722 -0.572 66 55 87
392.7752 356.9565 -37.2970 -0.136 -0.900 -0.413 50 46 60
377.7845 307.6686 -33.9305 -0.950 -0.310 0.029 71 58 84
377.5859 306.6270 -33.8680 -0.497 -0.254 0.830 84 71 97
377.0309 303.5706 -33.6865 -0.311 -0.374 0.874 81 68 94
364.0683 273.4374 -31.3515 0.483 -0.644 0.593 82 68 91
361.7153 266.6860 -30.8685 0.211 -0.509 0.835 100 89 113
365.0249 267.1001 -31.1288 0.196 -0.657 0.728 110 104 130
392.3839 277.9909 -33.6257 -0.931 -0.364 0.011 126 114 134
376.8214 260.8388 -31.6999 0.456 -0.843 0.284 86 73 91
387.1525 267.3558 -32.7537 -0.640 -0.752 0.159 87 74 92
171.4452 383.0262 -23.1485 -0.945 -0.328 -0.015 78 88 67
243.0736 322.1238 -25.4778 -0.462 -0.681 -0.568 39 39 42
323.6863 361.7861 -33.3332 0.629 -0.631 -0.454 58 48 56
392.9157 387.0161 -39.6522 0.366 -0.253 0.896 53 45 81
340.8318 327.8455 -32.9542 0.322 -0.231 0.918 41 37 51
362.4738 265.8083 -31.5471 0.184 -0.651 0.737 96 91 114
365.3136 264.5038 -31.6932 -0.718 -0.106 0.687 145 139 164
359.3327 255.5072 -30.8175 -0.939 -0.044 0.341 125 119 141
387.5893 267.5833 -33.4827 -0.591 -0.780 0.205 95 82 99
387.6434 266.9479 -33.4559 -0.586 -0.780 0.220 95 82 99
183.7712 490.8012 -30.3047 0.125 -0.985 0.115 78 85 69
170.0086 412.1700 -25.3009 -0.455 -0.392 0.799 80 88 64
243.6627 323.1348 -26.2740 -0.509 -0.647 -0.568 40 39 44
366.8434 351.9797 -36.8984 -0.856 -0.378 0.351 39 36 47
381.1559 362.2745 -38.4842 -0.876 -0.342 0.340 55 49 61
395.7032 341.4094 -38.5104 -0.630 -0.713 -0.307 71 64 80
332.5808 248.9337 -29.1336 0.216 -0.527 0.822 87 73 96
357.3967 263.2857 -31.7063 0.229 -0.670 0.706 82 71 95
361.0684 264.0016 -32.0157 0.144 -0.641 0.754 120 112 135
349.4003 247.0404 -30.2891 -0.954 -0.055 0.293 118 107 124
385.0695 265.7604 -33.8903 -0.616 -0.747 0.251 96 83 100
384.7505 264.8728 -33.8217 -0.620 -0.737 0.268 96 83 100
253.5300 332.8055 -28.2315 0.078 -0.994 -0.075 45 43 44
380.5841 358.1522 -39.1192 -0.567 -0.326 0.756 62 50 60
400.9185 336.9463 -39.5264 -0.833 -0.450 -0.321 80 68 92
375.9079 307.6009 -36.0957 -0.432 -0.749 -0.503 82 69 95
376.3333 307.0906 -36.1007 -0.423 -0.754 -0.502 82 69 95
358.5415 262.7202 -32.4182 0.053 -0.716 0.696 91 83 102
359.8762 262.3646 -32.4997 0.038 -0.729 0.684 98 89 108
355.7063 253.3928 -31.7121 0.364 -0.807 -0.466 130 124 138
39.8616 395.4066 -16.1983 -0.261 -0.857 -0.445 44 43 49
121.4253 395.3089 -22.3837 -0.644 -0.481 -0.596 109 101 99
136.2474 396.1101 -23.5528 0.417 -0.740 -0.527 124 116 118
204.9004 400.9986 -29.0330 -0.271 -0.174 0.947 64 69 62
204.1534 396.1678 -28.7101 -0.805 -0.270 0.528 50 55 48
204.8587 395.6223 -28.7336 -0.786 -0.300 0.540 45 50 44
245.8058 325.4160 -27.9726 -0.577 -0.722 -0.382 40 38 41
253.3846 332.5695 -28.9420 0.085 -0.993 -0.080 36 34 37
258.0323 316.3028 -28.3984 -0.664 0.028 0.748 39 37 38
317.9268 354.2888 -35.0377 0.712 -0.553 0.433 42 37 43
372.3817 356.5183 -39.2938 0.377 -0.818 0.433 36 34 47
378.5034 354.8298 -39.6654 -0.699 -0.221 0.680 57 48 55
385.4182 316.6333 -38.0853 0.162 -0.869 -0.467 82 70 94
357.0363 260.8503 -32.8570 -0.035 -0.707 0.706 100 92 107
360.2280 261.2120 -33.1192 -0.034 -0.714 0.700 86 80 94
362.1581 260.6298 -33.2336 0.366 -0.761 -0.536 78 70 85
126.2654 413.0957 -24.5515 0.203 -0.930 -0.305 84 76 71
204.5711 400.1668 -29.8123 -0.245 -0.161 0.956 68 74 64
204.3618 330.1997 -25.7831 -0.834 -0.290 0.469 24 24 24
240.2977 267.0103 -24.9133 -0.369 -0.738 -0.565 40 41 33
373.6257 355.4537 -40.2063 0.583 -0.812 -0.004 45 41 55
373.5447 354.2274 -40.1297 0.466 -0.881 -0.076 51 45 57
401.3912 340.2306 -41.4614 0.353 -0.460 0.814 81 69 93
388.7970 325.1024 -39.6283 -0.746 -0.652 -0.137 82 70 93
384.6419 306.1621 -38.2234 -0.700 -0.344 0.625 81 67 92
382.4013 300.0843 -37.7031 -0.069 -0.623 0.779 76 64 88
376.5149 283.4740 -36.2992 0.303 -0.558 -0.772 89 74 97
355.2854 262.8493 -33.4889 -0.470 -0.737 -0.486 108 93 116
358.8945 264.2147 -33.8438 -0.002 -0.783 -0.622 110 98 115
361.3432 261.2975 -33.8642 -0.777 -0.616 0.129 93 85 100
349.1371 247.2700 -32.1240 -0.168 -0.769 -0.617 106 94 108
109.6221 430.7172 -25.1347 -0.339 -0.429 0.837 118 111 118
124.1878 435.0727 -26.5218 -0.701 -0.387 0.598 60 52 49
203.6937 397.7173 -30.4494 -0.245 -0.161 0.956 70 78 66
266.0121 355.0292 -32.7286 -0.766 -0.616 -0.184 31 29 34
377.3166 358.0625 -41.5252 0.481 -0.874 -0.068 50 44 56
341.4555 308.3730 -35.7873 -0.855 -0.515 -0.059 51 47 61
400.1441 319.8800 -41.0161 0.597 -0.797 0.091 83 69 92
337.4680 235.3395 -31.1251 0.030 -0.940 0.339 89 76 93
198.4941 387.6342 -30.2649 0.094 -0.503 0.859 70 80 55
202.8280 395.3006 -31.0779 -0.245 -0.161 0.956 70 78 65
259.4440 324.7921 -31.1411 0.143 -0.424 0.894 31 29 30
338.0691 304.0680 -36.0045 -0.816 -0.506 -0.279 55 51 65
355.5629 318.2574 -38.2496 0.507 -0.697 -0.507 61 57 71
376.2592 335.1773 -40.9140 -0.377 -0.910 0.171 43 39 53
375.2093 332.1389 -40.6440 0.043 -0.603 0.797 44 40 54
361.9849 317.6622 -38.7147 -0.549 -0.763 -0.342 46 40 54
354.0465 306.5150 -37.4047 0.521 -0.532 0.668 60 51 68
399.5453 327.6683 -42.2695 -0.525 -0.765 -0.374 74 60 83
389.0444 312.3143 -40.4989 0.625 -0.778 0.072 81 67 90
361.4684 267.4124 -35.5657 0.209 -0.662 0.720 109 94 117
366.9352 259.2523 -35.4882 0.040 -0.855 -0.518 95 82 99
205.5399 392.9695 -31.9829 -0.190 -0.399 0.897 39 43 53
192.5114 338.5308 -27.4641 -0.544 -0.201 0.815 32 32 40
235.6414 410.6856 -35.4944 0.360 -0.844 -0.398 33 33 33
233.8528 359.6223 -32.0790 -0.850 -0.462 0.255 27 25 30
298.4486 329.1481 -35.2226 0.649 -0.735 -0.194 44 39 45
302.8803 333.6424 -35.8605 0.656 -0.730 -0.190 43 38 44
373.1301 357.0632 -42.9062 -0.938 -0.318 0.141 36 33 44
337.8986 304.7678 -36.7726 -0.816 -0.506 -0.279 88 85 96
377.3613 336.1663 -41.9001 -0.824 -0.565 0.040 44 41 52
356.7594 308.9725 -38.5306 -0.733 -0.680 -0.010 63 55 70
358.1076 308.3936 -38.5999 0.567 -0.735 0.372 72 64 79
379.4731 313.0116 -40.5821 -0.695 -0.719 -0.037 73 61 81
389.0517 312.2473 -41.2890 0.625 -0.778 0.072 81 67 90
382.5311 302.4922 -40.1489 -0.883 -0.216 0.418 85 73 97
369.1014 286.6457 -38.0730 0.466 -0.841 0.273 84 72 96
376.1133 289.9171 -38.8361 0.325 -0.647 0.690 85 72 98
391.7775 280.5595 -39.4722 0.279 -0.868 -0.411 94 86 101
367.3072 258.7921 -36.1454 -0.442 -0.814 -0.377 108 95 112
123.9396 444.8299 -29.7624 -0.928 0.074 0.365 54 46 43
120.4112 388.7892 -25.7612 0.512 -0.819 -0.259 65 57 54
121.9385 396.8366 -26.4171 0.402 -0.834 -0.376 83 73 71
193.2504 340.6174 -28.3668 -0.537 -0.199 0.820 31 31 39
253.4996 443.2768 -39.9816 -0.720 -0.445 0.533 53 53 53
296.7021 326.8762 -35.6969 0.632 -0.746 -0.212 50 45 51
338.0821 304.8926 -37.5344 -0.816 -0.506 -0.279 104 101 112
356.9285 307.2446 -39.1921 0.504 -0.793 0.342 76 68 83
389.3681 334.1107 -43.5600 0.344 -0.319 0.883 76 68 83
295.0128 240.7948 -29.8481 -0.441 -0.728 -0.526 67 58 75
387.2133 310.6315 -41.8298 0.617 -0.787 0.002 82 68 91
366.8356 284.7470 -38.4880 0.411 -0.843 0.346 98 86 110
361.5263 268.0204 -36.9547 0.241 -0.666 0.706 97 82 105
373.8946 275.9791 -38.4684 0.071 -0.879 -0.472 97 84 103
363.9706 267.0735 -37.0866 0.069 -0.675 0.734 91 80 96
379.5397 272.2935 -38.6735 0.312 -0.867 -0.389 91 83 98
371.8253 262.6064 -37.4158 -0.489 -0.780 -0.390 119 106 123
227.0150 394.6553 -35.5031 -0.691 -0.647 0.321 32 32 34
255.0206 446.9121 -41.3426 -0.708 -0.526 0.471 60 60 60
237.9254 355.6743 -33.7049 -0.862 -0.484 0.150 21 18 25
366.4330 384.5031 -46.0195 -0.850 -0.526 -0.016 45 40 46
365.3406 381.8904 -45.7523 -0.835 -0.550 -0.020 32 31 39
363.9148 313.6180 -40.9512 -0.726 -0.618 -0.302 67 59 74
354.4906 304.0403 -39.5358 0.059 -0.833 0.550 66 58 73
389.6283 323.5786 -43.7030 0.412 -0.481 0.774 66 57 74
377.8331 312.3470 -41.9834 -0.316 -0.278 0.907 68 59 76
372.4229 286.0474 -39.7430 -0.872 -0.475 0.114 88 76 100
374.1134 276.0729 -39.1943 -0.003 -0.650 0.760 97 84 103
363.7908 267.5660 -37.7801 0.082 -0.638 0.765 86 75 92
366.7282 258.8929 -37.4210 -0.727 -0.679 -0.098 119 106 123
364.9045 256.9399 -37.1403 -0.492 -0.771 -0.403 118 105 122
107.2298 394.5385 -26.6299 -0.265 -0.696 -0.667 62 59 59
108.2850 400.1593 -27.1141 -0.173 -0.848 -0.501 58 55 53
110.2255 372.2195 -25.2906 -0.524 0.043 0.851 72 67 73
123.9056 456.6435 -32.3874 -0.936 0.066 0.347 70 66 66
152.9028 397.8966 -30.5761 -0.227 -0.850 -0.475 94 97 76
153.7691 385.6624 -29.7789 -0.042 -0.072 0.997 98 101 80
172.8338 431.2358 -34.5582 0.438 -0.899 -0.024 89 94 73
257.7372 450.7779 -42.8368 -0.716 -0.591 0.372 58 58 58
261.2327 456.2958 -43.5119 0.569 -0.429 0.701 52 52 52
365.7652 383.6736 -46.8491 -0.845 -0.534 -0.027 44 43 46
375.8389 387.2543 -47.9209 -0.343 -0.458 0.820 34 34 42
344.3114 312.8045 -40.0822 0.541 -0.752 -0.376 56 53 64
349.8758 314.4272 -40.6491 -0.820 -0.504 0.273 74 71 82
363.7451 313.3976 -41.7020 -0.723 -0.620 -0.306 55 47 62
353.8611 303.4007 -40.1908 0.068 -0.840 0.539 55 47 62
356.5627 304.0879 -40.4588 0.045 -0.856 0.515 54 46 61
393.4319 313.0217 -44.0856 -0.592 -0.806 -0.011 81 67 90
362.9953 280.7461 -39.3260 -0.759 -0.635 -0.144 82 70 94
360.9338 278.3332 -38.9875 -0.681 -0.729 0.068 77 65 89
362.1564 278.5580 -39.1027 -0.507 -0.800 0.319 80 68 92
364.6583 277.5454 -39.2340 0.079 -0.742 0.666 79 64 87
368.0626 278.7248 -39.5940 0.152 -0.661 0.735 79 64 87
371.7707 278.6250 -39.8880 -0.816 -0.290 0.501 96 81 104
361.2961 265.6172 -38.1152 0.263 -0.713 0.650 80 69 86
360.8332 264.5791 -38.0041 0.083 -0.720 0.689 79 71 86
355.9701 259.5826 -37.2550 -0.627 -0.553 -0.549 78 70 85
357.8233 260.2927 -37.4558 -0.743 -0.471 -0.476 77 69 84
154.3173 410.3089 -32.4123 0.004 -0.770 -0.638 92 93 76
243.7392 400.5379 -39.0250 -0.866 -0.500 0.020 44 43 48
261.7242 399.0797 -40.3921 -0.875 -0.482 0.049 21 19 24
243.4048 359.6337 -36.0045 -0.765 -0.381 0.519 22 21 26
290.1268 349.3102 -39.0777 -0.231 -0.702 0.674 34 34 34
375.0991 387.6982 -48.8497 -0.351 -0.323 0.879 40 39 47
377.6788 389.2982 -49.1782 -0.347 -0.318 0.882 35 35 43
371.9291 354.4206 -46.1549 0.249 -0.869 0.428 33 33 41
353.1995 300.9624 -40.7084 0.361 -0.610 0.705 52 44 59
361.6698 306.8690 -41.8347 -0.181 -0.905 0.385 51 42 59
362.4642 306.6883 -41.8866 -0.181 -0.905 0.385 51 42 59
393.8877 333.0033 -46.3871 0.128 -0.878 0.461 51 42 59
366.8227 291.6846 -41.1459 -0.743 -0.500 -0.445 81 67 90
394.1404 313.5348 -44.9833 -0.571 -0.821 0.007 80 66 89
383.5358 303.8824 -43.4080 -0.671 -0.723 -0.162 78 66 90
365.1908 283.2140 -40.3923 0.390 -0.852 0.350 79 67 91
363.1108 280.7710 -40.0431 -0.759 -0.635 -0.144 72 60 84
360.9355 278.2671 -39.6816 -0.681 -0.729 0.068 72 60 84
361.4393 277.9177 -39.6974 -0.685 -0.725 0.073 77 67 91
361.9159 277.5475 -39.7093 -0.080 -0.956 0.284 90 78 102
361.7571 276.6747 -39.6324 -0.070 -0.971 0.229 97 85 107
362.0533 276.1658 -39.6195 -0.200 -0.940 0.278 96 82 105
362.3459 275.6559 -39.6061 -0.515 -0.857 0.028 96 83 103
362.8774 275.3357 -39.6263 -0.515 -0.857 0.028 95 80 101
363.8045 275.3253 -39.7015 0.152 -0.680 0.717 92 77 98
371.8998 277.9121 -40.5541 -0.821 -0.297 0.488 80 67 87
195.6947 322.3576 -30.0413 0.110 -0.896 -0.431 42 42 42
236.7375 411.3951 -40.1529 -0.348 -0.861 -0.370 35 35 35
257.4125 442.6916 -44.2239 0.643 -0.435 0.631 27 27 27
243.0555 403.4016 -40.0724 -0.392 -0.854 -0.343 27 27 29
284.7773 351.1033 -39.5774 0.258 -0.593 0.762 29 29 31
254.3123 266.8936 -30.7049 -0.827 -0.463 0.320 45 47 44
375.7432 391.0960 -50.1178 -0.190 -0.492 0.849 43 43 51
342.3813 328.8676 -42.6640 0.691 -0.723 -0.018 33 30 39
390.9646 354.3117 -48.6016 -0.829 -0.556 -0.062 51 48 59
394.7845 341.8415 -47.9767 0.248 -0.740 0.626 52 44 59
373.6055 310.2434 -43.8413 0.038 -0.756 -0.653 54 45 62
364.9436 282.9462 -41.0656 0.371 -0.845 0.386 71 59 83
361.1574 278.3773 -40.4077 -0.671 -0.738 0.068 69 57 80
361.4380 277.8490 -40.3911 -0.685 -0.725 0.073 77 67 90
361.4227 277.0874 -40.3324 -0.068 -0.955 0.289 90 78 100
361.3199 276.2603 -40.2615 -0.079 -0.966 0.245 102 90 112
361.2911 275.4957 -40.2014 -0.526 -0.850 -0.021 115 103 123
361.8165 275.1711 -40.2204 -0.526 -0.850 -0.021 113 100 120
362.3414 274.8468 -40.2393 -0.526 -0.850 -0.021 109 97 117
239.9352 412.0465 -41.3786 -0.453 -0.768 -0.452 36 38 37
259.5718 442.7505 -45.4037 -0.081 -0.513 0.855 24 24 24
224.4546 350.8455 -35.3304 -0.531 -0.712 -0.459 21 20 26
292.2865 353.7612 -41.2185 0.450 -0.324 0.832 39 39 41
288.0384 346.2758 -40.2822 -0.327 -0.711 0.622 36 34 35
252.5003 267.2766 -31.1767 -0.670 -0.370 0.644 53 58 54
250.7454 264.1662 -30.7885 -0.697 -0.346 0.628 43 48 44
372.4715 392.7407 -50.9403 -0.670 -0.723 -0.169 47 46 51
372.7031 386.1897 -50.4505 -0.538 -0.533 0.653 49 49 59
375.3110 386.4929 -50.6917 0.431 -0.897 -0.096 40 40 49
359.9177 345.1477 -46.1939 0.685 -0.726 -0.066 41 40 48
387.1867 350.5668 -48.8910 -0.844 -0.536 -0.028 46 43 54
389.3334 326.8494 -47.2270 -0.012 -0.935 -0.355 45 36 53
369.1580 296.8042 -43.2081 -0.149 -0.468 0.871 67 56 74
386.6460 306.3070 -45.4062 -0.750 -0.658 -0.067 70 58 80
364.3550 282.4032 -41.6881 0.371 -0.845 0.386 57 48 68
363.4814 279.4114 -41.3827 -0.529 -0.834 0.157 70 61 81
361.6158 277.1731 -41.0530 -0.080 -0.956 0.284 74 65 84
361.5935 276.4092 -40.9918 -0.359 -0.811 -0.462 97 88 105
362.2107 276.1539 -41.0235 -0.359 -0.811 -0.462 128 119 136
362.9879 275.2854 -41.0208 -0.567 -0.824 -0.004 116 106 123
72.8782 360.2327 -24.0769 0.350 -0.936 -0.027 60 59 65
242.5619 365.0729 -38.7556 -0.861 -0.481 0.166 19 20 24
233.9466 341.3626 -36.1334 -0.564 -0.825 0.023 20 19 25
224.1572 319.3700 -33.5498 -0.524 -0.184 0.832 20 19 25
220.0264 305.8268 -32.1186 -0.771 -0.421 0.477 19 18 25
279.0847 406.9196 -45.1789 -0.615 -0.787 0.049 19 18 26
234.7106 290.8813 -32.1599 -0.315 -0.494 -0.811 57 61 60
278.9126 326.8481 -38.7597 0.399 -0.883 0.249 39 38 34
251.3345 265.7762 -31.5519 -0.668 -0.383 0.638 60 65 61
249.7055 261.9550 -31.1091 -0.697 -0.440 0.566 62 64 61
374.3938 388.0797 -51.6994 -0.542 -0.536 0.647 54 54 62
278.8871 268.8277 -34.1166 -0.679 -0.727 -0.105 40 38 59
277.8871 266.8982 -33.8781 -0.599 -0.800 -0.027 37 35 55
312.6170 299.1073 -39.3795 0.711 -0.688 0.146 43 41 52
361.3663 346.6140 -47.2854 0.685 -0.726 -0.066 43 42 50
368.9677 351.1649 -48.2896 -0.023 -0.996 0.089 43 41 52
374.7313 339.4341 -47.8367 -0.669 -0.739 -0.079 41 38 49
377.1693 301.7811 -45.0303 -0.660 -0.748 0.072 85 74 90
380.0698 302.4980 -45.3319 -0.696 -0.683 0.221 90 79 96
386.5799 305.3190 -46.1059 -0.800 -0.306 0.516 66 54 76
368.8785 288.3480 -43.2575 -0.980 -0.179 -0.090 65 56 75
363.7685 281.8622 -42.3083 0.371 -0.845 0.386 57 48 67
364.3163 280.0091 -42.2063 -0.535 -0.788 0.304 67 58 77
364.3525 279.2804 -42.1510 -0.542 -0.778 0.316 68 59 78
57.9934 313.3516 -19.6241 -0.962 -0.215 -0.169 65 64 71
71.9451 364.0991 -24.9845 -0.920 -0.279 -0.274 50 49 55
72.0568 398.5476 -27.8279 -0.008 -0.796 -0.605 66 75 64
71.3818 442.4359 -31.3809 0.269 -0.776 -0.571 64 77 59
125.9444 352.3748 -28.6092 -0.242 -0.797 -0.553 85 80 77
181.2595 324.2852 -30.9995 -0.758 -0.082 0.647 51 54 46
239.3132 360.4041 -38.9045 -0.653 -0.749 0.116 17 21 24
229.5217 334.3719 -35.9309 -0.953 -0.264 0.146 19 20 24
237.6392 342.0677 -37.2538 -0.819 -0.409 0.403 19 18 24
229.5584 325.2271 -35.1817 -0.623 -0.514 0.589 19 18 24
234.1315 291.1160 -32.7642 -0.312 -0.487 -0.816 57 59 56
235.6727 292.4044 -33.0012 -0.315 -0.491 -0.812 55 59 58
243.8135 300.4797 -34.3574 0.649 -0.673 0.355 39 39 39
286.8151 344.4857 -41.6320 -0.332 -0.715 0.616 32 32 34
328.4884 342.2401 -44.9890 -0.530 -0.544 -0.650 59 59 61
373.9883 386.2163 -52.4735 0.039 -0.986 -0.161 58 58 66
282.9123 270.6654 -35.2276 0.717 -0.656 0.235 43 42 59
290.6832 278.2247 -36.5099 0.713 -0.661 0.232 43 42 59
311.1560 297.5016 -39.8356 0.711 -0.688 0.146 49 47 58
361.2123 278.2182 -42.5033 0.492 -0.795 0.356 63 54 73
364.6203 272.7620 -42.3441 -0.307 -0.669 0.677 97 88 105
383.0576 262.6543 -43.0795 -0.740 -0.410 0.533 107 99 123
59.3159 306.0281 -19.6698 -0.975 -0.189 -0.120 51 52 56
129.0256 307.3936 -25.7627 0.143 -0.989 0.041 82 78 75
168.3955 302.2660 -28.7051 0.572 -0.705 0.420 59 70 54
214.4868 375.4305 -38.8429 -0.793 -0.132 0.595 29 31 28
204.0370 337.4970 -34.7399 -0.440 -0.819 -0.369 41 43 40
223.8745 366.6786 -38.9080 -0.500 -0.807 -0.314 26 26 26
240.2501 297.2791 -34.4450 -0.218 -0.499 -0.839 38 40 39
278.7227 326.5460 -40.2182 0.205 -0.824 0.529 39 38 36
297.2408 301.3625 -39.6771 0.096 -0.948 -0.302 65 66 72
331.9617 339.2491 -45.8574 -0.630 -0.532 0.566 63 66 72
375.4385 387.8220 -53.6919 -0.647 -0.173 0.742 63 64 70
375.7617 386.8462 -53.6371 -0.647 -0.173 0.742 56 57 63
353.5098 356.6182 -49.1735 -0.033 -0.999 0.037 56 56 66
296.0594 283.1028 -38.0320 0.694 -0.659 0.289 47 47 58
369.7950 351.9057 -50.1715 0.072 -0.995 -0.073 43 44 48
363.8561 276.5018 -43.2874 -0.381 -0.797 -0.469 62 53 70
362.7910 274.9256 -43.0628 -0.581 -0.814 -0.003 68 59 76
391.1894 274.4097 -45.4543 -0.531 -0.087 0.843 107 99 122
377.7010 264.1861 -43.4334 -0.647 -0.144 0.749 108 100 123
71.9580 383.7837 -28.0508 0.298 -0.948 -0.116 64 65 65
127.9519 408.6459 -35.0535 -0.978 0.103 0.181 61 58 53
128.6559 305.4156 -26.1516 -0.416 -0.591 -0.691 94 90 87
167.9470 301.0003 -29.1674 0.575 -0.703 0.419 64 75 59
186.0322 347.0290 -34.7284 -0.601 -0.175 0.780 68 73 66
179.4151 319.1908 -31.7389 -0.812 -0.094 0.576 68 71 64
225.4267 378.4661 -40.8659 -0.200 -0.960 -0.196 36 37 39
219.0344 322.9992 -35.4971 0.838 -0.523 0.157 28 27 33
258.0900 361.9885 -42.2611 -0.882 -0.181 0.435 35 32 40
206.9028 198.4509 -23.6338 0.346 -0.937 -0.053 68 70 67
223.5023 214.6779 -26.4788 -0.773 -0.386 0.504 66 70 71
292.8582 279.6167 -38.1171 0.718 -0.667 0.199 56 60 61
357.2211 344.3200 -49.3030 0.593 -0.801 0.079 59 61 61
365.0139 350.2756 -50.4943 -0.599 -0.612 0.516 51 53 53
369.4549 351.4931 -50.9842 -0.576 -0.614 0.540 48 50 50
367.5114 348.3472 -50.5429 -0.604 -0.589 0.536 48 49 50
355.6678 322.6194 -47.2845 -0.562 -0.632 0.533 41 40 45
354.1279 320.1149 -46.9338 -0.709 -0.576 0.407 42 41 46
394.1201 278.5647 -46.7861 0.174 -0.331 0.927 122 114 137
391.4005 275.9046 -46.3199 0.141 -0.286 0.948 119 111 134
377.0302 263.6392 -44.0117 -0.644 -0.143 0.752 103 95 118
27.8832 473.5116 -32.9236 -0.609 -0.778 -0.157 113 104 132
108.6411 280.1704 -22.7437 -0.883 0.069 0.464 60 59 54
125.2392 378.1097 -32.9194 -0.986 0.094 0.135 43 40 35
129.9221 306.2919 -26.9286 0.215 -0.969 -0.126 98 93 89
151.4820 347.7831 -32.5075 -0.726 -0.555 -0.405 93 91 74
192.7013 297.3535 -31.6113 -0.854 -0.499 0.146 47 48 50
218.0784 310.6539 -35.0112 -0.720 -0.532 0.445 40 39 44
267.4532 368.6350 -44.4870 -0.403 -0.762 -0.506 41 38 48
258.6731 351.8974 -42.2293 -0.812 -0.559 -0.168 40 38 48
237.0954 297.0220 -35.4563 0.418 -0.813 0.406 26 28 27
240.5658 300.1525 -36.0381 -0.209 -0.477 -0.854 24 26 25
362.7552 350.1235 -51.1550 -0.592 -0.610 0.527 57 62 58
363.2194 349.4705 -51.1374 -0.599 -0.606 0.523 57 62 58
368.7955 350.7492 -51.7380 -0.568 -0.629 0.531 51 56 52
297.6548 272.7269 -38.5767 -0.697 -0.711 0.093 56 55 60
199.5584 167.0145 -20.5956 0.405 -0.778 -0.481 50 49 54
363.8780 296.1724 -46.4456 -0.102 -0.842 -0.530 57 49 64
367.9942 280.3719 -45.3969 -0.670 -0.699 0.249 62 53 70
365.4652 276.1394 -44.7990 -0.508 -0.831 0.228 63 54 71
134.6706 339.5590 -30.9791 -0.081 -0.693 -0.716 102 97 94
215.5502 404.5636 -44.0408 -0.808 -0.099 0.581 81 84 68
224.8283 363.1590 -41.0735 -0.590 -0.573 -0.569 55 57 54
210.8136 317.0198 -35.6229 -0.883 -0.438 -0.170 53 55 58
217.5688 308.2621 -35.4172 -0.627 -0.391 0.674 43 46 48
221.6122 284.5700 -33.6079 -0.081 -0.808 -0.584 38 40 41
260.2549 327.3172 -40.9168 -0.401 -0.906 -0.136 33 38 34
239.3044 287.8098 -35.4616 -0.409 -0.421 -0.810 28 31 27
239.5044 287.0078 -35.4059 -0.414 -0.418 -0.809 28 31 27
188.6158 172.7277 -20.4812 -0.419 -0.554 -0.720 68 77 59
363.2912 348.3510 -51.9105 -0.687 -0.478 0.547 57 62 58
366.6818 349.6279 -52.3257 -0.886 -0.423 0.191 57 62 58
367.8379 349.6960 -52.4338 -0.581 -0.620 0.528 57 62 58
363.7091 296.8051 -47.2364 0.104 -0.734 -0.671 59 51 64
355.8982 287.6348 -45.7106 -0.283 -0.446 0.849 71 63 76
356.3161 287.1816 -45.7060 -0.202 -0.522 0.829 73 65 78
335.0548 242.8064 -39.7785 -0.406 -0.399 0.822 70 63 81
50.5613 338.6324 -24.0953 -0.954 -0.183 -0.239 95 90 95
59.2118 312.4237 -22.4083 0.017 -0.948 -0.318 57 61 60
111.0516 409.6055 -36.1161 -0.263 -0.592 0.762 89 92 85
138.0254 325.0976 -30.5947 0.003 -0.943 0.332 76 74 58
232.5015 404.2790 -46.4026 -0.839 -0.283 0.464 68 74 65
227.8626 366.0935 -42.4134 -0.417 -0.605 -0.678 58 62 57
209.6805 314.6682 -35.9811 -0.873 -0.431 -0.229 54 61 58
244.5109 367.3760 -44.0120 -0.624 -0.636 0.454 45 54 48
216.7331 306.6737 -35.8585 -0.854 -0.264 0.448 44 51 48
221.8794 309.4386 -36.5745 0.572 -0.786 -0.234 45 51 44
208.4004 279.1839 -32.5432 -0.870 -0.491 -0.042 52 58 50
279.3589 394.5773 -49.6550 -0.639 -0.268 0.721 52 56 50
162.8728 140.9984 -15.5546 -0.785 -0.614 -0.079 70 75 69
272.9903 259.7160 -36.4554 0.666 -0.669 0.330 70 75 69
362.2508 343.8395 -52.2631 -0.728 -0.616 0.301 61 66 62
383.9441 363.9655 -56.0750 -0.290 -0.579 0.762 59 60 62
383.0027 361.8187 -55.7903 -0.708 -0.620 0.338 56 57 62
372.2384 297.2339 -48.7840 -0.606 -0.467 0.643 75 67 80
364.5768 278.2910 -46.3290 -0.033 -0.816 0.578 63 54 71
363.6075 276.7762 -46.1010 -0.137 -0.805 0.578 62 53 70
361.6126 274.4650 -45.7073 -0.373 -0.818 0.437 62 53 70
361.3590 273.5306 -45.5972 -0.486 -0.676 0.555 62 53 70
361.4149 272.8425 -45.5377 -0.479 -0.685 0.549 62 53 70
58.4602 341.2171 -25.6574 -0.874 -0.170 -0.455 38 39 43
120.2819 470.5947 -43.6117 0.339 -0.621 0.707 61 59 64
143.5579 344.2350 -33.5695 0.581 -0.757 -0.300 87 86 67
154.2812 379.8954 -37.9525 -0.390 -0.875 -0.288 105 108 86
155.9287 384.0779 -38.5014 -0.456 -0.846 -0.277 115 120 94
224.3369 354.6445 -41.8041 -0.401 -0.518 -0.755 60 71 59
218.6865 337.1186 -39.6160 -0.753 -0.522 -0.401 56 69 55
239.3785 360.7653 -43.7389 0.807 -0.580 0.111 48 62 45
245.0028 351.2521 -43.3297 0.833 -0.554 -0.008 50 60 47
279.8333 393.6334 -50.5170 -0.575 -0.365 0.732 50 58 47
284.4880 399.9498 -51.5401 -0.751 -0.302 0.588 46 54 43
169.6991 170.8351 -19.2694 0.390 -0.909 -0.145 47 54 46
350.2935 332.4421 -50.9556 -0.635 -0.490 0.597 64 70 66
384.5317 364.5071 -57.0997 -0.632 -0.575 0.519 70 72 71
366.5718 331.0276 -52.2779 -0.610 -0.782 0.128 56 55 60
367.4898 329.8708 -52.2491 -0.777 -0.624 -0.089 56 55 60
345.7573 307.8996 -48.1939 0.099 -0.356 0.929 56 55 60
377.7990 335.6632 -53.7285 0.516 -0.467 0.718 53 52 57
359.1176 291.8921 -47.8543 -0.264 -0.771 -0.579 64 56 69
346.0515 277.5737 -45.3098 -0.548 -0.532 0.645 75 67 79
46.6455 321.8134 -23.3026 -0.885 -0.141 0.444 69 63 101
42.6840 384.2887 -29.0839 0.505 -0.754 0.421 88 82 97
150.8319 363.2019 -36.7819 -0.619 0.058 0.783 101 104 82
148.3811 344.2100 -34.6942 -0.848 -0.521 -0.098 107 113 85
220.6163 375.8921 -44.3332 -0.882 -0.084 0.463 72 87 66
232.2563 348.2439 -42.6679 0.795 -0.606 0.034 55 70 51
235.3941 352.8292 -43.4019 0.792 -0.609 0.046 55 70 51
221.3766 275.1141 -34.4988 -0.423 -0.771 -0.476 47 59 49
224.5157 279.0974 -35.1739 -0.121 -0.726 -0.677 47 59 49
237.7881 289.9574 -37.4400 -0.814 -0.562 0.148 47 54 46
184.3008 194.5201 -23.2298 0.665 -0.608 0.434 35 42 35
169.6501 170.7592 -19.5714 0.370 -0.913 -0.173 45 55 44
306.6841 346.7952 -49.2493 0.325 -0.887 0.328 54 64 53
343.5490 305.7127 -48.5427 -0.699 -0.679 0.224 58 57 62
382.0890 338.6385 -55.2599 0.523 -0.479 0.705 44 43 48
363.6141 270.7823 -46.9229 0.287 -0.896 -0.339 61 55 69
369.4897 274.5504 -47.8240 -0.302 -0.822 -0.482 59 53 67
360.6868 266.4222 -46.2300 -0.725 -0.666 0.174 57 51 65
33.8258 373.5938 -27.9080 0.360 -0.484 0.798 61 60 73
61.1013 347.0156 -27.7202 -0.988 -0.134 -0.074 24 28 29
116.5211 412.2016 -39.3246 0.495 -0.765 0.411 56 54 55
125.0585 416.9095 -40.5759 0.046 -0.217 0.975 70 65 69
122.1139 336.1010 -32.1814 -0.981 -0.169 0.090 93 83 91
141.1219 412.4111 -41.5870 0.416 -0.823 0.386 91 85 85
138.3329 359.3080 -35.9928 -0.977 -0.076 0.198 110 107 98
138.0134 348.8576 -34.9128 -0.715 0.147 0.683 109 112 95
229.4228 342.5764 -42.6093 0.791 -0.611 -0.019 61 76 57
230.9129 343.8967 -42.8778 0.791 -0.610 -0.047 60 75 56
233.0582 346.5024 -43.3353 -0.577 -0.688 0.440 60 75 56
236.3099 351.2634 -44.1103 -0.969 -0.242 0.054 60 75 56
244.8797 351.0725 -44.8719 0.728 -0.663 -0.174 52 63 49
291.4530 413.9854 -55.4417 0.724 -0.372 0.581 53 61 50
218.7283 272.9805 -34.6362 -0.747 -0.423 -0.512 56 66 55
221.0508 274.5865 -35.0093 -0.434 -0.778 -0.454 49 61 51
232.7177 281.0270 -36.7200 -0.624 -0.780 -0.057 51 58 50
302.4277 344.9762 -49.5019 0.638 -0.734 -0.233 54 64 53
290.8009 323.4948 -46.2824 -0.004 -0.999 0.042 56 67 53
363.1889 341.3222 -54.6703 -0.730 -0.637 0.247 74 73 78
302.5660 274.9886 -42.4765 -0.950 -0.311 -0.005 73 73 77
296.3250 265.5361 -40.9573 0.470 -0.883 0.009 74 73 78
340.6637 302.8742 -48.7517 -0.639 -0.702 0.316 78 77 82
378.1102 335.8273 -55.4772 -0.316 -0.733 0.602 57 56 61
370.5417 327.6094 -53.9612 0.523 -0.485 0.701 52 51 56
356.6884 273.3239 -47.2400 -0.858 -0.490 0.151 59 59 64
355.2325 269.2553 -46.6983 -0.732 -0.660 -0.168 86 83 94
356.3472 269.4078 -46.8152 -0.848 -0.524 0.083 88 85 96
355.5240 268.0481 -46.6034 -0.850 -0.519 0.086 81 79 90
127.2859 458.5748 -45.9119 -0.988 -0.153 -0.002 59 54 58
123.8115 397.4225 -39.3026 0.316 -0.350 0.882 81 75 79
121.5574 343.1002 -33.5079 -0.952 0.097 0.290 75 65 73
175.6928 305.3654 -34.6003 -0.394 -0.911 -0.119 76 90 65
219.2283 336.7082 -41.8241 0.674 -0.738 -0.027 73 87 72
236.7910 350.5514 -44.8616 -0.939 -0.318 0.133 67 81 66
201.4245 259.7610 -32.2736 0.043 -0.989 0.139 57 65 52
219.3161 272.8542 -35.2642 -0.374 -0.792 -0.482 57 67 58
220.7657 274.1248 -35.5281 -0.490 -0.713 -0.501 52 64 54
222.5552 275.9302 -35.8782 -0.511 -0.645 -0.568 52 64 54
230.7935 276.9949 -36.7446 -0.602 -0.724 -0.336 56 63 55
233.0226 277.2004 -36.9705 -0.701 -0.707 0.088 56 63 55
180.8259 189.0027 -23.1029 0.631 -0.643 0.435 58 60 55
247.9534 261.2607 -36.7028 -0.404 -0.508 -0.760 67 78 64
240.8361 248.9472 -34.7823 -0.070 -0.906 -0.418 71 79 66
337.5288 299.7965 -48.8965 0.670 -0.690 0.275 95 97 98
381.8869 340.4115 -57.1496 -0.296 -0.425 0.855 78 79 81
378.8365 329.3197 -55.7284 0.531 -0.518 0.671 45 46 50
356.5505 268.7804 -47.4538 -0.852 -0.519 -0.065 89 87 98
356.7726 267.5245 -47.3451 0.344 -0.853 -0.392 70 67 78
357.0558 267.0335 -47.3206 0.403 -0.841 -0.361 57 54 65
346.1265 253.2770 -44.9014 -0.713 -0.697 0.076 76 69 87
76.5985 384.3364 -34.3531 -0.918 -0.015 0.396 86 91 85
147.3299 350.3127 -37.3282 -0.642 0.038 0.766 73 72 52
222.5013 338.5565 -43.0563 0.679 -0.732 -0.051 74 88 73
243.5372 358.6265 -47.1157 -0.758 -0.397 -0.517 73 87 74
223.5412 277.5254 -36.7346 -0.483 -0.660 -0.575 56 68 58
230.8178 277.0270 -37.3563 0.695 -0.686 -0.214 63 68 61
284.9608 340.3394 -49.0304 -0.901 -0.179 0.395 61 66 62
300.3866 253.5885 -41.3368 -0.854 -0.508 -0.111 58 60 60
335.5154 263.3360 -45.6164 0.458 -0.499 0.736 48 49 53
356.6138 268.7623 -48.1418 -0.852 -0.519 -0.065 85 81 95
355.4567 262.9438 -47.4227 -0.949 -0.301 -0.093 82 79 90
353.4417 260.7284 -47.0030 -0.890 -0.441 -0.114 86 82 96
112.6137 364.3279 -36.3025 0.358 -0.726 0.587 47 45 48
244.7408 360.9858 -48.2862 -0.755 -0.406 -0.515 73 87 74
236.7746 343.9474 -45.7111 -0.944 -0.315 -0.098 73 87 74
220.3231 268.0736 -36.0206 0.730 -0.663 -0.166 63 75 65
329.7870 416.0966 -62.1534 -0.534 -0.355 0.767 65 72 65
272.9335 320.6655 -46.5870 -0.137 -0.626 -0.768 66 73 65
269.2570 314.2664 -45.5559 -0.173 -0.678 -0.715 66 72 64
252.1501 283.8472 -40.6888 0.038 -0.963 -0.266 69 77 65
354.7950 307.8050 -52.8522 0.143 -0.482 0.864 64 66 65
349.4597 300.1504 -51.5312 0.219 -0.483 0.847 64 66 63
357.6225 268.0461 -48.8437 -0.750 -0.656 -0.084 56 53 64
350.3535 256.9807 -46.9756 -0.802 -0.592 -0.082 109 101 121
24.4157 444.3126 -37.4926 0.473 -0.843 -0.255 75 74 93
81.5130 328.3123 -30.1373 -0.372 -0.693 -0.617 77 77 75
104.1324 335.5909 -33.0668 0.350 -0.640 0.684 69 71 68
106.9440 340.9352 -33.9182 0.029 -0.578 0.816 54 55 50
107.9026 345.9652 -34.5606 -0.190 -0.399 0.897 59 59 57
214.0647 293.5913 -38.8109 -0.681 -0.556 -0.476 77 89 75
217.0178 296.4479 -39.4026 -0.746 -0.559 -0.363 79 87 72
214.9364 291.3113 -38.6427 -0.764 -0.444 -0.467 77 88 72
156.1556 171.3997 -19.9437 0.626 -0.779 -0.013 62 73 59
221.7025 274.5551 -37.4407 -0.825 -0.327 -0.461 67 81 68
231.1960 280.8420 -39.0250 0.759 -0.533 0.374 70 81 69
306.2178 370.7016 -55.9549 -0.607 -0.576 -0.547 68 80 67
252.6718 285.5790 -41.5677 0.636 -0.750 0.183 71 82 68
254.0098 286.3794 -41.7816 0.587 -0.805 0.083 72 84 68
251.9087 281.4626 -41.0440 -0.038 -0.937 -0.346 72 85 68
233.7657 246.4977 -35.4971 -0.369 -0.510 0.777 70 83 66
349.3795 309.1481 -53.2636 0.608 -0.696 0.383 81 88 81
344.4504 301.6981 -51.9816 0.195 -0.481 0.855 73 75 72
330.9075 258.7230 -45.9887 -0.171 -0.962 0.212 53 52 57
357.9309 268.2165 -49.5761 -0.758 -0.644 -0.105 51 48 59
344.8193 250.8060 -46.4300 -0.756 -0.637 -0.147 107 99 120
356.5407 258.1853 -48.3440 -0.723 -0.682 -0.112 106 98 119
40.5276 366.2234 -31.1054 -0.465 -0.048 0.884 42 47 53
43.0046 357.9957 -30.4185 -0.458 -0.054 0.887 55 68 52
83.9232 318.9059 -29.9231 -0.911 -0.006 0.413 83 81 83
87.0383 343.4431 -32.9690 0.571 -0.762 -0.304 87 85 87
109.5107 361.4952 -37.1262 -0.279 -0.892 -0.356 56 55 53
113.7010 401.2089 -41.9751 0.307 -0.908 -0.285 55 56 52
121.8946 442.7565 -47.4097 0.728 -0.561 0.395 65 64 62
170.5087 207.2319 -25.6293 -0.687 -0.273 0.674 78 90 74
170.8271 207.0009 -25.6336 -0.686 -0.260 0.679 78 90 74
222.1293 275.2463 -38.1540 -0.826 -0.325 -0.461 73 87 73
293.2350 354.8971 -53.8333 -0.608 -0.462 -0.646 74 88 71
269.1122 280.1566 -43.1659 -0.397 -0.891 0.218 83 81 83
340.7563 299.0450 -52.0862 0.379 -0.522 0.764 85 90 86
361.6754 301.3296 -54.3288 -0.473 -0.824 -0.311 59 60 62
361.7363 275.4978 -51.4394 -0.743 -0.662 0.100 55 54 60
361.9864 274.9504 -51.4018 -0.783 -0.613 0.108 56 55 63
362.2528 274.4180 -51.3674 -0.789 -0.602 0.121 55 52 61
359.6386 269.4675 -50.5644 -0.852 -0.510 0.115 51 48 59
345.3433 251.1306 -47.1517 -0.753 -0.642 -0.143 94 86 107
347.5484 252.1206 -47.4721 -0.545 -0.791 -0.278 92 84 105
369.4577 264.1980 -50.9062 0.414 -0.821 0.394 60 52 73
374.1413 266.2149 -51.5770 -0.072 -0.996 0.053 53 45 66
386.4315 264.6525 -52.5690 -0.381 -0.163 0.910 70 69 85
386.7994 264.2334 -52.5569 -0.569 -0.097 0.817 71 70 86
44.0877 350.4665 -30.3116 -0.371 -0.051 0.927 55 68 57
77.2232 345.3274 -32.8960 -0.921 -0.020 0.388 60 67 59
85.2032 338.8398 -32.9178 0.593 -0.539 0.598 87 85 88
86.3068 347.2554 -33.9861 0.589 -0.561 0.581 86 85 90
122.4977 380.9911 -41.3097 0.603 -0.481 0.636 81 77 78
132.4730 291.0541 -31.9771 0.340 -0.894 0.292 55 49 48
160.7122 180.8325 -22.0726 -0.980 0.002 0.201 75 88 71
222.3748 271.3203 -38.3264 0.471 -0.882 -0.001 68 85 67
297.2231 362.0696 -55.8725 -0.555 -0.691 -0.463 74 88 73
266.7989 278.2382 -43.3706 -0.575 -0.617 -0.537 81 75 79
269.0561 280.0588 -43.7950 -0.385 -0.911 0.149 83 80 82
361.9294 301.4883 -55.1373 -0.473 -0.824 -0.311 65 66 68
360.9815 271.1602 -51.5774 -0.824 -0.567 0.010 56 53 64
361.3070 270.6872 -51.5545 -0.824 -0.567 0.010 53 50 61
348.3595 252.0065 -48.1781 -0.641 -0.742 -0.196 75 67 90
348.7632 251.6573 -48.1768 -0.641 -0.742 -0.196 70 62 85
386.8024 265.5050 -53.4025 -0.372 -0.170 0.913 60 59 73
129.2829 408.2729 -45.9144 -0.954 -0.190 0.234 72 70 73
132.3187 290.4807 -32.4610 0.338 -0.893 0.297 43 40 38
132.8598 290.3596 -32.4991 0.341 -0.873 0.347 42 39 37
221.9951 270.7177 -38.8091 0.461 -0.887 -0.010 75 92 74
226.5854 274.7384 -39.7213 0.781 -0.552 0.291 73 88 69
265.6979 277.7958 -43.8528 -0.460 -0.653 -0.602 75 69 73
360.4184 264.2731 -51.4159 -0.261 -0.961 0.094 63 59 75
348.6246 251.4890 -48.7858 -0.761 -0.648 0.006 60 56 72
385.5583 263.9003 -53.7986 -0.377 -0.169 0.911 54 54 64
70.9358 338.7917 -32.8042 -0.120 -0.680 -0.723 54 66 52
102.5692 282.3536 -29.1646 0.156 -0.940 0.305 78 83 79
132.2323 290.2714 -32.9926 0.338 -0.893 0.297 46 48 41
132.7662 290.1136 -33.0258 0.341 -0.873 0.347 46 48 41
134.3454 292.4377 -33.4560 0.138 -0.960 0.245 52 53 45
361.1609 297.2111 -56.0892 -0.714 -0.496 -0.494 76 77 80
375.1105 277.4442 -55.0937 -0.722 -0.670 0.173 48 49 53
375.2666 276.8218 -55.0348 -0.723 -0.671 0.164 48 48 54
121.4884 335.6890 -38.0147 -0.842 -0.508 -0.184 80 78 81
222.5200 270.4855 -40.0103 -0.008 -0.907 -0.422 82 99 81
224.1106 270.8710 -40.2130 0.774 -0.632 0.042 81 96 77
373.0308 311.0895 -59.6957 0.639 -0.768 0.043 77 82 78
357.8264 294.2441 -56.1608 -0.642 -0.542 -0.543 77 82 80
344.1393 258.6003 -50.4939 -0.183 -0.904 -0.386 55 59 59
343.0578 255.7307 -50.0397 -0.255 -0.856 -0.450 49 53 53
368.8401 274.0762 -54.7938 -0.148 -0.985 -0.088 50 55 53
369.1204 273.5583 -54.7584 -0.737 -0.600 0.310 50 55 52
66.1110 378.5514 -38.5043 -0.646 -0.221 -0.731 65 77 65
83.0719 316.1763 -32.4677 -0.849 -0.035 0.528 54 50 53
83.6682 314.0408 -32.2626 -0.790 -0.137 0.598 57 53 57
86.4202 365.4388 -38.8901 0.506 -0.733 -0.454 61 61 63
128.2925 261.5977 -30.1882 -0.610 -0.130 0.782 55 76 47
195.4157 143.9219 -22.2712 0.303 -0.913 -0.274 59 63 62
342.2552 254.3814 -50.4426 -0.003 -0.882 -0.472 53 59 55
64.4575 373.3886 -38.4091 -0.177 -0.966 -0.187 57 74 55
64.8561 394.2283 -41.0741 -0.642 -0.226 -0.733 68 82 66
84.5789 319.5587 -33.6320 0.585 -0.643 0.494 53 53 56
99.5292 360.0312 -40.2199 -0.960 -0.030 0.278 83 86 80
99.9454 353.0132 -39.3772 -0.916 -0.084 0.393 85 87 82
123.2792 235.8349 -26.9398 0.563 -0.810 -0.164 57 84 48
69.1532 379.6585 -40.3922 0.329 -0.762 -0.557 70 85 67
69.7139 404.6929 -43.6605 0.455 -0.880 0.135 66 78 63
83.0165 312.6540 -33.1871 -0.716 -0.479 -0.507 48 52 55
83.4914 315.4096 -33.5884 0.534 -0.663 0.525 48 52 55
93.6624 328.8596 -36.3351 0.547 -0.592 0.592 69 76 68
141.0367 311.9707 -38.9241 0.386 -0.867 0.315 66 81 58
343.8329 256.1324 -52.1184 -0.496 -0.205 0.844 63 69 65
341.5961 253.7483 -51.5880 -0.536 -0.210 0.818 63 69 67
339.5244 246.9877 -50.5126 0.565 -0.825 -0.018 46 54 56
383.4117 275.9779 -58.6379 0.520 -0.784 0.338 44 52 54
395.8326 280.5749 -60.4747 0.212 -0.903 -0.373 45 50 54
95.1487 318.9633 -35.8199 0.314 -0.677 0.666 87 99 80
139.3349 298.1381 -37.5697 0.023 -0.989 0.144 69 84 61
276.1736 287.5546 -50.0309 0.735 -0.570 0.368 71 83 72
377.3675 272.1949 -58.2620 0.512 -0.776 0.369 48 53 56
378.0407 271.2580 -58.2078 0.451 -0.858 0.245 47 53 54
35.0591 361.9884 -36.0205 0.319 -0.936 0.148 62 68 64
82.1575 300.7761 -32.6832 -0.989 -0.125 0.077 67 78 75
82.6355 302.0143 -32.8966 -0.404 -0.603 -0.688 71 82 79
235.5419 245.2779 -40.9414 0.710 -0.692 0.131 57 69 58
327.3762 241.4961 -49.8008 0.211 -0.260 0.942 72 78 74
377.2609 270.6152 -58.7581 0.450 -0.863 0.228 52 60 62
226.0257 160.0219 -28.6355 0.008 -0.531 0.848 51 60 62
38.5743 351.3104 -35.5970 0.424 -0.872 0.245 61 68 61
84.4622 340.6687 -38.8712 0.274 -0.786 -0.554 72 82 73
85.0008 344.8071 -39.4865 0.444 -0.818 -0.366 73 84 69
369.4679 266.2506 -58.0811 0.059 -0.933 0.355 60 68 70
370.4507 266.2733 -58.1851 0.059 -0.933 0.355 62 70 72
372.1131 266.7895 -58.4257 0.231 -0.959 0.165 62 70 73
218.9677 154.8604 -27.5501 0.427 -0.572 0.700 62 70 72
218.4660 153.8651 -27.3639 -0.315 -0.834 0.454 64 72 74
322.3742 226.5803 -47.8761 0.265 -0.258 0.929 56 59 66
74.8151 394.8854 -45.9840 -0.912 -0.090 0.400 75 90 71
252.9478 260.9880 -45.9944 0.715 -0.558 0.421 68 80 70
367.4900 264.7278 -58.3653 -0.427 -0.844 -0.324 70 80 80
371.7806 266.4745 -59.0498 0.239 -0.958 0.155 72 81 82
356.4014 253.3070 -55.6457 -0.260 -0.965 0.034 75 82 82
367.2717 265.1900 -59.1013 -0.374 -0.863 -0.341 57 67 63
367.8758 264.9391 -59.1292 -0.374 -0.863 -0.341 76 87 82
368.4797 264.6882 -59.1571 -0.374 -0.863 -0.341 75 86 82
369.0833 264.4374 -59.1849 -0.374 -0.863 -0.341 76 87 83
359.7762 256.3307 -57.0796 -0.080 -0.959 -0.270 76 87 81
358.2222 253.8979 -56.5770 -0.279 -0.960 0.024 76 86 82
358.2124 253.2410 -56.4841 -0.306 -0.940 0.149 84 93 91
42.9806 321.7984 -33.7781 0.569 -0.809 0.149 79 86 78
73.3853 406.1429 -48.9757 0.602 -0.685 0.410 79 90 76
368.1917 265.0988 -59.8808 -0.374 -0.863 -0.341 72 85 75
368.8730 264.9035 -59.9246 -0.380 -0.859 -0.342 72 85 75
368.1101 262.9703 -59.5694 -0.554 -0.692 -0.463 72 85 75
369.7566 251.6295 -58.1285 0.305 -0.803 -0.511 57 66 65
369.0416 265.6497 -60.7475 -0.376 -0.858 -0.351 68 82 68
369.6458 265.3958 -60.7748 -0.376 -0.858 -0.351 68 82 68
369.7874 264.8055 -60.7044 -0.384 -0.862 -0.331 66 83 68
368.4918 263.1752 -60.3314 -0.554 -0.692 -0.463 66 83 68
381.8453 272.0679 -63.7562 0.112 -0.992 0.062 61 78 62
40.1143 327.6902 -36.0769 -0.955 -0.255 -0.152 70 77 69
42.6728 319.2564 -35.0922 0.335 -0.941 0.042 78 89 74
294.5519 205.9693 -45.2326 0.010 -0.301 0.953 70 83 76
293.5267 203.7966 -44.7980 0.103 -0.280 0.954 70 83 76
295.5452 204.7284 -45.1540 0.315 -0.305 0.899 75 88 81
311.2963 211.5977 -48.4008 -0.288 -0.872 -0.395 82 91 88
350.3689 241.5321 -59.0637 -0.514 -0.558 -0.651 69 82 75
342.7115 234.4798 -57.0974 -0.444 -0.733 -0.515 70 83 76
118.9544 230.1749 -39.3564 0.019 -0.171 0.985 86 101 78
220.4081 223.3593 -51.6505 -0.346 -0.913 -0.218 81 96 74
170.5700 221.1649 -45.3432 -0.945 -0.221 0.243 64 80 53
169.8825 221.7550 -45.8325 -0.939 -0.344 0.011 67 84 52
170.2797 221.5755 -45.8455 -0.942 -0.210 0.262 68 85 53
170.4505 220.9484 -45.7349 -0.942 -0.210 0.262 69 85 58
218.3027 220.7040 -51.8157 -0.335 -0.921 -0.197 73 87 70
170.3212 224.6376 -46.9593 -0.928 -0.373 0.004 71 88 56
169.7808 222.5523 -46.4439 -0.942 -0.333 0.026 74 91 59
169.7495 221.5101 -46.2172 -0.936 -0.350 0.030 75 92 60
170.0558 220.2075 -46.4293 -0.925 -0.218 0.311 80 96 69
171.2195 217.7696 -46.0534 -0.138 -0.986 -0.094 68 84 58
211.9631 209.4733 -49.5478 0.712 -0.691 -0.127 54 68 51
168.5078 219.0657 -46.4291 -0.933 -0.360 0.030 83 100 68
170.5452 218.3444 -46.5375 -0.169 -0.977 -0.131 85 101 75
212.4351 207.4380 -49.6241 -0.670 -0.564 -0.482 74 87 70
211.1543 200.9931 -48.0483 -0.620 -0.334 0.710 84 101 83
138.5392 202.7275 -39.3289 0.013 -0.905 -0.426 72 90 64
138.6693 201.9711 -39.1789 0.181 -0.931 -0.316 72 90 64
180.1910 198.0172 -43.7609 -0.936 -0.295 0.192 80 94 71
219.5274 208.0903 -51.1556 -0.769 -0.633 0.088 75 92 74
207.4935 204.6198 -49.2525 0.699 -0.695 -0.169 70 84 67
176.3774 202.8041 -45.1489 -0.750 -0.589 0.301 80 96 72
195.4601 191.0671 -45.4399 -0.779 -0.576 0.247 75 93 72
215.2304 206.2157 -51.5439 -0.852 -0.456 -0.256 62 79 61
218.1769 208.9872 -52.5709 -0.761 -0.409 -0.504 62 79 61
193.4127 188.5334 -44.9834 -0.760 -0.551 -0.345 75 93 71
196.0324 188.8970 -45.4200 0.700 -0.625 0.346 75 89 72
194.2982 187.9065 -45.3535 -0.796 -0.583 0.162 80 98 74
193.1721 185.9887 -44.7538 -0.118 -0.946 0.301 78 95 76
217.3404 206.6992 -53.3171 0.379 -0.269 0.885 64 81 63
215.5610 203.4505 -52.3092 0.517 -0.352 0.780 60 77 59
69.6124 270.7863 -48.7794 -0.882 -0.212 -0.421 71 86 65
155.5126 198.1819 -43.2741 0.372 -0.486 0.791 70 87 55
194.3650 189.0811 -46.4345 -0.980 -0.183 0.074 89 107 83
194.4837 188.6590 -46.3503 -0.980 -0.182 0.079 89 107 83
194.2294 187.7873 -46.1079 -0.801 -0.570 0.181 89 107 83
193.3418 186.1577 -45.5984 0.014 -0.996 0.092 89 106 87
195.4515 195.1220 -48.4368 -0.936 -0.350 0.046 92 110 86
194.2655 189.5122 -46.9242 -0.978 -0.198 0.064 83 101 77
194.5618 189.3043 -46.9151 -0.980 -0.189 0.069 83 101 77
194.7375 188.9502 -46.8541 -0.980 -0.191 0.062 83 101 77
194.1907 187.7224 -46.4835 -0.801 -0.570 0.181 83 101 77
193.4076 186.2193 -46.0140 0.022 -1.000 -0.003 87 104 85
195.1226 186.6226 -46.3475 0.728 -0.645 0.234 88 105 87
194.7125 193.5673 -48.3725 -0.952 -0.298 0.067 85 103 79
194.7641 193.0345 -48.2502 -0.933 -0.359 0.026 81 99 75
193.7963 189.4905 -47.2550 -0.791 -0.446 0.419 80 98 74
194.2479 189.4732 -47.3134 -0.978 -0.198 0.064 78 96 72
193.4238 186.2209 -46.4090 0.022 -1.000 -0.003 82 99 80
194.5572 185.9305 -46.4957 0.728 -0.645 0.234 85 102 84
202.9133 190.7253 -48.8199 0.409 -0.148 0.901 75 92 74
204.2516 191.6976 -49.2417 0.412 -0.151 0.899 75 92 74
193.4239 189.0140 -47.4872 -0.947 -0.239 0.213 73 91 67
194.6089 189.3266 -47.7293 -0.980 -0.191 0.062 73 91 67
195.3038 189.6038 -47.8943 -0.724 -0.491 0.485 73 91 67
195.3872 189.1366 -47.7913 -0.545 -0.813 0.206 72 90 67
195.1011 188.2265 -47.5281 -0.552 -0.815 0.178 76 93 73
196.0570 188.8152 -47.8059 -0.594 -0.742 0.310 78 95 77
198.5356 191.2185 -48.7416 0.279 -0.846 0.454 78 95 78
199.2962 191.5544 -48.9301 0.279 -0.850 0.448 77 94 76
142.8377 207.5046 -45.3686 0.383 -0.872 0.303 82 97 76
144.5384 211.0166 -46.4778 0.603 -0.728 0.327 82 97 76
144.9785 211.0592 -46.5501 0.599 -0.736 0.315 82 97 76
187.4592 191.3932 -47.6397 0.332 -0.408 0.851 91 110 81
195.1891 194.1360 -49.4046 -0.964 -0.243 0.112 74 92 70
194.8998 193.1720 -49.1251 -0.967 -0.237 0.088 69 87 63
194.5919 189.2881 -48.1193 -0.980 -0.191 0.062 68 86 62
195.2383 189.5061 -48.2640 -0.765 -0.494 0.413 69 87 63
195.3458 189.0682 -48.1706 -0.545 -0.813 0.206 70 85 64
195.5334 188.7296 -48.1130 -0.553 -0.804 0.220 71 89 67
199.2543 190.9151 -49.1770 0.646 -0.735 0.208 73 90 72
137.4536 208.6084 -45.2891 0.570 -0.801 -0.180 65 81 54
141.8515 216.8468 -47.9721 0.629 -0.393 0.671 67 83 56
142.1245 205.5965 -45.1947 0.437 -0.862 0.255 78 93 72
143.8092 209.0802 -46.3046 0.635 -0.753 0.174 78 93 72
144.5591 209.9763 -46.6348 0.632 -0.754 0.181 78 93 72
283.6280 368.2557 -105.8893 0.456 -0.880 0.135 75 94 64
184.9942 191.1271 -47.6265 0.373 -0.492 0.787 91 110 82
185.3161 189.7274 -47.3216 0.388 -0.475 0.790 91 110 82
186.1363 190.2219 -47.5612 0.330 -0.404 0.853 84 104 77
186.7443 190.4279 -47.6986 0.330 -0.404 0.853 84 104 76
188.3415 191.9431 -48.3034 0.532 -0.536 0.655 84 104 76
189.7794 193.2326 -48.8292 0.461 -0.812 0.357 85 104 76
190.5012 193.5680 -49.0151 0.622 -0.629 0.467 81 99 74
197.7651 190.2589 -49.2125 -0.135 -0.792 0.596 67 86 64
214.1327 193.1196 -52.2397 0.655 -0.693 0.301 81 94 78
217.5843 195.6714 -53.3658 0.639 -0.705 0.309 83 95 83
137.5796 209.0661 -45.8258 0.659 -0.380 0.649 65 81 54
184.1809 189.3960 -47.4727 0.405 -0.493 0.770 87 106 78
184.5981 189.3538 -47.5213 0.353 -0.496 0.793 86 106 78
184.8160 189.0430 -47.4737 0.562 -0.632 0.533 86 106 79
185.5699 189.4516 -47.6840 0.376 -0.474 0.796 79 99 72
