ply
format ascii 1.0
element vertex 477
property float x
property float y
property float z
property float nx
property float ny
property float nz
property uchar diffuse_red
property uchar diffuse_green
property uchar diffuse_blue
end_header
333.8169 547.2641 78.2080 0.469 -0.830 -0.302 253 255 254
328.3194 536.2266 74.1446 0.364 -0.931 0.022 176 175 191
93.0753 517.9028 65.5225 0.137 -0.657 -0.742 98 83 104
353.8475 540.9476 74.2128 0.756 -0.523 -0.395 238 234 250
95.3200 519.1387 64.6356 -0.407 -0.785 -0.467 96 84 104
349.3918 536.0306 72.2698 0.738 -0.533 -0.414 250 242 254
351.9045 539.0139 72.7470 0.741 -0.530 -0.411 240 232 247
330.8326 519.5989 68.4408 0.852 -0.403 -0.335 65 59 84
345.3926 532.0454 70.4881 0.763 -0.518 -0.386 74 69 92
95.3978 518.4620 62.3173 -0.131 -0.819 -0.558 94 86 107
312.9608 465.8239 59.5409 0.001 -0.876 -0.483 79 73 97
346.7152 534.7814 69.7615 0.758 -0.522 -0.392 69 63 88
101.4096 485.5015 56.8516 0.060 -0.691 -0.720 160 155 175
95.2718 521.7090 60.5221 -0.221 -0.524 -0.822 172 163 184
96.4482 521.2670 60.4874 -0.221 -0.524 -0.822 175 166 187
269.8293 511.5114 62.7806 0.748 -0.377 0.546 205 204 215
314.8907 465.2488 57.5360 -0.295 -0.839 0.456 79 71 95
104.6750 340.9123 35.8574 -0.562 -0.774 0.292 157 149 170
112.9502 307.1927 31.6021 -0.335 -0.589 0.736 171 168 187
267.5609 503.9039 60.6439 0.748 -0.377 0.546 65 59 89
265.6765 497.5490 58.7105 0.749 -0.375 0.547 68 61 94
372.6918 384.2542 45.5234 0.231 -0.694 0.681 82 80 102
369.8265 381.1943 44.2839 0.124 -0.621 0.774 55 53 75
384.9458 511.9721 59.7896 -0.423 -0.836 -0.350 61 58 85
262.6888 341.4974 33.5625 -0.127 -0.655 -0.745 99 86 112
285.2311 372.0821 37.4976 0.360 -0.890 -0.280 74 65 92
284.9865 371.2612 35.8469 0.387 -0.863 -0.325 84 75 102
89.5229 508.9463 38.9156 -0.446 -0.476 0.758 76 67 72
89.6361 507.5023 37.6819 -0.491 -0.440 0.752 78 69 74
250.4571 470.7010 36.8246 0.318 -0.931 0.180 44 37 55
257.6548 484.4229 38.1861 0.706 -0.604 -0.368 32 25 41
259.2396 486.1611 38.3731 0.706 -0.604 -0.368 33 26 42
292.2495 426.9845 32.9780 0.841 -0.492 0.225 78 64 89
291.5201 431.6109 32.4371 0.630 -0.775 -0.034 68 54 77
90.8443 396.7614 23.4739 -0.312 -0.733 0.604 50 44 47
103.5861 304.4823 16.4937 -0.605 -0.374 0.702 67 63 62
398.0297 521.2355 38.8419 -0.429 -0.880 0.204 64 55 75
379.8502 521.0132 37.3017 0.157 -0.913 -0.376 52 45 63
371.5226 531.4755 36.7428 0.096 -0.955 -0.281 46 43 60
128.5807 225.9184 9.0353 0.059 -0.712 -0.699 175 174 172
399.9433 442.7125 30.0544 -0.248 -0.536 0.807 64 62 67
212.6568 589.8135 34.8511 0.603 -0.619 -0.503 138 134 155
370.4495 531.2047 34.3966 -0.290 -0.864 0.413 49 45 62
368.9180 532.5934 33.2999 0.016 -0.933 -0.359 51 44 62
370.2056 532.8386 33.3442 -0.062 -0.957 -0.284 52 45 63
373.7068 532.8397 33.4217 -0.073 -0.946 -0.316 84 76 95
382.2814 414.8422 25.9659 -0.678 -0.729 0.091 53 51 56
370.9545 534.1267 32.2840 -0.007 -0.936 -0.352 60 51 70
371.6193 533.1089 32.2351 0.768 -0.610 -0.192 64 53 73
373.5481 534.6339 32.3731 0.045 -0.905 -0.424 81 70 90
398.1108 460.0917 28.2598 0.363 -0.787 -0.499 57 55 58
366.0056 526.2232 30.5377 0.749 -0.609 -0.262 63 51 71
374.1903 535.6935 31.2889 0.033 -0.905 -0.424 92 79 99
374.8911 534.7497 31.2477 -0.013 -0.897 -0.442 102 89 109
372.8788 535.1895 30.0653 0.771 -0.585 -0.251 71 59 79
287.7602 263.5723 12.4639 0.559 -0.614 0.558 51 46 42
245.7045 535.0962 23.7194 0.910 -0.346 0.229 64 53 59
379.9993 532.3896 26.5848 -0.579 -0.730 -0.364 57 50 68
387.8843 412.5313 18.0180 0.561 -0.619 -0.550 68 60 57
236.5317 459.9005 15.6913 -0.181 -0.776 0.604 47 42 39
316.9950 544.2584 21.0112 -0.625 -0.744 -0.236 64 51 60
234.0722 450.4850 14.2653 -0.338 -0.779 0.529 39 34 31
234.2407 440.3143 13.8702 0.202 -0.300 0.932 45 41 38
257.6529 482.8788 16.0688 0.870 -0.492 -0.028 79 75 72
233.2723 454.7189 13.4235 0.602 -0.501 0.622 49 45 42
383.8397 527.2655 19.5083 -0.516 -0.631 -0.579 57 43 43
249.3993 387.9655 10.4919 0.753 -0.434 0.495 85 84 77
304.4371 442.0948 13.6109 0.530 -0.350 0.773 57 56 51
267.6789 395.7303 10.3231 0.418 -0.528 0.739 81 85 69
234.1581 435.6431 9.9002 0.679 -0.446 0.583 88 89 83
236.5251 440.6792 10.1046 0.787 -0.409 0.463 93 94 88
242.4240 402.3474 9.0934 0.825 -0.451 0.340 89 91 85
244.8741 407.1599 9.2930 0.823 -0.455 0.339 83 86 79
266.3198 392.1529 9.3329 0.428 -0.511 0.745 92 97 77
227.8690 444.3966 9.0500 0.607 -0.649 0.458 57 54 52
247.1773 381.2166 7.7503 0.761 -0.429 0.486 91 96 65
306.1931 428.6740 10.4042 0.507 -0.316 0.802 73 69 70
241.3507 380.8938 6.7885 0.897 -0.434 0.084 71 74 61
256.4370 392.6294 7.4292 0.376 -0.923 -0.084 75 82 63
258.1498 394.9299 7.5264 0.363 -0.897 -0.251 76 83 64
233.9112 383.2727 5.8520 0.889 -0.455 -0.050 54 55 47
260.7228 385.9942 6.5285 0.773 -0.488 0.404 88 92 75
224.1270 432.8482 5.8176 -0.507 -0.423 0.751 62 58 57
237.5820 391.9362 5.2870 0.598 -0.577 0.557 44 47 40
259.7110 383.2334 5.6165 0.280 -0.380 0.882 79 83 66
340.1931 476.6958 9.3818 0.514 -0.339 0.788 117 114 113
243.8131 428.7057 5.2509 0.560 -0.469 0.683 39 42 33
258.7347 395.9488 4.9989 0.713 -0.533 0.454 55 63 42
260.9319 369.8594 4.5753 0.443 -0.798 0.409 68 70 56
261.9760 370.4565 4.6102 0.443 -0.798 0.409 85 87 74
263.0644 365.4566 4.5444 -0.228 -0.841 -0.491 85 85 73
275.6227 367.1134 4.8633 0.534 -0.361 0.765 75 75 70
361.9037 417.4102 7.7621 0.556 -0.465 0.689 98 95 114
263.2961 365.8460 3.7710 -0.228 -0.841 -0.491 79 81 70
355.3158 409.4639 6.5822 0.450 -0.434 0.781 108 105 126
395.6124 429.6635 7.8306 0.368 -0.886 -0.282 103 100 119
222.5264 429.5878 2.9021 -0.507 -0.423 0.751 56 47 50
223.2509 428.7294 2.9073 -0.507 -0.423 0.751 54 51 50
225.4778 412.6887 2.7425 -0.358 -0.643 0.677 75 77 72
260.8670 365.5327 2.9243 0.708 -0.687 0.164 61 64 55
263.3206 367.6228 3.0092 0.712 -0.685 0.154 71 74 65
261.6550 379.1256 2.3076 -0.103 -0.812 0.574 42 42 39
263.6803 368.3181 2.2342 0.727 -0.667 0.164 60 63 54
265.1845 362.5971 2.2054 0.139 -0.956 -0.260 58 61 52
246.1616 299.4484 1.0626 0.012 -0.768 -0.640 67 70 61
278.1137 366.9058 2.5525 -0.380 -0.481 0.790 67 70 59
278.3531 355.8990 2.4356 -0.767 -0.625 0.145 65 68 57
389.8164 557.0479 7.2530 -0.351 -0.933 0.081 79 84 80
268.1040 360.2191 1.4726 -0.029 -0.342 0.939 55 60 54
308.2422 352.0640 2.3317 -0.262 -0.951 0.162 115 119 94
155.0035 448.2216 -1.3645 -0.507 -0.730 -0.459 80 63 71
178.0432 456.9328 -0.7733 -0.083 -0.727 -0.681 74 57 65
185.0018 456.0155 -0.6175 -0.426 -0.771 -0.474 108 91 99
221.6147 425.3051 0.0360 -0.542 -0.424 0.726 52 57 53
266.3651 366.8474 0.7003 0.054 -0.841 -0.539 40 43 34
263.6723 357.0027 0.5745 -0.046 -0.336 0.941 39 45 35
269.1389 360.6459 0.7249 -0.061 -0.350 0.935 47 52 46
259.0901 322.6989 0.2478 0.262 -0.631 -0.730 46 49 38
277.7873 359.2408 0.9168 -0.732 -0.648 0.209 49 52 43
278.5250 357.5547 0.9232 -0.659 -0.688 0.304 49 52 41
279.2732 357.5127 0.9403 -0.681 -0.679 0.274 49 52 41
280.3090 356.4820 0.9577 -0.681 -0.679 0.274 51 53 47
305.6925 355.4023 1.5405 0.135 -0.977 -0.164 101 105 72
307.1474 350.0321 1.5398 -0.256 -0.945 0.202 115 121 89
174.1958 466.6415 -1.8302 -0.552 -0.590 -0.590 77 60 68
221.8242 422.2476 -0.9020 -0.361 -0.521 0.774 72 77 73
270.4413 359.9353 -0.0235 -0.192 -0.342 0.920 31 38 32
267.1452 347.6600 -0.1502 0.120 -0.592 0.797 32 37 30
306.9201 353.4168 0.7992 0.058 -0.975 -0.215 103 110 66
307.2086 352.6026 0.8026 0.065 -0.975 -0.212 107 114 71
307.1371 349.8747 0.7898 -0.256 -0.945 0.202 112 118 83
221.3711 420.2551 -1.8397 -0.358 -0.520 0.776 40 46 40
243.2169 389.4800 -1.3827 -0.655 -0.597 0.463 36 38 33
243.8758 388.9250 -1.3683 -0.669 -0.614 0.419 33 35 30
300.8420 329.2082 -0.1416 0.736 -0.615 -0.282 100 109 76
180.8988 461.9167 -3.7324 -0.081 -0.729 -0.680 44 29 34
242.9494 391.0205 -2.2361 0.442 -0.758 0.480 40 42 37
243.4153 389.8807 -2.2245 -0.691 -0.544 0.477 34 36 31
244.0110 389.1372 -2.2101 -0.691 -0.544 0.477 31 33 28
244.6042 388.3969 -2.1958 -0.691 -0.544 0.477 42 44 39
255.3529 286.1639 -1.8782 0.663 -0.710 -0.239 59 61 56
301.1527 349.5929 -0.8489 0.301 -0.898 -0.320 67 71 55
243.0815 391.2271 -3.0840 0.538 -0.693 0.479 49 51 46
246.4765 383.9386 -2.9826 0.380 -0.906 0.185 38 40 35
256.0015 287.2922 -2.4687 0.674 -0.705 -0.221 56 58 53
259.5247 290.5283 -2.3959 0.827 -0.523 -0.205 54 56 53
266.5757 297.9202 -2.2531 0.417 -0.901 -0.119 62 65 54
299.3272 347.5245 -1.6354 0.342 -0.901 -0.266 55 61 46
307.4414 346.1533 -1.4412 -0.326 -0.945 0.028 67 75 37
174.1600 473.5363 -5.9946 -0.684 -0.522 -0.509 82 65 73
177.3898 465.8518 -5.8776 -0.285 -0.824 -0.489 50 33 41
184.3662 471.1244 -5.7422 -0.372 -0.820 -0.435 67 52 57
296.2260 344.4738 -2.4373 -0.080 -0.981 -0.178 50 56 42
296.9290 344.4131 -2.4205 -0.080 -0.981 -0.178 51 57 43
219.4202 426.3922 -5.6156 -0.845 -0.526 -0.099 82 80 80
261.5840 288.4505 -3.5576 0.366 -0.822 -0.437 60 66 54
296.2523 344.3822 -3.1750 0.183 -0.902 -0.391 50 57 41
297.0784 344.5423 -3.1569 0.183 -0.902 -0.391 49 56 40
319.6116 346.4339 -2.6417 0.709 -0.580 0.400 127 130 135
156.5839 464.3492 -8.4159 -0.321 -0.622 0.715 53 40 49
174.5678 476.1860 -8.1118 -0.223 -0.872 -0.435 51 34 42
175.3613 473.9836 -8.0709 -0.684 -0.522 -0.509 53 36 44
255.1011 375.4966 -5.1979 0.291 -0.719 -0.631 25 27 26
256.6047 375.1729 -5.1592 0.388 -0.884 -0.262 37 37 35
257.5236 375.4391 -5.1403 0.388 -0.883 -0.264 36 36 34
113.7957 374.9854 -9.3421 -0.257 -0.670 0.697 72 62 51
254.9269 374.8761 -6.0096 0.422 -0.877 -0.228 25 27 26
256.7987 375.4996 -5.9732 0.388 -0.884 -0.262 30 30 28
257.7202 375.7694 -5.9548 0.388 -0.883 -0.264 30 30 28
219.6397 426.5855 -8.4255 -0.804 -0.594 -0.030 68 67 63
234.0419 396.9594 -7.6455 -0.037 -0.871 0.490 45 46 41
236.0368 397.7852 -7.6106 -0.643 -0.731 -0.229 34 35 30
253.8910 374.1289 -6.8375 0.765 -0.633 0.122 25 26 28
259.0847 379.0640 -6.7878 0.639 -0.766 0.070 25 25 23
224.3824 405.9228 -8.8968 -0.747 -0.662 -0.062 42 43 38
233.9689 396.5257 -8.5080 0.072 -0.643 0.762 34 35 30
235.3625 398.2239 -8.5042 0.071 -0.655 0.752 30 31 26
254.0034 374.2515 -7.6502 0.767 -0.628 0.130 39 40 42
113.1255 370.5417 -11.7364 -0.726 -0.688 -0.022 74 62 50
239.0102 387.9052 -9.0874 -0.574 -0.794 -0.201 49 54 47
254.0049 374.0856 -8.4610 0.767 -0.628 0.130 47 48 50
231.2024 401.4567 -10.4183 -0.404 -0.875 -0.266 37 37 35
233.7620 407.0918 -10.4811 -0.427 -0.789 -0.442 37 37 35
252.9547 373.2959 -9.2828 0.683 -0.728 -0.056 42 43 45
362.9912 395.7674 -7.1583 0.670 -0.537 0.512 101 96 102
231.6296 402.6997 -11.3191 -0.433 -0.864 -0.256 37 37 35
232.8806 400.9800 -11.2475 -0.521 -0.635 -0.570 38 39 34
234.3746 400.1105 -11.1908 -0.523 -0.641 -0.561 38 39 34
235.3461 397.5829 -11.1061 -0.519 -0.576 -0.632 37 38 33
115.1896 349.6221 -13.5674 -0.035 -0.857 0.514 92 78 65
116.7251 349.6970 -13.5327 0.037 -0.933 0.359 79 65 52
23.0947 464.4536 -19.8736 0.822 -0.559 -0.113 50 40 44
239.7384 389.3718 -12.5069 -0.231 -0.832 -0.504 34 37 30
24.9691 447.0593 -20.3238 0.608 -0.638 -0.473 55 49 44
23.0546 464.6064 -20.9215 0.822 -0.559 -0.113 49 43 39
27.3590 469.0942 -22.0132 0.367 -0.828 -0.423 52 49 42
220.1047 419.1737 -15.6943 -0.772 -0.522 0.363 44 43 41
229.0001 395.9521 -14.6950 -0.673 -0.734 0.093 33 34 29
239.2259 387.0684 -15.8476 0.401 -0.859 0.319 39 42 35
311.7845 348.9044 -12.6249 -0.577 -0.758 0.303 47 50 38
331.4292 375.0929 -13.1619 0.646 -0.513 0.566 69 65 64
310.5862 348.0088 -13.3730 -0.596 -0.748 0.293 47 54 38
41.3920 416.1346 -23.5986 -0.688 -0.725 0.013 67 62 58
134.7147 394.8764 -20.4174 0.616 -0.501 0.607 63 56 45
239.1994 397.1838 -17.9881 -0.248 -0.788 -0.563 82 84 79
239.9849 396.9146 -17.9574 -0.248 -0.788 -0.563 102 104 99
240.8004 396.7422 -17.9302 -0.251 -0.784 -0.568 88 91 84
241.5831 391.2368 -17.6724 -0.442 -0.819 -0.366 41 44 37
242.5582 391.5868 -17.6640 -0.617 -0.714 -0.333 39 42 35
345.3094 386.6104 -14.9607 0.584 -0.443 0.680 82 72 71
87.1329 565.0377 -30.2327 0.561 -0.799 0.218 88 85 66
236.2173 395.8268 -18.8739 -0.653 -0.756 -0.047 26 28 23
239.6018 398.2441 -18.9024 -0.280 -0.833 -0.477 68 70 65
240.2642 397.5858 -18.8562 -0.251 -0.784 -0.568 67 69 64
241.0485 397.3117 -18.8247 -0.251 -0.784 -0.568 69 72 65
137.1166 388.5635 -21.8056 0.606 -0.433 0.667 86 82 73
239.8066 398.6879 -19.7975 -0.280 -0.833 -0.477 25 27 22
240.4743 398.0421 -19.7502 -0.248 -0.788 -0.563 23 25 20
241.2611 397.7714 -19.7180 -0.248 -0.788 -0.563 34 36 31
246.7199 390.8388 -19.2516 0.432 -0.842 -0.323 33 34 29
167.9600 477.1262 -26.3914 0.679 -0.702 0.216 64 55 57
238.9308 398.4951 -20.6894 -0.447 -0.833 -0.325 24 25 20
240.7984 398.8500 -20.6619 -0.280 -0.833 -0.477 25 26 21
241.6118 398.6546 -20.6322 -0.301 -0.797 -0.524 28 29 24
242.4975 398.6822 -20.6120 -0.502 -0.779 -0.376 28 29 24
246.7167 390.6446 -20.1031 0.429 -0.842 -0.327 31 32 26
161.9297 493.3620 -28.4700 0.138 -0.869 -0.476 82 76 76
235.0290 397.0209 -21.5871 -0.653 -0.756 -0.047 14 15 10
242.8297 399.5007 -21.5280 -0.261 -0.790 -0.555 29 29 27
245.2367 388.6531 -20.8951 -0.022 -0.980 -0.196 36 37 31
246.9388 391.0988 -20.9830 0.429 -0.842 -0.327 35 36 30
120.7870 407.9781 -25.8634 0.649 -0.689 0.323 43 43 25
131.1291 387.5280 -24.4792 0.499 -0.624 0.601 43 38 17
132.0112 388.2171 -24.4958 0.499 -0.624 0.601 55 50 30
132.8966 388.9089 -24.5124 0.499 -0.624 0.601 43 38 18
133.5409 382.7496 -24.1559 0.573 -0.299 0.763 40 35 16
135.1826 381.3552 -24.0386 0.482 -0.474 0.737 92 85 66
165.1799 480.7038 -28.8021 0.096 -0.900 -0.424 42 38 36
242.2884 400.3413 -22.4711 -0.261 -0.790 -0.555 27 27 25
243.0760 400.0567 -22.4361 -0.261 -0.790 -0.555 27 27 25
244.5137 388.8462 -21.7807 -0.022 -0.980 -0.196 51 51 48
245.3591 388.8232 -21.7587 -0.022 -0.980 -0.196 43 44 38
248.4664 385.5797 -21.5033 0.036 -0.999 0.004 28 29 23
243.0287 399.7189 -23.3030 -0.432 -0.819 -0.379 27 27 25
244.5321 393.7607 -22.9222 -0.516 -0.789 -0.334 31 31 29
244.4164 388.3774 -22.6143 0.046 -0.984 -0.173 46 46 43
249.9792 389.6339 -22.5506 0.411 -0.906 -0.100 28 29 23
221.5349 408.1670 -25.2233 0.253 -0.951 -0.179 52 54 49
241.6669 400.7521 -24.2835 -0.233 -0.710 0.665 30 30 28
242.2998 399.9872 -24.2220 -0.307 -0.729 0.612 30 30 28
242.2912 397.2835 -24.0597 -0.544 -0.677 -0.495 28 28 26
243.8074 396.5866 -23.9806 -0.085 -0.909 0.407 29 29 27
243.5095 390.5506 -23.6250 -0.497 -0.788 -0.363 31 31 29
253.9529 390.9629 -23.3935 0.142 -0.984 -0.108 33 34 29
274.0198 360.1917 -21.0511 -0.362 -0.930 0.063 23 23 21
275.9467 362.6598 -21.1522 -0.374 -0.927 0.036 23 25 24
130.5089 393.7755 -27.4682 0.460 -0.532 0.711 98 93 71
147.1334 434.0921 -29.5802 0.342 -0.245 0.907 44 34 22
226.6217 410.0329 -26.1218 0.345 -0.938 -0.014 35 37 32
228.0266 396.1781 -25.2211 0.663 -0.598 -0.451 58 58 56
241.9850 401.5377 -25.2130 -0.266 -0.714 0.647 32 32 30
242.2630 399.6803 -25.0900 -0.350 -0.614 0.707 33 33 31
242.7364 398.4436 -25.0011 -0.269 -0.704 0.657 32 32 30
243.5068 398.1206 -24.9620 -0.267 -0.709 0.652 34 34 32
252.8032 380.8294 -23.6523 0.071 -0.792 -0.606 20 20 20
274.7784 361.6805 -21.9149 -0.154 -0.980 -0.128 24 24 22
276.2398 363.1359 -21.9699 -0.376 -0.927 0.010 29 31 28
236.4234 253.3131 -16.0824 0.395 -0.479 0.784 28 28 25
126.4723 494.1841 -34.9638 0.641 -0.551 0.534 84 89 57
214.5399 432.0655 -28.7616 0.803 -0.586 0.106 68 77 50
216.0486 434.4027 -28.8762 0.798 -0.591 0.117 70 76 47
256.9647 382.8051 -24.5185 -0.055 -0.698 -0.714 32 32 32
276.4915 363.5221 -22.7856 -0.495 -0.857 0.145 33 35 32
275.7333 363.4364 -23.5968 -0.476 -0.867 0.150 30 31 26
276.4998 363.3838 -23.5744 -0.495 -0.857 0.145 41 43 38
277.1250 363.0294 -23.5351 -0.495 -0.857 0.145 41 43 38
277.3424 361.8093 -23.4476 -0.428 -0.897 0.115 43 45 40
387.8561 419.2422 -24.5871 -0.041 -0.999 -0.023 62 53 58
20.0422 468.1078 -38.0163 0.716 -0.277 0.641 90 84 90
120.0117 409.7169 -31.4729 0.376 -0.475 -0.795 70 71 55
226.1706 401.3734 -28.2663 0.704 -0.576 -0.414 31 31 29
273.6884 362.2672 -24.3645 -0.465 -0.882 -0.073 32 32 30
274.4109 362.1238 -24.3366 -0.485 -0.872 -0.065 32 32 30
275.2807 362.3006 -24.3274 -0.446 -0.888 0.111 33 34 29
276.5081 363.2456 -24.3630 -0.495 -0.857 0.145 47 48 42
277.1333 362.8914 -24.3228 -0.495 -0.857 0.145 47 48 42
276.9993 360.9232 -24.1889 -0.433 -0.892 0.131 46 47 39
278.6138 361.0174 -24.1556 -0.442 -0.885 0.146 45 46 38
313.1631 351.9388 -22.6683 0.234 -0.897 0.376 55 57 44
314.0754 352.1941 -22.6635 -0.343 -0.808 -0.479 59 61 48
124.2411 370.8373 -29.4813 0.367 -0.688 -0.625 83 86 59
227.3233 399.0049 -28.9597 0.603 -0.352 0.716 31 31 29
275.1073 361.7697 -25.0899 -0.444 -0.890 0.109 36 37 32
276.5164 363.1074 -25.1515 -0.495 -0.857 0.145 54 55 49
277.3088 363.1114 -25.1322 -0.511 -0.844 0.161 51 52 44
276.9906 360.7500 -24.9697 -0.308 -0.915 0.261 46 48 37
314.6431 353.0045 -23.4782 -0.331 -0.801 -0.498 59 61 48
63.3443 433.2727 -36.4717 -0.720 -0.573 0.392 41 41 43
278.8271 371.4065 -26.5117 -0.188 -0.956 -0.226 31 31 30
275.7170 362.9319 -25.9571 -0.433 -0.897 0.090 38 39 33
276.7149 363.3780 -25.9656 -0.520 -0.838 0.166 61 62 55
310.5157 348.4693 -24.0153 0.111 -0.803 0.586 55 57 44
314.6486 352.8722 -24.2410 0.220 -0.907 0.358 63 65 52
71.2899 409.8791 -35.4524 -0.500 -0.513 0.698 54 59 39
167.4800 407.9514 -32.9121 0.838 -0.370 -0.401 86 85 65
233.5409 395.8939 -30.3415 0.813 -0.367 0.453 27 27 25
274.9604 364.5748 -26.9014 -0.428 -0.896 0.118 33 33 31
277.4532 359.6053 -27.2485 -0.291 -0.936 0.199 39 40 32
127.6190 418.0992 -36.5641 0.389 -0.890 -0.239 66 62 50
153.8883 378.7741 -32.6924 -0.035 -0.984 0.173 75 76 45
312.6326 350.3422 -26.4049 0.268 -0.870 0.413 62 64 51
74.5476 406.0858 -37.8207 -0.240 -0.635 0.735 88 93 73
101.7111 430.3728 -40.1586 0.362 -0.700 -0.615 81 85 58
158.7739 376.6840 -34.0789 0.910 -0.224 0.349 76 69 61
248.2747 399.9013 -33.8472 0.829 -0.518 -0.211 44 45 40
250.6353 404.1813 -34.1588 0.779 -0.513 -0.361 41 42 37
103.4733 434.9987 -41.4993 0.578 -0.673 -0.461 72 76 51
160.1357 381.1007 -35.2785 0.907 -0.224 0.357 84 77 66
219.2391 437.2268 -38.7915 -0.481 -0.876 -0.040 48 52 38
263.1189 423.8023 -36.4949 -0.644 -0.554 0.527 34 33 31
240.4734 287.3495 -24.9153 0.224 -0.884 -0.409 34 34 34
115.7505 400.5168 -39.0220 0.525 -0.667 0.528 57 53 41
218.4093 437.5988 -39.8312 -0.491 -0.871 -0.018 58 63 37
235.1091 284.8222 -25.4402 0.833 -0.536 -0.134 32 32 30
55.4664 410.6612 -42.3947 0.911 -0.376 0.168 67 80 38
65.5277 399.2157 -41.0668 -0.471 -0.628 -0.620 75 82 48
66.5565 398.3376 -40.9585 -0.471 -0.628 -0.620 76 83 49
68.6455 396.2690 -40.7117 0.650 -0.596 -0.472 68 76 39
132.8926 376.4659 -37.2339 0.456 -0.729 -0.510 81 77 62
133.6042 373.0199 -36.8925 0.492 -0.428 0.758 81 77 62
231.3782 408.0877 -37.7206 0.338 -0.941 0.025 28 31 24
236.2965 415.4749 -38.2900 -0.075 -0.329 0.941 30 33 26
236.6998 413.7449 -38.1175 -0.041 -0.336 0.941 30 33 26
236.8867 411.3281 -37.8859 -0.492 -0.333 0.804 28 29 22
115.7882 400.9033 -40.8618 0.456 -0.823 0.338 52 46 34
132.6660 369.1577 -37.3789 0.180 -0.392 0.902 80 77 62
150.2117 363.3822 -36.3798 0.593 -0.544 0.594 99 100 69
235.9360 414.0554 -39.0950 0.248 -0.967 -0.061 37 40 33
236.4015 412.5438 -38.9377 -0.129 -0.328 0.936 37 40 33
76.6846 389.0387 -41.5832 0.594 -0.295 0.749 40 44 32
138.9899 364.1112 -37.5466 0.307 -0.936 0.170 93 88 68
223.8266 420.3075 -40.9482 0.816 -0.563 -0.127 41 42 37
69.2117 386.2700 -42.3698 -0.378 -0.624 -0.684 73 80 46
113.0051 406.9188 -43.3484 0.369 -0.874 -0.316 59 56 37
116.7678 397.6497 -42.3156 0.067 -0.688 -0.722 54 45 36
138.8238 360.5295 -38.0024 0.082 -0.172 0.982 105 100 80
154.1773 362.1124 -37.7734 0.208 -0.421 0.883 108 115 79
222.8422 419.8981 -41.8779 -0.852 -0.515 -0.094 23 24 17
226.7000 423.8250 -42.1773 0.914 -0.397 0.079 32 33 27
276.6683 364.9772 -34.9592 0.286 -0.632 0.720 33 33 31
71.5534 388.2500 -43.3869 -0.632 -0.599 -0.492 65 72 39
112.9550 410.3427 -44.6239 0.455 -0.805 -0.380 72 69 50
226.7259 423.6970 -43.1185 0.914 -0.397 0.079 26 27 22
275.0141 364.6933 -35.7817 0.193 -0.657 0.729 24 24 22
73.8908 383.8405 -43.7368 0.444 -0.473 0.761 79 86 55
135.4053 322.5966 -35.6805 0.063 -0.210 0.976 85 80 60
114.7924 413.6952 -46.7981 -0.431 -0.900 0.067 83 77 64
221.3086 413.3419 -44.0455 0.884 -0.457 0.095 40 43 33
225.1565 420.8950 -44.7664 0.853 -0.519 -0.059 37 40 32
306.3946 352.4472 -35.2745 -0.554 -0.767 -0.324 39 43 29
123.6080 351.0583 -40.5669 -0.289 -0.864 -0.411 86 83 70
124.4564 357.3791 -41.2460 -0.245 -0.843 -0.478 86 83 70
138.0562 344.4106 -39.4611 0.376 -0.242 0.894 70 69 47
243.0963 457.2952 -49.2938 0.138 -0.816 -0.562 38 44 33
226.6226 381.6679 -41.3303 -0.034 -0.354 0.934 32 38 30
159.9365 376.1806 -43.2695 0.203 -0.577 0.791 74 92 50
139.6025 343.8873 -40.8988 0.444 -0.258 0.858 69 80 50
210.9780 358.0198 -40.7053 0.815 -0.567 -0.119 58 74 38
213.1277 362.9565 -41.2215 0.808 -0.579 -0.109 58 74 37
280.1326 366.3060 -39.8921 0.136 -0.988 0.074 25 26 20
239.7936 365.6588 -42.4848 -0.494 -0.838 0.234 34 40 28
240.7759 363.8988 -42.2473 -0.571 -0.817 0.083 35 41 29
299.4012 350.1675 -39.0832 0.590 -0.742 -0.317 40 44 27
239.1971 396.2146 -47.0778 0.387 -0.883 -0.266 55 68 40
239.9172 363.5652 -43.0418 -0.529 -0.830 0.177 44 51 33
241.4996 365.7524 -43.2701 -0.525 -0.844 -0.106 44 51 33
242.7458 366.8039 -44.1884 -0.364 -0.872 0.328 47 55 31
254.4407 365.7289 -43.7516 -0.834 -0.552 0.009 39 40 33
290.7044 375.8204 -44.0817 0.598 -0.765 0.238 39 40 34
303.1605 358.0608 -41.5315 0.569 -0.802 -0.182 31 35 18
244.8593 320.2612 -39.0008 0.020 -0.610 -0.792 39 38 35
271.7668 366.5555 -44.2275 -0.289 -0.913 0.289 20 22 20
303.2151 355.2081 -41.9624 0.312 -0.950 -0.032 26 30 15
304.1950 355.5740 -41.9838 0.312 -0.950 -0.026 29 33 16
286.2750 369.7628 -45.0899 0.799 -0.571 0.189 26 29 21
305.3786 356.0066 -43.5945 0.312 -0.950 -0.026 45 47 34
338.1167 346.0425 -41.4211 0.681 -0.534 0.502 35 38 31
322.2285 479.0540 -60.5956 -0.466 -0.877 0.120 39 51 29
262.4930 330.7855 -42.0919 0.382 -0.885 0.267 31 40 23
329.1340 337.9906 -42.0823 0.321 -0.829 0.457 45 48 41
328.6170 336.1397 -41.8409 0.548 -0.674 0.496 45 48 41
263.3207 316.1681 -41.4908 0.271 -0.915 -0.299 34 40 28
332.5770 339.6939 -42.9807 0.521 -0.682 0.513 49 52 45
332.4306 339.3458 -43.6890 0.518 -0.690 0.505 54 57 50
319.8766 388.5614 -51.9124 -0.053 -0.983 0.174 39 41 28
254.4971 366.4083 -51.2357 -0.790 -0.603 0.106 72 87 58
255.3986 338.6430 -47.1153 0.053 -0.565 -0.824 61 71 46
373.5992 390.5974 -52.5572 0.262 -0.938 0.225 56 60 52
276.4452 323.3892 -46.4684 0.106 -0.935 -0.337 53 66 39
260.4342 317.7749 -46.7278 0.452 -0.880 0.144 66 81 48
278.8085 330.1924 -49.6706 -0.039 -0.965 -0.260 66 81 48
49.1304 249.9508 -46.6043 0.373 -0.275 0.886 61 68 47
49.8319 249.4728 -46.4996 0.059 -0.266 0.962 67 76 50
50.1508 245.1110 -46.2489 0.089 -0.268 0.959 59 68 41
128.4666 281.3891 -51.3754 0.524 -0.829 0.197 77 94 52
129.2798 287.4395 -52.4705 0.176 -0.803 0.569 77 94 52
74.3579 210.7401 -47.1195 -0.092 -0.995 -0.034 62 81 36
75.7151 208.9328 -46.6760 0.273 -0.926 0.263 74 93 48
177.5436 230.4171 -49.1791 0.623 -0.496 -0.605 73 90 48
116.1611 216.3938 -49.1219 -0.180 -0.876 0.448 56 74 34
202.3344 238.3240 -52.3834 0.350 -0.924 0.157 71 87 48
201.3514 238.0959 -53.9327 0.168 -0.972 0.162 64 78 42
224.0172 225.8890 -51.2958 -0.461 -0.883 0.093 79 93 57
221.7588 219.7011 -50.2932 0.587 -0.690 -0.424 77 91 55
218.3084 219.7443 -52.8042 -0.518 -0.531 -0.670 67 83 47
195.1043 194.3532 -48.8323 0.492 -0.593 0.638 85 103 63
194.8666 192.9256 -48.4427 0.322 -0.650 0.688 84 102 62
195.0456 194.1412 -49.1941 0.477 -0.475 0.740 81 99 59
200.9662 210.2673 -54.0027 0.737 -0.676 -0.032 88 106 68
209.0030 204.9265 -53.1534 -0.291 -0.656 0.696 67 87 50
211.0499 208.1542 -54.0233 -0.152 -0.616 0.773 79 96 60
211.7254 209.4168 -54.8256 -0.202 -0.664 0.720 72 92 55
212.5603 210.2004 -55.0290 -0.174 -0.843 0.509 73 93 56
221.1398 208.1651 -54.1886 0.399 -0.275 0.875 73 88 57
222.0885 209.0811 -54.4271 0.363 -0.274 0.891 73 88 57
217.4723 192.2476 -53.8303 -0.164 -0.984 -0.072 66 80 45
60.1420 180.3172 -55.1031 0.622 -0.633 -0.460 66 82 45
133.1093 178.9918 -52.5207 0.586 -0.794 0.163 70 84 48
170.4003 175.9677 -50.4530 -0.708 -0.694 -0.128 67 89 42
170.6653 175.6787 -50.3530 -0.708 -0.694 -0.128 67 89 42
171.3201 175.3994 -50.6213 -0.510 -0.781 0.361 69 88 44
171.1821 174.9183 -50.8465 0.280 -0.860 0.426 61 79 39
171.6816 175.3219 -50.9624 0.274 -0.858 0.436 59 75 36
171.0129 175.4007 -51.3849 -0.666 -0.627 0.404 48 64 27
171.1694 174.8032 -51.1852 0.248 -0.879 0.408 49 65 28
171.6280 175.0887 -51.2648 0.230 -0.875 0.426 55 71 32
170.7190 175.5219 -51.8110 -0.692 -0.687 -0.219 45 61 24
170.9807 175.2276 -51.7064 -0.666 -0.627 0.404 45 61 24
171.1417 174.6446 -51.5098 0.248 -0.879 0.408 44 60 23
171.5979 174.9234 -51.5879 0.230 -0.875 0.426 52 68 29
170.6030 175.1003 -52.0528 -0.675 -0.606 0.421 57 73 36
170.9392 175.0275 -52.0186 -0.670 -0.622 0.405 56 72 35
171.1141 174.4862 -51.8339 0.248 -0.879 0.408 56 72 35
171.5677 174.7583 -51.9105 0.230 -0.875 0.426 56 72 33
169.5936 176.3437 -52.8757 -0.677 -0.732 -0.073 69 85 48
170.5034 173.6717 -51.9555 0.202 -0.854 0.480 63 79 42
170.8426 173.6182 -51.9275 0.114 -0.859 0.499 63 79 42
171.6376 174.8823 -52.3262 0.214 -0.887 0.408 61 77 38
168.6811 172.4124 -51.9599 -0.652 -0.684 0.326 70 86 49
180.6145 172.1477 -51.5132 0.245 -0.951 -0.187 72 91 46
181.2606 172.8498 -51.7303 0.236 -0.957 -0.171 76 93 51
178.9071 164.0236 -48.8284 0.216 -0.975 0.054 80 94 58
182.2197 174.2160 -52.5366 0.051 -0.886 0.462 71 86 47
182.6301 174.3399 -52.5663 0.045 -0.889 0.457 71 85 49
182.6398 174.2899 -52.9243 -0.017 -0.865 0.502 69 83 47
183.1139 174.5621 -53.0032 0.104 -0.814 0.571 69 83 47
193.5963 173.2363 -52.6070 0.396 -0.603 -0.692 76 90 54
194.3011 173.9306 -52.8250 0.382 -0.618 -0.687 76 92 55
129.1588 161.0740 -51.0455 -0.086 -0.833 0.546 74 86 48
192.0339 168.5510 -52.1219 0.175 -0.940 0.294 62 78 41
192.5918 168.2985 -52.0161 0.038 -0.902 0.429 64 80 43
193.3715 169.1474 -52.2916 0.023 -0.922 0.387 65 81 44
205.3152 178.1113 -55.0884 -0.469 -0.832 0.295 78 94 57
127.6566 156.8473 -50.9493 0.499 -0.463 0.732 57 73 34
127.9908 157.0869 -51.0254 0.499 -0.463 0.732 57 73 34
157.2043 374.2227 -128.3379 -0.561 -0.736 -0.379 86 101 62
128.3365 157.1265 -51.7004 0.569 -0.535 0.625 67 85 47
159.2685 191.7238 -64.2466 0.333 -0.735 -0.591 64 80 41
119.1592 182.5507 -68.1553 -0.049 -0.687 -0.725 57 73 35
119.1586 183.4481 -68.9333 -0.038 -0.683 -0.729 54 70 32
98.4215 146.0774 -54.4776 -0.524 -0.815 -0.249 77 90 47
147.8987 338.0069 -155.7477 -0.623 -0.781 0.046 62 78 42
86.1026 218.2384 -100.1195 0.535 -0.494 0.686 65 80 37
240.6277 271.6137 -126.0245 0.582 -0.639 -0.502 57 75 37
204.4034 166.6045 -78.8136 0.711 -0.702 -0.038 54 71 39
205.5280 167.8875 -79.4877 0.709 -0.704 -0.046 55 72 39
203.4688 165.5629 -78.6397 0.737 -0.676 0.008 50 65 34
