ply
format ascii 1.0
element vertex 847
property float x
property float y
property float z
property float nx
property float ny
property float nz
property uchar diffuse_red
property uchar diffuse_green
property uchar diffuse_blue
end_header
-297.2227 49.2202 -46.6778 -0.071 -0.997 -0.019 116 119 108
-290.5569 57.3143 -46.0718 0.184 -0.924 0.337 76 80 56
-289.7660 57.3995 -45.9125 0.186 -0.928 0.323 77 81 57
-290.2002 58.0499 -46.0695 0.512 -0.761 0.398 83 87 63
-289.3282 58.0956 -45.8891 0.987 -0.021 0.158 88 91 70
-285.2610 58.4205 -45.0589 0.760 -0.563 0.324 50 51 45
-286.0688 59.2584 -45.3139 0.906 -0.367 0.209 48 49 43
-288.7098 60.9901 -46.0468 0.982 -0.096 0.160 55 56 51
-288.2234 61.2146 -45.9660 0.902 -0.145 0.407 52 55 48
-289.0310 62.0718 -46.2229 0.988 -0.094 0.121 51 54 45
-292.9029 64.4436 -47.2808 0.775 -0.437 0.457 51 54 43
-293.5984 65.2657 -47.5104 0.587 -0.810 0.011 59 64 51
-287.6195 63.2380 -46.0399 0.142 -0.983 -0.117 72 82 57
-283.5742 62.5915 -45.1174 0.164 -0.945 -0.283 74 84 58
-170.4577 235.5519 -38.3861 0.001 -0.834 0.552 44 61 29
-166.3422 229.0567 -36.8650 0.566 -0.687 -0.456 43 62 32
-336.4889 14.9576 -52.0396 0.726 -0.306 -0.616 37 38 32
-299.2759 20.3517 -44.6299 0.857 -0.438 0.271 48 51 44
-315.4729 33.2603 -49.4049 0.392 -0.219 0.894 81 83 82
-317.1354 34.1244 -49.8482 0.388 -0.183 0.903 84 86 85
-317.3926 34.5962 -49.9511 0.423 -0.174 0.889 89 91 90
-318.6413 35.3545 -50.2952 0.157 -0.570 0.806 86 88 87
-319.9050 36.5313 -50.6849 -0.024 -0.623 0.782 66 68 67
-309.0772 38.5200 -48.5715 0.328 -0.107 0.939 57 59 56
-307.0912 38.2899 -48.1235 0.281 -0.044 0.959 66 68 65
-303.2435 41.8645 -47.6638 -0.285 -0.747 0.601 149 149 149
-296.1998 41.4161 -46.1120 -0.087 -0.729 0.679 148 148 149
-297.2141 42.1794 -46.4065 0.204 -0.306 0.930 148 148 150
-296.9368 42.4831 -46.3780 0.300 -0.157 0.941 146 145 149
-302.7349 45.4082 -47.9151 0.462 -0.153 0.874 139 137 142
-287.9275 48.0012 -45.0120 0.192 -0.210 0.959 48 51 40
-285.9041 47.5787 -44.5364 -0.244 -0.663 0.708 48 51 40
-290.1522 57.1467 -46.4169 0.186 -0.928 0.323 63 69 43
-289.5340 57.3106 -46.3013 0.186 -0.928 0.323 58 65 37
-290.0006 57.9757 -46.4687 0.512 -0.761 0.398 60 67 41
-288.4091 59.4920 -46.2824 0.410 -0.902 0.136 54 57 47
-286.2013 58.8899 -45.7491 0.801 -0.488 0.345 48 52 43
-289.0238 61.6242 -46.6304 0.988 -0.094 0.121 66 71 63
-288.9774 62.0655 -46.6653 0.988 -0.094 0.121 65 71 60
-300.0823 71.0113 -49.9488 0.672 -0.109 0.732 70 83 53
-276.1419 73.8572 -45.1185 0.707 0.219 0.673 62 76 40
-276.0722 74.3153 -45.1501 0.706 0.218 0.674 61 77 37
-166.1711 209.6311 -35.3953 0.709 0.196 0.678 41 58 26
-334.5654 15.7110 -52.1558 0.754 -0.565 -0.336 42 45 38
-334.2687 16.0209 -52.1239 0.745 -0.570 -0.346 45 48 41
-334.0156 16.3386 -52.1021 0.745 -0.570 -0.346 46 51 44
-286.3760 19.8503 -42.1948 0.898 -0.370 0.237 57 60 53
-305.8669 28.3439 -47.2749 0.372 -0.637 -0.675 72 74 69
-315.6793 33.3257 -49.9053 0.413 -0.218 0.884 65 67 66
-317.1022 34.1226 -50.2945 0.431 -0.186 0.883 68 70 69
-317.9427 34.7606 -50.5416 0.489 -0.204 0.848 71 73 72
-318.5475 35.3356 -50.7314 0.162 -0.594 0.788 66 68 67
-318.5018 35.7264 -50.7620 -0.017 -0.619 0.785 51 53 52
-310.6479 35.0248 -48.9963 0.358 -0.070 0.931 71 73 72
-310.3717 35.3369 -48.9690 0.363 -0.066 0.929 84 86 85
-310.2670 35.7007 -48.9840 0.363 -0.066 0.929 104 106 103
-309.5061 37.0584 -48.9604 0.092 -0.446 0.891 143 143 141
-307.7665 37.7136 -48.6531 0.096 -0.437 0.895 143 143 141
-308.1422 38.2329 -48.7878 0.466 0.048 0.884 139 139 137
-308.2754 38.6777 -48.8625 0.467 0.050 0.883 145 145 143
-308.5932 39.1836 -48.9833 0.466 0.039 0.884 153 153 151
-295.9178 42.1277 -46.5550 0.208 -0.305 0.929 149 147 152
-296.2343 45.9182 -47.0151 0.597 -0.542 -0.591 141 144 131
-292.2005 45.1963 -46.0709 0.277 -0.728 -0.627 110 114 100
-290.1981 45.2347 -45.6432 0.271 -0.571 -0.775 80 83 70
-289.9829 45.5574 -45.6301 0.217 -0.548 -0.808 64 68 54
-289.1930 46.4701 -45.5542 0.721 -0.576 -0.385 57 60 49
-284.0172 46.8126 -44.4738 -0.226 -0.673 0.704 52 56 44
-291.1362 54.9403 -46.8488 0.449 -0.474 0.757 80 86 68
-293.1072 56.2607 -47.4102 0.909 -0.015 0.416 80 88 64
-290.3434 56.8044 -46.8706 0.314 -0.362 0.878 56 67 39
-290.2003 57.1867 -46.8793 0.270 -0.411 0.871 56 66 39
-290.4100 58.1837 -47.0276 0.311 -0.352 0.883 53 64 34
-289.9169 60.2296 -47.1328 0.376 -0.904 0.202 45 53 35
-288.3826 59.9541 -46.7735 0.390 -0.908 0.157 42 50 33
-288.7198 60.5741 -46.9103 0.368 -0.921 0.128 46 54 37
-266.6386 65.3711 -42.6459 -0.463 -0.881 0.099 54 72 40
-267.0229 67.9190 -42.9921 0.874 0.375 0.309 60 78 44
-273.8769 74.0053 -45.0990 0.830 0.100 0.549 51 69 32
-167.0134 211.8109 -36.3078 0.336 -0.551 0.764 51 68 36
-333.8195 12.7262 -52.1309 -0.106 -0.994 0.001 46 47 41
-336.7155 19.0511 -53.4256 0.910 -0.311 0.275 50 55 48
-295.9316 23.9474 -45.0770 0.225 -0.907 -0.356 63 65 60
-306.9137 27.8946 -47.8789 0.366 -0.878 0.309 69 71 66
-307.1648 28.3298 -47.9793 -0.078 -0.962 0.261 66 68 63
-305.7406 28.3163 -47.6683 -0.025 -0.960 0.278 64 66 61
-309.1891 29.9951 -48.5944 0.451 -0.660 -0.601 61 63 60
-314.4329 32.2024 -49.9662 0.418 -0.083 0.905 62 64 63
-313.4096 33.0862 -49.8367 0.325 -0.668 -0.669 81 83 82
-312.8249 33.3111 -49.7333 0.332 -0.668 -0.666 88 90 89
-317.3589 35.0027 -50.8966 0.020 -0.558 0.829 102 104 103
-316.7705 35.6366 -50.8354 0.032 -0.553 0.833 131 133 132
-307.1411 36.7318 -48.8579 0.050 -0.466 0.884 141 143 140
-306.5883 37.3516 -48.8029 0.251 -0.389 0.886 136 138 135
-306.9297 37.8578 -48.9303 0.443 0.000 0.897 142 144 141
-296.9634 41.3099 -47.1275 0.171 -0.396 0.902 157 158 158
-297.1452 41.7754 -47.2159 0.223 -0.353 0.909 158 159 159
-297.1521 42.1803 -47.2600 0.198 -0.374 0.906 159 160 160
-292.8493 44.2359 -46.5411 0.621 -0.582 -0.525 143 151 132
-293.2079 44.7789 -46.6762 0.598 -0.536 -0.596 142 149 131
-290.6883 46.6685 -46.3273 0.295 -0.540 -0.788 68 75 60
-289.0907 46.4430 -45.9564 0.634 -0.636 -0.440 50 57 42
-287.9130 46.3801 -45.6938 0.632 -0.651 -0.420 39 46 31
-286.2583 46.1202 -45.3069 0.463 -0.629 -0.624 43 49 35
-290.5787 54.7102 -47.1493 0.460 -0.458 0.761 62 73 50
-289.4096 57.2893 -47.1665 0.268 -0.425 0.865 46 61 30
-288.9201 57.9604 -47.1307 0.834 0.124 0.538 46 61 30
-290.3892 60.4739 -47.7144 0.981 0.182 0.062 48 62 33
-268.4959 68.3541 -43.7852 0.981 -0.058 0.183 52 74 38
-272.3854 71.1594 -44.9255 0.830 0.385 0.403 52 73 37
-324.9838 11.2864 -50.4860 -0.011 -0.991 -0.136 49 50 44
-319.7034 18.6272 -50.1145 0.018 -0.903 -0.430 64 67 60
-310.8091 18.1815 -48.1183 0.411 -0.649 0.640 62 65 58
-310.0812 18.7129 -48.0157 0.421 -0.655 0.627 63 66 59
-319.3222 22.1344 -50.4062 0.850 -0.484 0.208 65 68 61
-315.8532 22.0859 -49.6410 0.344 -0.625 -0.701 65 68 61
-314.8240 22.2135 -49.4292 0.359 -0.598 -0.716 63 66 59
-307.6676 23.7528 -48.0261 -0.219 -0.803 0.554 66 69 62
-296.3064 24.0501 -45.5689 0.187 -0.923 -0.335 80 82 77
-318.4467 30.9601 -51.1585 0.331 -0.925 -0.186 90 92 87
-311.0382 29.3711 -49.3655 -0.045 -0.947 0.319 92 94 89
-307.5816 28.8182 -48.5491 -0.077 -0.922 0.379 92 94 89
-316.2573 31.5416 -50.7411 0.112 -0.894 0.434 94 96 91
-315.4451 31.7097 -50.5811 0.330 -0.099 0.939 95 97 94
-315.7969 32.5873 -50.7521 0.345 -0.656 -0.672 129 131 130
-314.3724 32.9737 -50.4814 0.293 -0.692 -0.660 141 143 142
-305.1955 38.1108 -49.0205 0.457 0.049 0.888 138 143 137
-311.0323 41.6403 -50.6768 0.404 -0.033 0.914 109 114 109
-293.0989 40.3462 -46.6096 0.132 -0.499 0.856 138 145 137
-286.4878 39.5162 -45.0725 -0.295 -0.864 0.407 131 139 126
-291.8971 44.2925 -46.7685 0.087 -0.512 0.855 125 134 111
-289.2858 45.7172 -46.3488 0.147 -0.593 -0.791 48 58 35
-288.5321 46.2336 -46.2389 0.182 -0.623 -0.761 51 62 43
-287.0076 46.0300 -45.8832 0.218 -0.642 -0.735 45 57 37
-286.1831 53.6394 -46.5166 0.744 -0.183 0.642 69 86 54
-289.2487 55.4546 -47.3824 0.694 -0.284 0.661 68 85 53
-288.6252 55.6141 -47.2628 0.709 -0.276 0.649 68 85 53
-288.2066 55.8655 -47.1980 0.742 -0.277 0.611 68 85 53
-287.8161 56.1291 -47.1407 0.748 -0.265 0.608 47 64 32
-315.5856 14.0393 -49.1371 0.913 -0.075 -0.401 57 62 55
-312.8909 14.8751 -48.6330 0.924 0.016 -0.383 58 63 56
-317.3519 17.8027 -49.9365 0.951 -0.096 0.295 63 66 59
-317.7745 18.2379 -50.0772 0.953 -0.151 0.263 61 64 57
-317.2320 18.4779 -49.9835 0.878 -0.287 0.383 61 64 57
-318.4313 19.0770 -50.3135 -0.038 -0.911 -0.412 62 65 58
-315.2137 20.1659 -49.7214 0.903 -0.421 0.082 65 68 61
-311.3384 22.1369 -49.0801 0.825 -0.086 -0.558 66 69 62
-304.4139 21.5775 -47.4902 0.775 -0.247 -0.582 67 70 63
-337.7372 33.9657 -56.1962 0.620 0.067 0.782 81 83 78
-337.5608 34.3414 -56.1981 0.853 -0.091 0.515 94 99 93
-316.6686 30.8821 -51.2084 0.242 -0.957 -0.161 103 105 100
-314.7201 30.7460 -50.7633 0.011 -0.737 0.676 108 110 105
-309.1511 33.0503 -49.7842 -0.255 -0.743 0.619 146 150 151
-305.7538 36.7121 -49.4323 0.092 -0.213 0.973 90 100 88
-304.5841 38.7207 -49.3925 0.073 -0.222 0.972 121 130 114
-312.1220 44.1196 -51.6443 -0.201 -0.951 -0.235 80 90 73
-283.8028 39.3052 -44.8671 0.640 -0.673 -0.371 106 119 98
-290.3147 43.7025 -46.7834 0.107 -0.474 0.874 74 86 62
-292.3719 48.1998 -47.7269 0.397 -0.287 0.872 44 58 35
-276.4649 45.2927 -43.8980 0.202 -0.902 -0.380 34 54 24
-275.1002 45.4976 -43.6190 0.105 -0.952 -0.289 35 55 23
-171.4076 198.2401 -37.3361 0.565 -0.667 0.486 51 67 31
-170.7100 197.1725 -37.0660 0.626 -0.462 0.628 51 66 31
-170.2844 197.1778 -36.9726 0.639 -0.468 0.610 52 69 33
-313.3469 13.9606 -49.0459 0.946 0.010 -0.323 62 67 60
-313.8091 14.3810 -49.1953 0.944 0.022 -0.330 61 66 59
-319.3338 16.8035 -50.6927 0.200 -0.968 -0.149 69 74 67
-318.0778 17.2533 -50.4629 0.227 -0.965 -0.130 71 76 69
-318.5787 17.7020 -50.6240 0.068 -0.736 0.674 70 75 68
-317.3211 17.7992 -50.3549 0.071 -0.730 0.680 75 78 71
-316.5924 18.0005 -50.2150 0.071 -0.730 0.680 77 80 73
-315.6962 18.1659 -50.0338 0.075 -0.728 0.681 78 81 74
-315.0898 21.2074 -50.2351 0.911 -0.375 0.172 65 68 61
-313.5242 21.2159 -49.8876 0.886 -0.359 0.293 65 68 61
-312.8560 21.4212 -49.7616 0.892 -0.341 0.298 65 68 61
-311.7543 21.5271 -49.5281 0.947 -0.264 0.183 68 71 64
-303.9276 20.7800 -47.7035 0.312 -0.762 -0.567 71 74 67
-301.3885 20.5303 -47.1108 0.336 -0.694 -0.636 71 74 67
-298.1991 22.1435 -46.5793 -0.188 -0.693 0.696 66 69 62
-337.2676 33.4331 -56.5230 0.620 0.067 0.782 83 88 82
-310.0889 27.6389 -49.8332 0.236 -0.929 0.283 105 110 104
-317.7546 31.1790 -51.9308 -0.231 -0.679 0.697 130 136 130
-313.5012 31.1928 -50.9857 -0.181 -0.623 0.761 144 149 145
-312.0046 31.1672 -50.6498 -0.181 -0.623 0.761 130 136 132
-306.8582 30.8778 -49.4723 -0.208 -0.678 0.705 132 140 140
-305.5209 30.8772 -49.1746 -0.239 -0.681 0.692 137 146 145
-303.3626 31.3860 -48.7505 -0.214 -0.658 0.722 125 134 133
-298.4328 32.9202 -47.8230 0.280 -0.016 0.960 128 141 121
-303.6984 36.0774 -49.3440 0.134 -0.199 0.971 79 94 73
-314.0640 43.0855 -52.4260 0.934 -0.103 -0.341 100 114 90
-312.9426 44.4106 -52.3229 -0.196 -0.950 -0.245 79 92 68
-312.8982 46.1154 -52.5015 0.000 -0.678 -0.735 94 110 83
-289.9491 39.6338 -46.6771 0.469 -0.202 0.860 79 95 67
-289.7987 39.9679 -46.6806 0.469 -0.202 0.860 63 79 52
-281.2725 37.6349 -44.5249 -0.233 -0.964 -0.127 74 90 63
-280.9306 38.2551 -44.5174 0.898 -0.427 -0.107 84 100 74
-286.8429 42.3924 -46.2908 0.747 -0.445 -0.495 54 66 42
-291.3371 45.3232 -47.6151 0.449 -0.017 0.893 65 77 53
-290.2898 46.5513 -47.5178 0.343 -0.284 0.895 52 66 43
-289.7808 46.7601 -47.4276 0.354 -0.267 0.896 49 63 40
-275.7772 44.2344 -44.0316 0.853 0.152 0.499 46 62 37
-276.5933 45.3613 -44.3379 0.203 -0.899 -0.389 40 60 30
-171.3076 198.0909 -37.7926 0.572 -0.657 0.491 57 69 33
-313.5329 13.6639 -49.4662 0.581 -0.382 -0.718 57 62 55
-312.7631 13.8537 -49.3148 0.589 -0.356 -0.726 56 61 54
-313.3717 14.3007 -49.5016 0.972 -0.132 -0.195 56 61 54
-318.6225 16.6673 -50.9454 -0.005 -0.696 0.718 79 84 77
-317.9245 16.8779 -50.8125 0.006 -0.703 0.711 80 85 78
-317.5441 17.1500 -50.7577 0.052 -0.653 0.756 81 86 79
-316.8482 17.3588 -50.6251 0.052 -0.653 0.756 82 87 80
-315.0192 17.3379 -50.2125 0.110 -0.724 0.680 80 83 76
-314.4804 17.5739 -50.1181 0.114 -0.740 0.663 76 79 72
-314.7365 17.9720 -50.2203 0.096 -0.727 0.680 75 78 71
-323.4800 20.1266 -52.4237 0.328 -0.945 -0.017 73 76 69
-311.5763 21.1379 -49.8672 0.969 -0.209 -0.131 65 68 62
-310.4682 21.2401 -49.6301 0.955 -0.274 -0.115 70 73 67
-295.7284 20.5363 -46.2446 0.883 -0.110 -0.456 82 85 78
-308.3844 27.2024 -49.8327 0.384 -0.798 0.465 110 115 109
-293.1342 24.6049 -46.1199 0.483 -0.347 0.804 126 136 128
-306.9025 29.3976 -49.7469 0.648 -0.208 0.733 127 135 130
-301.6288 30.5217 -48.6903 -0.296 -0.777 0.556 136 147 145
-299.1005 30.1623 -48.0828 -0.273 -0.762 0.587 133 145 143
-296.5835 29.7973 -47.4772 -0.259 -0.768 0.586 134 146 144
-297.8641 30.9025 -47.8886 0.995 0.072 -0.071 136 148 143
-298.2748 31.7627 -48.0774 0.842 0.209 -0.498 140 156 141
-295.9037 31.4204 -47.5070 0.952 0.223 -0.211 140 157 135
-295.5376 32.0452 -47.4952 0.943 0.161 -0.291 119 138 111
-324.4048 47.4278 -55.6991 -0.102 -0.892 -0.440 72 87 62
-288.1049 42.0948 -46.9572 0.812 -0.171 -0.557 77 87 62
-288.5413 42.6549 -47.1180 0.807 -0.177 -0.563 72 82 58
-288.1969 42.9208 -47.0707 0.781 -0.323 -0.534 68 78 54
-287.9310 43.2166 -47.0443 0.962 -0.139 -0.237 66 76 52
-287.6273 43.4979 -47.0077 0.958 -0.116 -0.261 65 75 51
-287.3702 43.7972 -46.9837 0.960 -0.116 -0.255 65 75 51
-290.8694 45.5629 -47.9670 0.458 -0.004 0.889 66 76 52
-274.8126 43.4579 -44.1287 -0.212 -0.661 0.719 41 54 33
-177.4770 215.4183 -41.6187 0.266 -0.879 0.395 57 74 37
-175.9430 214.9042 -41.2168 0.402 -0.916 -0.002 63 73 38
-171.1066 197.5408 -38.1807 0.589 -0.511 0.626 63 73 38
-170.6671 197.4979 -38.0773 0.715 -0.503 0.485 62 73 38
-172.0641 210.2951 -39.8288 0.573 -0.550 -0.608 65 75 40
-171.7345 210.7827 -39.8096 0.574 -0.554 -0.603 65 75 40
-140.7881 194.3145 -31.0173 0.353 -0.808 -0.472 58 44 35
-312.6689 10.5640 -49.3289 0.813 -0.538 -0.223 62 63 56
-312.5514 10.8671 -49.3369 0.848 -0.491 -0.200 64 65 58
-312.7236 11.5458 -49.4533 0.694 -0.002 -0.720 66 67 61
-313.5284 12.0136 -49.6887 0.684 -0.010 -0.730 66 70 64
-313.5759 12.3504 -49.7379 0.684 -0.010 -0.730 71 76 69
-313.9461 12.7461 -49.8667 0.684 -0.008 -0.730 72 77 70
-314.2525 13.1325 -49.9801 0.581 -0.370 -0.725 74 79 73
-313.8458 13.7233 -49.9556 0.581 -0.370 -0.725 79 84 78
-313.6100 14.0130 -49.9354 0.586 -0.363 -0.724 81 86 80
-313.7594 14.3753 -50.0106 0.588 -0.368 -0.721 83 88 82
-317.6849 16.4871 -51.1391 0.008 -0.697 0.717 87 92 86
-317.5346 16.8037 -51.1413 0.008 -0.692 0.721 86 91 85
-317.2519 17.0946 -51.1106 0.019 -0.677 0.736 87 92 86
-316.4680 17.2854 -50.9552 0.019 -0.677 0.736 84 89 83
-315.4640 17.4302 -50.7447 0.096 -0.732 0.674 64 69 63
-314.7858 17.6387 -50.6152 0.096 -0.732 0.674 52 54 50
-314.1103 17.8464 -50.4862 0.096 -0.732 0.674 52 54 51
-313.5608 18.0789 -50.3885 0.097 -0.748 0.656 55 57 54
-307.7419 17.8868 -49.0511 -0.023 -1.000 -0.006 66 68 64
-303.3316 18.2826 -48.0993 0.797 -0.505 -0.332 75 77 75
-309.6708 20.0179 -49.7305 0.233 -0.514 -0.826 71 73 71
-309.8643 20.4086 -49.8189 0.306 -0.511 -0.803 67 69 67
-310.8561 20.9801 -50.1083 0.970 -0.206 -0.127 64 66 64
-306.7795 20.4095 -49.1216 0.933 -0.359 0.008 77 82 78
-305.7209 20.8581 -48.9335 0.419 -0.775 -0.472 83 88 81
-303.3149 20.6463 -48.3654 0.222 -0.711 -0.667 82 87 81
-302.3264 20.7577 -48.1547 0.222 -0.711 -0.667 79 84 78
-301.1593 25.3323 -48.4131 0.086 -0.996 -0.024 120 129 121
-304.8238 28.4684 -49.5996 0.849 -0.357 0.388 131 141 132
-306.6499 30.0821 -50.1967 0.604 -0.285 0.744 137 150 143
-305.3044 30.0818 -49.8925 0.100 -0.689 0.718 140 152 146
-302.8122 29.7552 -49.2918 -0.294 -0.740 0.605 142 154 148
-291.2433 28.6036 -46.5450 0.942 0.334 0.038 154 167 161
-293.7343 29.6921 -47.2324 0.979 0.158 -0.124 149 162 155
-279.9484 42.8568 -45.6189 0.243 -0.175 0.954 54 68 45
-276.0657 43.6054 -44.8267 -0.234 -0.761 0.606 39 53 30
-170.9578 197.1968 -38.6018 0.589 -0.511 0.626 68 78 41
-170.1846 199.2600 -38.6625 0.658 -0.525 0.540 71 82 47
-169.9375 200.0026 -38.6915 0.661 -0.514 0.547 71 83 47
-313.4935 11.6812 -50.0513 0.675 -0.019 -0.738 86 87 86
-314.1695 12.4572 -50.2953 0.684 -0.010 -0.730 97 101 98
-314.2971 12.8105 -50.3654 0.681 -0.011 -0.732 97 102 98
-314.6382 14.5422 -50.6439 0.594 -0.366 -0.716 90 94 91
-317.3515 15.3935 -51.3608 0.900 -0.112 -0.421 70 72 70
-317.4538 15.7557 -51.4261 0.198 -0.736 0.648 63 65 62
-317.1996 16.0505 -51.4024 0.018 -0.676 0.736 60 62 59
-315.5621 16.4187 -51.0721 0.022 -0.670 0.742 51 53 50
-315.8788 16.8251 -51.1913 0.008 -0.690 0.724 45 47 44
-315.5426 17.1030 -51.1470 0.019 -0.677 0.736 42 44 42
-312.9447 20.7447 -50.9775 0.250 -0.502 -0.828 80 82 81
-306.5962 21.0634 -49.5682 0.342 -0.818 -0.462 114 119 113
-294.3683 20.8808 -46.7613 -0.206 -0.816 0.539 118 123 117
-291.8664 20.5972 -46.1584 -0.167 -0.783 0.600 117 122 116
-289.5316 20.6729 -45.6353 -0.223 -0.778 0.588 33 40 33
-301.4887 25.4235 -48.9103 0.083 -0.995 -0.050 131 141 133
-300.8880 25.6214 -48.7964 0.820 -0.273 0.503 144 154 145
-303.9391 27.8696 -49.7522 0.713 -0.310 0.629 137 147 139
-304.1449 28.6576 -49.8905 0.811 -0.356 0.465 137 148 140
-303.9985 28.9854 -49.8951 0.811 -0.356 0.465 146 157 148
-304.2096 29.4128 -49.9928 0.814 -0.354 0.460 146 159 150
-294.5759 27.4477 -47.5702 -0.104 -0.962 0.252 138 151 141
-292.4154 29.3105 -47.2940 0.951 0.065 -0.303 115 128 117
-299.2410 32.0675 -49.1687 0.873 0.254 -0.417 71 86 67
-266.6231 47.6605 -43.5463 -0.380 -0.925 0.006 49 66 34
-170.0531 198.9793 -39.0957 0.658 -0.525 0.540 75 86 52
-169.7494 199.4876 -39.0855 0.658 -0.521 0.543 75 87 51
-169.4267 199.9200 -39.0621 0.658 -0.521 0.543 75 87 51
-169.1036 200.3529 -39.0387 0.658 -0.521 0.543 75 87 51
-313.0249 11.2748 -50.3046 0.593 -0.036 -0.804 105 106 110
-313.9420 11.7606 -50.5724 0.669 -0.026 -0.743 105 106 109
-314.7171 12.2253 -50.8050 0.684 -0.010 -0.730 92 93 95
-315.6444 13.7225 -51.1943 0.581 -0.061 -0.812 83 84 85
-315.2238 14.3169 -51.1677 0.602 -0.040 -0.797 93 94 95
-316.7921 15.6312 -51.6825 0.300 -0.811 0.503 74 75 76
-313.8986 16.0944 -51.0728 0.102 -0.685 0.722 70 71 73
-307.4662 17.8346 -49.8011 0.004 -0.999 0.044 89 90 93
-306.2137 17.9055 -49.5220 -0.013 -0.990 0.139 90 91 95
-308.3680 19.3930 -50.1917 0.716 -0.568 -0.406 110 112 111
-308.1253 19.6838 -50.1702 0.716 -0.568 -0.406 118 119 121
-312.9988 21.4689 -51.4993 0.969 -0.128 0.211 133 135 134
-312.0750 21.6157 -51.3045 0.723 -0.258 0.640 136 141 137
-304.0405 20.8227 -49.3666 -0.105 -0.975 -0.194 131 136 130
-291.1192 20.4177 -46.3527 -0.180 -0.785 0.593 130 135 129
-289.6294 20.3759 -46.0057 -0.170 -0.771 0.613 70 75 69
-287.9105 20.2721 -45.5989 -0.215 -0.791 0.572 36 43 36
-303.9360 25.7061 -49.9178 -0.103 -0.952 0.287 130 140 132
-300.6666 25.5693 -49.1512 0.164 -0.814 -0.557 155 165 157
-299.3448 25.5756 -48.8485 0.919 -0.239 0.314 140 150 142
-299.8031 27.1195 -49.1355 0.925 -0.046 0.376 141 151 142
-300.5653 27.6863 -49.3773 0.908 -0.042 0.416 140 152 141
-301.3541 28.6283 -49.6693 0.548 -0.753 -0.364 108 122 107
-294.2202 27.3544 -47.8816 -0.195 -0.920 0.339 93 107 92
-293.0070 27.3643 -47.6042 -0.170 -0.904 0.392 85 99 84
-292.2144 27.4903 -47.4371 -0.090 -0.891 0.445 80 95 78
-290.8623 27.8035 -47.1636 0.193 -0.415 0.889 94 109 92
-290.6700 28.0985 -47.1542 0.208 -0.409 0.888 85 99 82
-280.7497 34.9184 -45.6801 -0.181 -0.779 0.600 85 99 73
-268.2572 32.5812 -42.5370 0.603 -0.123 0.788 84 100 73
-276.4988 43.0372 -45.6604 -0.337 -0.801 0.494 48 61 41
-273.9855 42.3888 -45.0071 -0.330 -0.807 0.490 48 61 41
-314.2500 10.8345 -50.9428 0.532 -0.239 -0.812 58 59 66
-314.1246 11.1391 -50.9502 0.532 -0.239 -0.812 52 52 59
-315.7882 17.1572 -52.0546 0.786 -0.025 -0.618 100 101 105
-315.2284 18.0841 -52.0360 0.770 -0.024 -0.637 95 96 100
-315.2368 18.4342 -52.0798 0.405 -0.795 -0.453 102 103 107
-313.4025 18.4010 -51.6515 0.082 -0.987 -0.136 111 112 116
-309.7288 17.9757 -50.7509 -0.019 -1.000 -0.013 119 120 124
-306.2518 18.9328 -50.0610 0.812 -0.437 -0.387 140 141 143
-318.7478 22.0342 -53.3225 0.393 -0.873 -0.290 144 145 147
-305.7463 21.2222 -50.2179 -0.115 -0.986 -0.118 122 127 121
-301.7924 20.6456 -49.2343 -0.115 -0.986 -0.118 117 122 116
-300.5497 20.6939 -48.9526 -0.024 -0.964 -0.264 112 117 111
-297.1937 20.2373 -48.1217 0.043 -0.997 0.065 110 115 109
-299.2226 25.5493 -49.2263 0.919 -0.239 0.314 138 148 140
-298.0298 25.5857 -48.9547 0.942 -0.335 -0.004 135 145 137
-297.5364 25.8056 -48.8669 0.108 -0.976 0.190 131 141 133
-297.1794 26.7675 -48.8993 0.875 -0.093 0.474 113 125 112
-296.8694 27.0369 -48.8598 0.634 -0.772 -0.055 85 97 81
-292.3938 27.1974 -47.8437 -0.179 -0.905 0.386 76 91 69
-290.4948 27.3551 -47.4233 0.016 -0.602 0.798 78 94 70
-289.8334 27.5131 -47.2892 0.143 -0.425 0.894 77 93 68
-290.2466 27.9824 -47.4409 0.194 -0.444 0.875 73 89 64
-295.0879 31.2065 -48.9464 0.948 0.175 -0.266 75 91 65
-279.0094 33.9611 -45.5565 0.056 -0.817 -0.574 88 102 77
-277.5578 33.8118 -45.2029 0.056 -0.817 -0.574 89 103 77
-276.1150 33.6604 -44.8510 0.047 -0.828 -0.559 88 104 77
-278.9178 43.2598 -46.6473 -0.357 -0.810 0.466 70 84 61
-272.4728 41.7789 -44.9794 -0.334 -0.805 0.490 54 68 44
-256.6653 43.7790 -41.5620 0.042 -0.919 -0.392 54 71 37
-317.1548 14.0017 -52.4132 0.607 -0.056 -0.793 120 121 123
-316.9533 14.3032 -52.4028 0.593 -0.052 -0.804 120 121 123
-315.9307 14.4520 -52.1825 0.605 -0.388 -0.695 120 121 123
-316.6106 17.6718 -52.7318 0.936 0.001 -0.351 101 102 104
-313.6465 18.4549 -52.1361 0.023 -0.994 -0.102 124 125 127
-300.2546 15.9863 -48.7151 0.682 -0.513 -0.521 128 129 131
-300.1373 16.6125 -48.7638 0.685 -0.516 -0.514 139 140 142
-300.2355 16.9606 -48.8290 0.677 -0.534 -0.507 141 142 144
-311.0114 21.3829 -51.8773 0.900 -0.213 0.381 122 126 125
-302.7369 20.8705 -49.8866 -0.109 -0.987 -0.122 114 119 113
-302.7377 21.2134 -49.9284 -0.058 -0.984 -0.168 110 115 109
-295.9787 20.2856 -48.2405 -0.057 -0.954 -0.295 111 116 110
-294.0607 20.1568 -47.7778 -0.076 -0.955 -0.286 115 120 114
-289.7586 19.7668 -46.7277 -0.185 -0.813 0.552 137 142 136
-296.7569 25.9539 -49.1099 0.951 0.017 0.308 86 96 89
-303.4166 29.2135 -51.0577 0.819 -0.541 0.192 77 93 67
-303.2652 29.5405 -51.0621 0.779 -0.595 0.199 77 93 66
-293.4864 27.1615 -48.4942 -0.216 -0.870 0.443 77 93 66
-291.9427 27.0765 -48.1241 -0.196 -0.882 0.428 77 93 66
-289.1248 27.3153 -47.4963 0.143 -0.425 0.894 86 102 73
-290.9891 28.2057 -48.0389 0.947 0.058 -0.316 82 98 69
-274.8013 39.7242 -45.6642 0.045 -0.243 0.969 75 90 60
-317.1820 13.6705 -52.7987 0.918 0.174 -0.356 128 129 131
-317.7886 14.1192 -52.9965 0.811 0.039 -0.584 129 131 130
-304.1919 14.1948 -49.8130 -0.008 -0.924 0.381 128 129 131
-302.8592 14.2551 -49.5074 -0.001 -0.917 0.398 126 127 129
-318.2790 17.6600 -53.5478 0.947 -0.120 -0.297 126 127 129
-316.7990 17.7124 -53.2067 0.969 -0.060 -0.239 124 125 127
-300.0598 14.9792 -48.9393 0.786 -0.617 0.027 126 127 129
-298.3949 16.2430 -48.7040 0.732 -0.318 -0.602 144 145 147
-299.3882 20.4290 -49.4529 -0.041 -0.980 -0.196 121 126 120
-294.6984 19.6538 -48.2561 -0.072 -0.992 -0.109 117 122 116
-293.1980 19.6250 -47.9003 -0.059 -0.972 -0.229 113 118 112
-288.0732 19.3589 -46.6641 -0.161 -0.775 0.612 134 139 133
-285.0053 19.8782 -46.0076 0.343 -0.024 0.939 63 73 65
-291.6185 26.9914 -48.4369 -0.191 -0.862 0.469 77 94 63
-291.4441 27.2912 -48.4328 -0.088 -0.918 0.387 78 95 63
-291.0320 27.5231 -48.3646 -0.001 -0.584 0.812 82 99 67
-288.7481 27.5604 -47.8329 -0.244 -0.631 0.737 83 100 68
-288.8052 27.9254 -47.8913 -0.302 -0.667 0.681 84 101 68
-266.5056 27.0209 -42.5434 -0.023 -0.942 -0.335 74 90 64
-265.4929 27.0067 -42.3038 -0.055 -0.913 0.405 73 89 63
-264.9856 27.1585 -42.2034 -0.066 -0.893 0.444 77 94 68
-263.9965 27.1468 -41.9697 -0.069 -0.888 0.455 81 98 72
-281.1926 34.7401 -46.9432 0.005 -0.856 -0.517 62 81 51
-276.8922 34.3105 -45.8804 0.047 -0.828 -0.559 58 78 45
-273.8744 39.3721 -45.7954 0.045 -0.243 0.969 69 88 54
-273.5501 39.6157 -45.7492 0.045 -0.243 0.969 63 82 48
-315.7723 10.1144 -52.4404 0.635 -0.219 -0.741 124 124 132
-317.0301 10.9785 -52.8460 0.616 -0.216 -0.757 122 122 130
-318.0108 11.8071 -53.1816 0.530 -0.324 -0.783 126 127 132
-318.2069 12.5091 -53.3157 0.843 -0.453 -0.291 128 129 134
-319.9843 13.1579 -53.8173 0.768 -0.539 -0.347 116 117 121
-309.9413 13.0126 -51.4232 0.459 -0.887 0.052 138 139 141
-300.7672 12.8898 -49.2374 -0.047 -0.992 -0.118 139 140 142
-295.2125 12.7422 -47.9048 -0.079 -0.994 0.077 140 141 143
-292.1947 12.7547 -47.1925 0.831 -0.280 0.481 128 129 131
-306.8577 20.1054 -51.5803 0.138 -0.763 -0.632 124 126 125
-305.8219 20.2161 -51.3490 0.136 -0.764 -0.631 129 134 130
-305.5665 20.5022 -51.3244 0.068 -0.887 -0.458 125 130 124
-297.4672 19.9809 -49.3431 -0.042 -0.968 -0.246 107 112 106
-295.1443 19.7638 -48.7664 -0.038 -0.971 -0.237 112 117 111
-288.9017 19.2437 -47.2245 -0.111 -0.989 -0.095 108 113 107
-286.8753 19.0702 -46.7234 -0.162 -0.774 0.612 119 124 118
-284.1346 19.6633 -46.1492 0.335 -0.033 0.942 56 66 58
-301.6798 25.1469 -50.9855 -0.103 -0.980 0.171 80 90 82
-292.9957 25.6430 -48.9930 0.942 -0.150 0.300 88 101 82
-292.9347 25.9731 -49.0198 0.942 -0.150 0.300 78 92 64
-294.9471 26.8788 -49.6091 0.911 -0.191 0.367 78 95 61
-295.8141 27.4738 -49.8886 0.881 -0.234 0.410 77 94 60
-296.0608 27.8989 -50.0001 -0.124 -0.948 0.293 77 94 60
-285.7043 26.6812 -47.3978 -0.254 -0.791 0.556 71 88 56
-283.5228 26.3838 -46.8445 -0.289 -0.763 0.578 76 93 59
-270.0990 27.5590 -43.8156 -0.000 -0.933 -0.360 61 83 52
-267.3462 27.3069 -43.1328 -0.005 -0.958 -0.285 62 83 52
-319.5040 11.7287 -53.9455 0.581 -0.270 -0.768 128 128 136
-317.4283 12.0409 -53.4903 0.461 -0.191 0.866 130 130 138
-316.6944 12.5795 -53.3837 0.285 -0.329 0.900 140 141 145
-311.6287 12.3397 -52.1460 0.210 -0.902 0.377 142 143 147
-293.3638 10.8572 -47.6048 -0.048 -0.768 0.638 140 141 143
-292.0164 12.7211 -47.5201 0.831 -0.280 0.481 131 132 134
-299.0141 16.7067 -49.6933 0.814 -0.237 0.531 140 141 145
-307.3572 19.1890 -51.9965 0.847 -0.488 -0.212 139 140 142
-307.4931 19.5622 -52.0762 0.814 -0.526 -0.246 138 139 141
-292.4558 19.7833 -48.5203 -0.118 -0.975 -0.188 80 85 79
-279.9335 18.2987 -45.3476 -0.214 -0.791 0.574 64 71 64
-276.7838 26.7145 -45.6641 0.867 -0.299 0.399 71 91 63
-277.0996 28.4895 -45.9645 -0.075 -0.953 -0.292 65 90 57
-275.5390 28.3290 -45.5721 -0.099 -0.959 -0.266 66 91 57
-270.9455 27.8434 -44.4158 -0.003 -0.936 -0.352 57 82 46
-269.5184 27.7049 -44.0581 -0.003 -0.936 -0.352 57 83 47
-267.7723 27.4560 -43.6104 -0.011 -0.941 -0.337 57 83 47
-236.8642 35.1190 -37.2156 -0.445 -0.757 0.478 50 70 33
-300.7119 7.0350 -49.2506 0.621 -0.197 0.759 140 140 148
-300.6082 7.3179 -49.2621 0.621 -0.197 0.759 136 137 142
-316.3704 11.5281 -53.5880 0.384 -0.280 0.880 133 133 141
-296.4716 12.3742 -48.9193 0.119 -0.988 -0.099 141 140 145
-295.4240 12.7885 -48.7210 0.099 -0.935 -0.341 141 142 145
-294.1657 12.8475 -48.4265 0.093 -0.939 -0.331 139 140 142
-295.2391 14.9428 -48.9537 0.911 0.178 0.373 139 140 142
-295.5276 15.3207 -49.0716 0.912 0.174 0.372 140 141 143
-296.2678 15.7972 -49.3106 0.883 0.137 0.449 143 144 146
-296.2939 16.1232 -49.3588 0.883 0.137 0.449 140 141 143
-305.9251 18.8786 -52.0256 0.803 -0.359 -0.477 130 131 134
-292.6359 16.2820 -48.5010 0.901 -0.290 -0.323 124 125 126
-291.8087 17.0509 -48.4013 0.257 -0.496 -0.829 96 101 97
-291.8317 17.3753 -48.4485 0.121 -0.812 -0.571 94 99 92
-288.5533 19.4898 -47.9334 0.312 -0.555 -0.771 67 72 66
-299.1280 26.6174 -51.3890 0.957 -0.103 0.270 74 81 71
-299.0094 26.9420 -51.4022 0.956 -0.103 0.274 73 82 69
-270.1748 25.0086 -44.2307 0.259 -0.544 0.799 64 88 56
-269.0176 25.2871 -43.9886 0.279 -0.544 0.792 63 86 57
-146.0280 179.2263 -34.2591 0.123 -0.922 0.368 48 43 37
-298.5684 12.1589 -49.7799 0.551 0.166 0.818 140 141 143
-297.7164 13.5596 -49.7565 -0.004 -0.965 -0.262 141 142 142
-295.9669 13.5223 -49.3286 0.024 -0.947 -0.320 139 143 141
-293.5216 14.2714 -48.8349 0.973 0.220 0.072 142 144 143
-293.5912 14.5989 -48.8944 0.973 0.220 0.072 142 144 143
-293.6448 14.9242 -48.9498 0.973 0.219 0.067 146 148 146
-293.7151 15.2541 -49.0098 0.973 0.219 0.067 149 151 149
-293.7856 15.5853 -49.0701 0.973 0.219 0.067 141 143 141
-295.7556 16.3308 -49.6438 0.882 0.246 -0.402 130 132 130
-276.1097 18.2608 -45.1441 -0.173 -0.796 0.579 66 74 63
-286.6105 21.9295 -48.1622 0.737 -0.206 0.643 68 76 65
-286.1268 22.1303 -48.0714 0.831 -0.198 0.520 67 77 66
-286.0417 22.4363 -48.0908 0.831 -0.198 0.520 67 78 64
-299.4003 7.4206 -49.7410 0.629 -0.165 0.759 142 142 150
-299.4889 7.7350 -49.8042 0.623 -0.251 0.741 142 142 150
-299.5158 8.3416 -49.8910 0.371 -0.382 0.846 143 143 153
-304.9231 11.7743 -51.6622 -0.008 -0.994 -0.109 141 142 143
-303.4708 11.8249 -51.3151 -0.080 -0.997 0.015 142 143 144
-298.6613 12.4912 -50.2315 0.544 0.160 0.824 140 142 140
-296.0336 12.9137 -49.6473 0.030 -0.984 -0.177 133 138 135
-292.8317 12.8925 -48.8645 -0.016 -0.997 -0.081 141 146 141
-291.6377 14.5012 -48.7864 0.978 0.159 0.138 143 148 142
-296.0652 16.4014 -50.1162 0.885 0.248 -0.394 106 111 104
-296.6736 17.8327 -50.4537 0.600 -0.540 -0.590 68 76 64
-293.4174 18.3922 -49.7344 0.167 -0.604 -0.779 56 69 53
-291.4156 19.5456 -49.3993 0.311 -0.460 -0.831 61 74 58
-291.2569 19.8336 -49.3987 0.311 -0.460 -0.832 61 74 58
-279.7480 18.5755 -46.4287 0.234 -0.961 -0.146 63 71 57
-279.0795 18.7160 -46.2844 0.234 -0.961 -0.146 62 70 57
-275.9519 18.2252 -45.4576 -0.127 -0.801 0.585 62 70 57
-270.6705 18.6572 -44.2282 -0.025 -0.992 0.125 64 72 59
-269.5770 18.6631 -43.9626 -0.025 -0.992 0.125 64 71 58
-274.8527 25.4878 -46.1502 0.565 -0.512 0.647 55 79 47
-174.6253 165.0272 -40.1864 0.980 0.200 0.019 60 81 38
-300.2150 8.1582 -50.4180 0.636 -0.259 0.727 146 147 153
-305.1457 10.5495 -51.9484 0.539 -0.270 0.798 142 143 143
-301.7176 12.1322 -51.3194 0.381 -0.920 -0.097 146 148 144
-297.6818 11.6829 -50.2689 0.534 0.091 0.841 145 150 144
-293.0617 12.3269 -49.2216 0.159 -0.863 -0.480 113 118 112
-294.0616 12.8335 -49.5349 -0.023 -0.997 -0.079 123 128 121
-292.3673 12.8011 -49.1148 -0.015 -0.995 -0.094 129 136 128
-290.3830 12.7049 -48.6150 0.131 -0.895 -0.426 130 138 127
-288.9427 12.7142 -48.2629 0.340 -0.689 -0.640 132 139 129
-289.0755 13.0448 -48.3398 0.973 0.068 -0.219 134 142 132
-289.8332 13.5072 -48.5877 0.982 0.101 -0.157 136 144 133
-290.6665 13.9891 -48.8567 0.985 0.170 0.035 135 142 132
-293.6653 15.5655 -49.8039 0.970 0.229 0.078 94 102 89
-296.4779 16.4944 -50.6185 0.904 0.199 -0.378 85 93 80
-296.7271 17.8483 -50.8611 0.622 -0.541 -0.565 58 69 53
-278.4707 18.8751 -46.5193 0.243 -0.826 -0.509 56 64 51
-277.1379 18.8413 -46.1877 0.010 -0.967 -0.254 56 64 49
-275.8948 18.8266 -45.8807 -0.001 -0.942 -0.335 56 64 49
-269.6467 18.0904 -44.2490 0.105 -0.989 -0.107 58 66 53
-268.1499 22.8366 -44.5179 -0.189 -0.907 0.375 51 74 45
-273.4574 25.0714 -46.1198 0.823 -0.211 0.528 51 75 43
-273.9877 26.2115 -46.4027 0.789 0.085 0.608 51 75 43
-177.0001 166.2454 -41.3765 -0.368 -0.927 -0.071 52 78 31
-175.2043 161.9548 -40.3608 -0.017 -0.870 -0.493 52 78 31
-135.2315 129.7380 -26.2342 0.535 -0.672 0.512 48 45 36
-134.3144 130.1652 -26.0664 0.290 -0.745 0.601 44 38 30
-304.8580 8.3204 -51.9686 0.954 0.009 0.299 158 159 163
-302.6444 8.2609 -51.4135 0.880 -0.062 0.471 156 157 161
-304.9514 9.8889 -52.2048 0.909 0.079 0.409 148 149 151
-292.1571 11.5419 -49.2675 0.542 0.194 0.817 114 119 112
-292.1724 11.8484 -49.3130 0.540 0.193 0.819 107 112 105
-291.2932 12.5868 -49.1960 0.101 -0.914 -0.393 102 110 99
-290.3452 12.6996 -48.9771 0.165 -0.876 -0.453 102 110 97
-289.2508 12.7798 -48.7175 0.324 -0.674 -0.664 100 108 95
-297.9586 17.1454 -51.4625 0.947 0.317 0.061 62 70 57
-295.6110 17.6011 -50.9443 0.980 -0.157 -0.125 57 68 52
-237.7074 6.8284 -35.1712 0.010 -0.855 -0.518 51 64 47
-278.5788 19.2181 -46.9549 0.098 -0.789 -0.607 52 60 47
-268.9862 17.9199 -44.4079 0.137 -0.774 -0.618 55 63 48
-175.5109 163.0761 -41.0287 0.126 -0.991 -0.047 49 72 26
-305.3106 8.3955 -52.4814 0.935 0.056 0.351 143 144 146
-306.7301 8.9411 -52.9098 0.860 0.067 0.506 145 146 148
-296.0431 9.8517 -50.3753 -0.118 -0.797 0.593 116 122 113
-285.0054 8.4213 -47.4312 0.340 -0.155 0.927 119 125 115
-284.3060 8.5772 -47.2786 0.393 -0.157 0.906 122 128 118
-284.4548 9.4656 -47.4380 0.426 0.150 0.892 115 120 113
-290.7892 11.8807 -49.3470 0.840 -0.429 0.333 85 91 81
-291.0714 15.3247 -49.8914 0.989 0.114 -0.093 63 71 58
-305.1632 7.7557 -52.7462 0.929 0.062 0.366 137 138 140
-282.9186 7.7557 -47.1706 0.182 -0.952 -0.247 124 129 122
-282.0963 7.8857 -46.9826 0.272 -0.943 -0.194 131 137 127
-281.8946 8.1295 -46.9660 0.371 -0.896 -0.245 129 135 125
-288.0125 10.7385 -48.8634 0.495 0.068 0.866 82 87 80
-286.5106 11.0346 -48.5283 0.483 0.070 0.873 71 77 67
-288.1632 11.6608 -49.0298 0.086 -0.942 -0.324 73 81 70
-286.8461 11.6945 -48.7044 0.095 -0.940 -0.329 72 80 67
-289.4090 12.5139 -49.4611 0.244 -0.890 -0.385 69 77 64
-288.6253 12.6564 -49.2845 0.501 -0.865 0.028 65 73 60
-287.9943 12.8287 -49.1504 0.978 0.091 -0.190 60 68 55
-299.1674 15.7864 -52.3635 0.961 0.182 -0.209 54 62 49
-284.2458 13.8428 -48.3523 0.996 0.058 0.068 64 72 61
-283.8864 14.0654 -48.2933 0.996 0.062 0.068 64 72 59
-287.4658 7.1531 -48.5837 0.681 0.086 0.728 107 109 107
-280.4312 7.8583 -46.9077 0.261 -0.725 -0.637 107 112 105
-285.7350 10.2968 -48.5910 0.493 0.144 0.858 69 74 67
-283.2239 10.3851 -47.9697 0.514 0.059 0.856 62 68 58
-284.2649 10.8833 -48.3028 0.221 -0.951 -0.215 66 74 63
-283.4828 11.0183 -48.1245 0.225 -0.952 -0.205 63 71 58
-279.5316 11.6565 -47.2174 0.779 0.246 0.576 52 60 47
-229.9021 67.7118 -42.6111 -0.047 -0.540 -0.841 48 66 28
-151.9043 172.0388 -37.6652 0.850 -0.471 0.236 61 61 49
-287.3593 6.8510 -48.8710 0.849 0.101 0.518 128 133 130
-287.2082 7.1091 -48.8696 0.963 -0.082 0.258 125 130 125
-284.8379 10.1239 -48.6986 0.568 0.193 0.800 53 58 51
-283.9940 10.2492 -48.5020 0.993 0.043 0.108 53 59 49
-279.3549 9.9035 -47.2734 0.984 0.158 0.087 52 60 47
-278.3660 9.9883 -47.0342 0.983 0.149 0.109 52 60 47
-278.1085 10.2193 -47.0018 0.983 0.151 0.101 52 60 49
-152.6953 174.7038 -38.6657 0.329 -0.384 0.863 63 64 50
-286.5710 6.1514 -48.9250 0.986 0.143 0.083 121 122 124
-286.9409 6.4964 -49.0697 0.985 0.149 0.088 117 119 118
-286.9802 6.7863 -49.1217 0.985 0.149 0.088 100 105 101
-286.5732 6.9992 -49.0484 0.357 -0.640 -0.680 50 55 49
-283.1783 10.0909 -48.6276 0.972 0.095 0.213 53 59 49
-278.3926 9.7131 -47.3480 0.985 0.156 0.079 52 60 47
-150.6380 167.5942 -37.5331 0.730 -0.134 0.670 57 57 47
-288.6152 6.2145 -49.8157 0.802 0.126 0.584 72 73 77
-286.5411 6.1470 -49.2713 0.986 0.143 0.083 52 53 55
-287.0504 6.5159 -49.4566 0.974 0.182 0.137 36 38 37
-287.4056 6.8607 -49.5988 0.999 -0.038 -0.015 31 36 32
-288.2077 7.2855 -49.8678 0.338 -0.666 -0.665 47 52 46
-283.7839 9.3458 -49.0302 0.994 0.112 -0.008 53 58 51
-283.5529 9.5890 -49.0063 0.993 0.116 -0.010 53 58 51
-280.9977 9.9498 -48.4008 0.997 0.066 0.028 53 59 49
-152.1550 168.7663 -38.5042 0.889 -0.360 0.283 62 64 51
-151.6875 168.0909 -38.2846 0.904 -0.315 0.290 61 63 49
-151.3864 168.2862 -38.2357 0.011 -0.529 0.849 61 63 47
-287.9893 6.1101 -49.9963 0.791 0.151 0.593 39 40 43
-287.6267 6.8998 -50.0196 0.998 -0.048 -0.034 51 56 52
-148.8327 181.3706 -39.9280 -0.141 -0.983 -0.120 47 44 37
-214.2239 63.1314 -39.6588 -0.181 -0.932 0.313 46 58 22
-210.1434 62.0459 -38.4295 0.677 -0.718 -0.161 41 56 15
-218.5599 74.3015 -42.8305 0.856 -0.009 0.518 49 66 24
-160.4590 141.2210 -37.7355 0.931 -0.160 0.327 65 81 45
-147.0800 179.6577 -40.0674 -0.184 -0.947 -0.263 49 49 41
-215.1803 63.1751 -40.5809 -0.334 -0.770 0.543 52 64 28
-213.6745 62.7141 -40.1112 -0.138 -0.888 0.439 53 65 29
-212.7344 62.3128 -39.8005 -0.165 -0.899 0.406 53 65 29
-218.3427 75.0919 -43.2539 0.833 -0.058 0.550 40 58 18
-218.4259 64.3037 -42.2962 -0.244 -0.939 -0.242 60 78 40
-161.5867 143.4008 -39.5174 0.211 -0.892 -0.399 48 69 28
-160.4107 141.5639 -38.9122 0.963 -0.077 -0.258 51 72 31
-159.6749 140.0728 -38.4796 0.960 -0.037 -0.279 60 79 40
-216.2612 62.9220 -41.8324 -0.339 -0.834 0.435 59 79 40
-161.5898 143.5856 -39.9326 0.211 -0.892 -0.399 50 71 30
-161.1096 143.0694 -39.7206 0.181 -0.879 -0.441 50 71 30
-161.1663 143.4508 -40.1812 0.134 -0.893 -0.430 56 77 36
-144.4342 162.2248 -38.6612 0.638 -0.425 -0.642 39 38 33
-263.6731 9.6672 -46.7876 -0.217 -0.941 0.259 55 58 52
-260.9377 11.4496 -46.3299 0.878 -0.043 -0.476 55 63 44
-161.7712 142.1465 -40.5186 0.986 -0.146 0.075 62 83 42
-161.3381 145.5011 -40.9474 0.974 -0.096 0.206 60 81 40
-209.1208 63.4774 -40.9634 0.004 -0.755 0.656 48 66 26
-145.0733 162.9492 -39.7355 0.064 -0.988 -0.138 49 51 40
-144.4804 163.1599 -39.6069 0.081 -0.995 -0.058 44 44 36
-136.4565 158.9369 -36.7002 0.133 -0.983 -0.128 39 41 30
-157.9869 157.0066 -42.7159 -0.180 -0.845 0.504 87 96 67
-146.4280 154.5748 -39.1061 0.139 -0.385 0.912 59 61 47
-145.6320 164.7894 -40.5895 -0.003 -0.993 -0.120 50 52 39
-144.7442 163.1658 -40.0725 0.081 -0.995 -0.058 51 53 42
-156.9143 143.1124 -40.4778 0.161 -0.954 0.253 73 94 53
-146.3198 154.2280 -39.3969 0.289 -0.587 0.756 60 63 46
-146.3752 167.7347 -41.6902 0.374 -0.921 0.110 39 41 27
-147.0716 160.6789 -41.0865 0.421 -0.689 0.590 57 60 43
-147.7877 172.6876 -43.3348 0.445 -0.776 0.447 36 38 24
-146.5378 169.0616 -42.3658 0.326 -0.941 0.094 32 35 18
-155.9076 143.3459 -40.9884 0.579 -0.572 0.581 79 93 60
-155.4921 142.9551 -40.8037 0.598 -0.355 0.718 81 92 62
-156.5899 142.3755 -41.3898 0.524 -0.493 0.694 58 81 39
-133.9903 153.7717 -36.9491 -0.136 -0.838 0.528 41 51 35
-155.8531 142.3793 -41.9305 0.147 -0.973 -0.179 58 83 36
-132.5403 153.6746 -37.2279 -0.050 -0.853 0.520 34 45 29
-132.2754 153.7025 -37.1566 -0.050 -0.853 0.520 34 45 29
-132.0111 153.7303 -37.0854 -0.050 -0.853 0.520 39 50 34
-154.7454 141.9470 -41.9071 0.471 -0.769 0.433 61 88 37
-132.4908 153.6305 -37.5598 -0.059 -0.871 0.487 29 40 24
-132.2151 153.5435 -37.4644 -0.051 -0.856 0.515 29 40 24
-131.9485 153.5428 -37.3870 -0.050 -0.853 0.520 36 47 31
-187.4533 94.7585 -43.2479 -0.414 -0.865 0.283 55 79 31
-187.1033 95.4297 -43.2677 -0.167 -0.939 -0.300 56 79 33
-150.9840 222.4339 -56.3047 -0.143 -0.989 0.042 40 40 30
-174.0716 232.4566 -65.4858 0.472 -0.854 -0.219 64 88 40
-141.9414 94.0800 -30.3847 0.200 -0.916 -0.348 66 90 40
-151.5214 223.7860 -57.2277 -0.085 -0.995 -0.044 42 43 30
-148.9220 133.0428 -40.0048 0.175 -0.911 -0.374 60 86 41
-209.7197 42.1639 -41.3427 -0.191 -0.739 0.646 48 70 31
-138.0658 151.5764 -40.6098 0.241 -0.960 -0.145 44 54 31
-137.7927 151.6342 -40.5392 0.241 -0.960 -0.145 45 53 32
-210.5807 40.4756 -41.5674 0.859 0.211 0.466 47 69 30
-210.5354 40.7701 -41.6100 0.698 0.056 0.714 47 69 30
-211.4084 42.3467 -42.1729 0.842 -0.196 0.503 52 74 35
-209.8883 41.9696 -41.6443 -0.191 -0.736 0.650 52 74 35
-207.9499 41.6131 -40.9941 0.524 -0.303 0.796 50 72 33
-144.6380 192.2445 -50.7002 0.872 0.204 0.445 49 62 36
-137.7379 151.5645 -40.8705 0.298 -0.945 -0.135 47 59 34
-133.8878 154.1239 -40.2020 0.162 -0.737 -0.656 36 42 28
-133.6198 154.1652 -40.1294 0.183 -0.728 -0.661 40 46 32
-210.3363 40.0088 -41.6904 0.847 0.213 0.487 47 69 30
-210.4379 40.3994 -41.7963 0.859 0.211 0.466 45 70 30
-211.2442 42.2548 -42.3971 0.707 0.046 0.706 54 79 39
-207.5027 44.9928 -41.7937 0.648 -0.343 0.681 47 69 31
-137.7254 151.8282 -41.2785 0.249 -0.956 -0.152 51 64 38
-211.3490 42.0141 -42.6735 0.884 0.219 0.414 58 85 44
-209.2098 41.2154 -41.8680 -0.172 -0.693 0.700 58 85 44
-206.8151 43.8311 -41.6486 0.203 -0.639 0.742 59 81 43
-206.5519 43.9749 -41.5965 0.203 -0.639 0.742 59 81 43
-207.0609 44.6885 -41.8899 0.698 -0.324 0.639 49 71 33
-207.7209 45.8645 -42.3191 0.596 -0.393 0.700 46 68 30
-144.3826 199.2225 -52.8758 0.549 -0.835 -0.009 56 69 43
-208.7038 40.8886 -41.9351 -0.240 -0.813 0.530 58 85 44
-208.1632 40.8424 -41.7607 -0.240 -0.813 0.530 58 85 44
-206.9704 44.6435 -42.1418 0.690 -0.332 0.644 56 78 40
-206.1333 48.8927 -42.7197 0.998 -0.053 0.033 56 77 36
-135.8838 151.1248 -41.3009 0.317 -0.603 0.732 55 64 45
-185.9840 64.4141 -39.8919 0.929 0.371 0.006 47 72 30
-184.9232 63.9672 -39.4771 0.983 0.177 -0.042 49 72 30
-139.1122 146.4802 -41.7313 0.805 -0.362 0.469 68 81 55
-135.0112 148.6532 -40.9005 -0.102 -0.919 0.381 56 65 46
-184.5955 62.3033 -39.3278 0.925 0.354 -0.139 50 75 33
-185.2074 63.4912 -39.7545 0.907 0.159 -0.389 44 69 27
-185.4169 64.1874 -39.9585 0.907 0.159 -0.389 46 69 27
-180.1865 61.8322 -37.8698 -0.098 -0.948 0.301 50 73 31
-135.6017 142.6962 -40.2438 0.014 -0.920 0.391 58 70 48
-134.2282 149.2598 -41.1310 0.815 -0.113 -0.569 61 73 52
-185.9883 65.3834 -40.6637 0.909 0.162 -0.384 44 69 27
-183.3578 67.3956 -40.2512 0.397 -0.752 0.527 43 66 23
-135.1899 141.8092 -40.2784 0.002 -0.893 0.451 65 72 54
-134.9334 141.8462 -40.2061 0.002 -0.893 0.451 64 71 53
-135.8608 167.5432 -45.6792 0.160 -0.887 -0.433 63 72 54
-187.5567 66.9388 -41.7606 0.947 0.121 -0.298 46 69 27
-180.6824 62.1333 -38.6311 -0.097 -0.930 0.353 39 61 22
-179.6019 61.5733 -38.1790 0.021 -0.965 0.260 43 66 24
-139.5401 138.9287 -41.3928 0.841 -0.535 0.078 55 78 40
-134.9888 140.4787 -40.2842 0.160 -0.668 0.727 69 78 59
-133.2379 145.7515 -40.8098 -0.010 -0.998 0.064 60 69 49
-132.9562 145.5455 -40.6798 -0.018 -0.992 0.124 57 66 45
-195.3368 50.6350 -41.1548 0.270 -0.670 0.691 49 71 33
-194.8981 50.9588 -41.0833 0.254 -0.689 0.679 39 61 23
-139.0294 137.5720 -41.2955 0.798 -0.588 0.128 50 76 35
-135.0300 128.8940 -38.2539 0.420 -0.873 0.247 61 80 47
-194.9546 50.6740 -41.3212 0.259 -0.682 0.684 51 73 34
-154.9327 270.1628 -74.1552 0.172 -0.674 0.719 47 73 34
-134.9283 128.4117 -38.4375 0.713 0.201 0.671 55 79 43
-134.5962 131.6352 -39.0006 0.292 -0.687 0.665 49 70 34
-134.4600 138.8942 -40.4623 0.268 -0.670 0.692 67 83 54
-134.2173 139.0041 -40.4083 0.172 -0.735 0.656 69 84 57
-134.1006 140.2212 -40.6237 0.179 -0.982 0.061 69 84 57
-193.6119 48.3892 -40.6948 -0.157 -0.772 0.616 54 79 39
-194.0045 50.1825 -41.1948 -0.111 -0.821 0.560 42 67 27
-135.2291 131.0847 -39.4071 0.745 0.213 0.632 50 76 37
-135.6655 136.5206 -40.6830 0.742 0.210 0.636 47 73 34
-133.9885 127.0116 -38.1603 0.218 -0.689 0.691 43 68 29
-134.6965 139.0879 -40.9115 0.023 -0.654 0.756 56 79 40
-134.1251 138.5686 -40.6210 0.282 -0.658 0.698 58 79 42
-133.5911 140.6244 -40.8810 0.160 -0.958 0.238 61 80 46
-133.3214 158.5733 -44.5494 0.198 -0.823 0.533 47 61 38
-132.1987 161.4076 -44.7848 0.185 -0.970 -0.158 48 57 39
-135.1163 128.5964 -39.1664 0.677 -0.643 0.359 48 74 35
-134.8375 128.3253 -39.0200 0.646 -0.724 0.241 46 72 33
-134.5718 138.3885 -41.0584 0.320 -0.555 0.768 50 77 33
-134.2920 138.1757 -40.9239 0.282 -0.658 0.698 51 78 34
-133.5088 158.1328 -44.8844 0.277 -0.945 0.177 58 79 41
-133.1232 157.0182 -44.5257 0.337 -0.877 0.343 56 77 40
-141.2203 189.6528 -54.4440 0.221 -0.952 -0.212 31 58 17
-134.3569 156.0256 -45.0766 0.035 -0.963 -0.267 55 81 36
-206.8686 32.2188 -42.3315 0.940 -0.086 0.330 45 67 28
-218.7017 10.4019 -41.7250 0.485 -0.329 0.810 52 78 31
-206.6127 32.3687 -42.5473 0.944 -0.131 0.302 48 73 31
-206.4676 33.1528 -42.6699 0.938 0.031 0.344 49 74 32
-218.4969 10.1215 -41.8444 0.356 -0.428 0.831 55 81 34
-206.4585 32.2907 -42.7464 0.975 -0.220 0.035 52 77 35
-206.3682 32.8158 -42.8316 0.721 -0.576 0.385 53 78 36
-206.2668 33.0450 -42.8484 0.950 0.045 0.311 52 77 35
-206.2605 33.3337 -42.9094 0.950 0.045 0.311 48 73 31
-193.0997 48.0545 -41.8171 -0.379 -0.779 0.499 53 78 38
-192.7764 48.1103 -41.7235 -0.339 -0.733 0.590 52 77 37
-206.4121 32.2781 -42.9947 0.952 -0.301 0.048 57 82 40
-212.0134 18.5500 -42.5674 0.961 0.142 0.237 48 68 31
-174.9761 65.3617 -40.7501 0.300 -0.953 -0.040 36 58 19
-210.7722 17.7874 -42.2276 0.531 -0.508 -0.678 51 71 34
-210.5866 17.9462 -42.2014 0.531 -0.508 -0.678 48 68 31
-212.1052 18.1244 -43.0037 0.931 -0.115 0.347 55 75 38
-210.7169 18.0109 -42.5081 0.309 -0.592 -0.744 43 64 25
-159.4904 81.8884 -40.1258 0.645 -0.511 0.568 48 72 32
-194.8507 27.9834 -40.6245 0.582 -0.297 0.757 54 79 40
-154.9041 83.7079 -40.0680 0.502 -0.841 -0.202 54 79 37
-192.4630 26.9810 -39.7886 0.507 -0.068 0.859 60 85 46
-155.2460 84.0383 -40.5374 0.485 -0.857 -0.174 47 72 30
-154.8979 83.7801 -40.3537 0.502 -0.841 -0.202 47 72 30
-207.5629 55.2100 -52.1693 0.526 -0.598 0.605 51 79 31
-207.1214 55.2249 -52.0179 0.522 -0.536 0.664 52 80 32
-155.2365 84.1015 -40.8212 0.485 -0.857 -0.174 44 69 27
-154.8569 83.7581 -40.6047 0.520 -0.832 -0.194 44 69 27
-153.0084 86.3996 -40.8694 -0.401 -0.916 -0.028 41 68 23
-187.3024 24.9254 -38.5912 -0.243 -0.952 -0.185 65 92 47
-175.4551 46.3408 -41.1395 0.999 -0.016 0.029 38 60 24
-174.2436 39.4246 -39.1086 0.468 -0.354 -0.810 50 72 34
-174.0729 39.5549 -39.0796 0.453 -0.370 -0.811 52 74 38
-173.9799 39.7684 -39.1013 0.459 -0.368 -0.808 52 74 38
-175.4467 46.3619 -41.3814 0.991 0.087 0.103 39 61 25
-175.4687 46.7369 -41.4883 0.991 0.087 0.103 43 65 29
-174.5916 39.8204 -39.5676 0.495 -0.352 -0.794 53 75 37
-174.4091 39.9402 -39.5314 0.506 -0.353 -0.787 55 77 41
-175.2907 46.5609 -41.6156 0.987 0.149 0.063 46 68 32
-175.4525 47.1007 -41.8191 0.985 0.119 0.126 52 73 40
-175.3615 47.3473 -41.8506 0.964 -0.022 -0.265 57 78 45
-175.7955 32.7671 -38.3608 0.763 -0.556 -0.330 41 62 23
-174.4088 38.7207 -39.4313 0.417 -0.494 -0.763 58 80 42
-175.2894 46.2415 -41.7697 0.985 0.115 0.130 47 69 33
-175.3346 46.6430 -41.8939 0.984 0.113 0.135 51 73 37
-175.4194 47.0933 -42.0459 0.985 0.116 0.127 52 73 40
-181.1832 28.5065 -39.4576 0.336 -0.918 -0.210 43 73 21
-175.5875 32.5960 -38.4514 0.439 -0.673 -0.596 34 55 16
-175.0643 46.3596 -41.9561 0.808 0.195 -0.556 56 78 42
-176.5774 49.9344 -43.4870 0.774 -0.155 -0.614 44 65 32
-181.4991 28.5110 -39.7952 0.335 -0.920 -0.205 48 78 27
-181.2158 28.5496 -39.6985 0.336 -0.918 -0.210 42 72 22
-180.9832 28.6271 -39.6315 0.402 -0.896 -0.190 37 67 17
-182.0097 28.6649 -40.2488 0.396 -0.871 -0.292 51 80 31
-181.7338 28.7114 -40.1566 0.379 -0.874 -0.304 48 77 29
-181.4303 28.7352 -40.0477 0.369 -0.876 -0.310 43 71 23
-159.2508 65.8662 -41.7448 0.049 -0.953 -0.300 47 69 23
-136.4411 95.7714 -41.2318 -0.122 -0.975 0.186 41 63 24
-135.6793 94.9694 -40.7235 0.427 -0.712 -0.558 42 64 25
-135.4436 94.7922 -40.5857 0.429 -0.690 -0.583 41 66 24
-181.8194 28.7956 -40.4309 0.391 -0.865 -0.314 43 70 26
-175.5170 47.3335 -43.1147 0.959 0.186 -0.215 44 63 31
-162.4251 58.1817 -41.0942 0.996 -0.091 -0.003 31 50 13
-136.3976 95.7099 -41.4603 0.001 -0.945 -0.326 53 76 35
-135.4584 95.0712 -40.9262 0.429 -0.690 -0.583 43 68 26
-135.2373 94.9767 -40.8159 0.700 -0.491 -0.518 42 67 25
-183.2196 27.8058 -40.9134 0.623 -0.239 0.745 58 78 44
-182.7983 27.7469 -40.7355 0.928 -0.078 0.364 58 79 42
-175.0537 46.8222 -43.0380 0.985 0.158 -0.066 43 63 28
-173.4169 45.9387 -42.1656 0.859 0.279 0.430 35 55 20
-162.4220 58.2245 -41.3437 0.996 -0.091 -0.003 30 44 16
-159.2577 64.4918 -41.8624 -0.031 -0.996 -0.080 40 57 17
-136.3762 95.7741 -41.7318 0.000 -0.970 -0.242 57 80 36
-135.6725 95.3098 -41.3334 0.462 -0.732 -0.501 57 80 37
-135.4672 95.3162 -41.2564 0.510 -0.670 -0.539 55 78 34
-182.9914 27.6515 -41.0022 0.603 -0.263 0.753 54 73 41
-182.6049 27.6180 -40.8439 0.918 -0.057 0.393 54 74 39
-178.4980 35.1064 -41.3451 0.518 -0.849 0.106 37 50 22
-183.0297 26.6764 -40.9629 0.934 -0.340 -0.108 52 71 39
-182.9328 26.8583 -40.9764 0.958 -0.244 -0.149 51 70 38
-182.7430 26.9716 -40.9346 0.962 -0.247 -0.113 49 68 36
-182.5327 27.3243 -40.9520 0.657 -0.349 0.668 48 67 35
-182.2210 27.3455 -40.8372 0.603 -0.391 0.695 47 67 32
-181.9888 27.4257 -40.7697 0.631 -0.348 0.693 48 68 33
-181.8852 27.6031 -40.7793 0.634 -0.351 0.689 48 70 32
-178.8550 34.5874 -41.5630 0.628 -0.681 -0.377 48 62 36
-178.6681 34.7055 -41.5237 0.625 -0.679 -0.385 48 60 36
-178.5030 34.8432 -41.4983 0.625 -0.679 -0.385 47 60 34
-176.5254 33.5922 -40.3816 0.322 -0.772 -0.548 35 48 22
-176.1773 33.5516 -40.2354 0.325 -0.773 -0.545 36 49 23
-178.0963 35.9243 -41.6438 0.972 -0.073 0.223 36 53 23
-177.4458 35.8981 -41.3844 0.862 -0.152 0.484 37 59 23
-173.0283 44.1697 -41.9915 0.989 0.118 0.094 37 58 25
