ply
format ascii 1.0
element vertex 866
property float x
property float y
property float z
property float nx
property float ny
property float nz
property uchar diffuse_red
property uchar diffuse_green
property uchar diffuse_blue
end_header
346.3544 73.1431 -65.3194 -0.179 -0.619 0.765 66 74 51
347.6753 72.9241 -65.6715 -0.068 -0.868 0.492 68 73 52
353.0847 72.5590 -67.1347 0.140 -0.841 0.523 88 88 76
352.0399 71.7958 -66.8190 -0.060 -0.873 0.484 88 86 74
353.2261 71.5247 -67.1323 -0.161 -0.736 0.657 89 87 75
351.7289 70.6711 -66.6895 -0.632 0.432 0.644 84 82 70
351.4967 70.0954 -66.6033 -0.633 0.434 0.640 71 69 56
353.3189 68.3764 -67.0330 -0.773 0.288 0.566 52 52 42
353.5925 67.9078 -67.0892 -0.551 -0.226 -0.803 51 51 41
353.9409 65.8896 -67.1044 -0.850 0.190 -0.492 51 51 41
353.4963 65.2860 -66.9591 -0.820 0.116 -0.561 51 51 41
351.5818 64.4095 -66.4014 -0.886 0.071 -0.458 51 51 41
350.6736 63.7296 -66.1264 -0.872 0.295 0.391 51 51 41
349.5161 63.0094 -65.7817 -0.723 0.297 0.623 52 52 44
353.8536 60.2311 -66.8565 0.054 -0.644 0.763 53 52 47
360.9958 53.7277 -68.5499 -0.977 0.205 0.063 33 39 25
355.6941 52.5200 -67.0538 -0.958 0.285 -0.024 33 39 24
350.8980 49.4878 -65.6236 -0.587 0.343 -0.733 34 40 26
365.2028 25.4361 -68.5786 -0.297 -0.513 0.806 34 39 33
365.4907 24.9897 -68.6396 -0.356 -0.483 0.800 35 39 33
365.8666 24.5442 -68.7246 -0.356 -0.481 0.801 39 40 35
365.7117 24.0936 -68.6644 -0.586 -0.400 0.705 44 43 39
362.6759 23.6255 -67.8167 -0.790 -0.119 0.602 50 51 46
361.5416 23.1787 -67.4891 -0.873 -0.107 0.476 58 59 54
361.9628 22.7416 -67.5868 -0.366 -0.614 0.699 66 67 62
362.4668 22.3040 -67.7072 -0.366 -0.614 0.699 73 73 69
363.0094 21.8653 -67.8380 -0.362 -0.594 0.719 69 69 65
363.0429 21.4270 -67.8298 -0.688 -0.189 0.701 56 57 52
363.5728 20.9872 -67.9572 -0.668 -0.154 0.728 56 57 52
358.6815 19.3007 -66.5543 -0.623 -0.145 0.768 54 54 50
352.9080 -5.8752 -63.9801 -0.464 -0.423 0.778 31 33 45
343.4199 101.6977 -66.2279 -0.391 -0.817 0.424 69 69 74
342.1876 100.6619 -65.8463 -0.401 -0.782 0.477 69 69 75
347.8068 99.1424 -67.3315 -0.825 -0.450 -0.342 71 69 62
349.4544 96.7646 -67.6881 -0.837 -0.457 -0.301 87 87 79
345.4020 89.7221 -66.2844 -0.713 0.194 0.673 113 107 103
345.6572 88.1202 -66.2893 -0.821 -0.080 0.565 114 107 100
347.9325 88.2416 -66.9208 -0.528 -0.711 -0.464 115 108 103
350.6302 86.2171 -67.5809 -0.986 -0.167 0.021 134 127 124
342.8786 81.3032 -65.2456 -0.620 -0.376 0.689 135 129 125
343.4768 80.9294 -65.3951 -0.301 -0.831 0.467 135 129 123
343.8525 79.9588 -65.4589 -0.578 0.219 0.786 110 110 100
343.7188 79.3892 -65.3988 -0.578 0.219 0.786 108 108 98
348.2812 77.3480 -66.5717 -0.050 -0.572 0.819 113 114 100
346.0331 75.2005 -65.8649 -0.148 -0.361 0.921 96 101 79
346.3581 74.7515 -65.9361 -0.156 -0.386 0.909 90 95 75
343.3396 68.8935 -64.8655 -0.862 0.394 -0.320 91 89 77
352.7712 67.2509 -67.3956 -0.167 -0.798 0.580 64 62 50
353.7414 66.9219 -67.6493 -0.815 0.362 0.453 63 61 49
353.8589 66.4235 -67.6613 -0.811 0.366 0.456 62 60 48
353.6509 65.8632 -67.5811 -0.811 0.366 0.456 58 56 44
359.8987 56.6397 -68.9247 0.114 -0.717 0.687 35 38 27
354.5921 52.3973 -67.2901 -0.947 0.311 -0.079 36 42 28
343.1193 44.9114 -63.8250 -0.648 0.441 -0.621 41 50 29
341.5790 43.4074 -63.3394 -0.972 -0.200 0.124 45 54 33
363.8906 25.4308 -68.7488 -0.254 -0.512 0.821 36 39 32
364.5300 24.9911 -68.9069 -0.282 -0.504 0.817 36 38 33
365.0563 24.5488 -69.0338 -0.284 -0.505 0.815 36 38 33
365.0470 24.1008 -69.0129 -0.859 -0.486 0.165 39 40 35
364.4592 23.6500 -68.8326 -0.866 -0.482 0.133 41 42 37
364.2575 23.2041 -68.7589 -0.904 -0.389 0.178 46 47 42
364.6872 22.7619 -68.8591 -0.823 -0.568 0.014 51 52 47
363.8253 22.3175 -68.6036 -0.984 -0.177 -0.027 57 58 53
363.5714 21.8768 -68.5157 -0.988 -0.124 -0.096 56 57 52
361.3585 20.1424 -67.8355 -0.592 0.033 0.805 52 53 48
360.9577 19.7147 -67.7077 -0.593 0.034 0.804 53 54 49
361.2822 19.2808 -67.7793 -0.265 -0.443 0.856 51 52 47
350.0987 98.2039 -68.5143 -0.904 -0.389 -0.176 76 78 69
347.4820 96.7305 -67.7260 -0.815 -0.506 -0.282 76 80 71
349.5611 96.8441 -68.3078 -0.779 -0.501 -0.377 75 78 71
349.9011 96.3707 -68.3823 -0.779 -0.501 -0.377 76 80 73
345.9283 93.9022 -67.1756 -0.679 0.207 0.704 82 86 79
343.4861 90.2875 -66.3455 -0.575 -0.619 -0.535 101 101 97
345.7606 89.3108 -66.9357 -0.410 -0.774 -0.482 100 96 95
351.1155 86.9592 -68.3230 -0.910 -0.152 0.386 97 94 90
350.6397 86.2585 -68.1615 -0.991 -0.093 0.097 99 96 89
350.4913 85.0941 -68.0712 -0.480 0.025 0.877 103 100 94
342.6809 81.2851 -65.7429 -0.615 -0.373 0.695 113 109 103
343.0394 80.8468 -65.8239 -0.301 -0.831 0.467 113 110 103
343.1443 80.3398 -65.8317 -0.430 -0.710 0.558 116 116 106
342.2311 79.5627 -65.5455 -0.661 0.089 0.745 116 119 108
343.7007 78.8868 -65.9250 -0.550 0.181 0.815 116 119 108
344.2072 77.9547 -66.0263 0.007 -0.784 0.621 122 125 114
347.2694 77.1304 -66.8416 -0.048 -0.576 0.816 121 123 109
344.6219 75.4174 -66.0345 -0.150 -0.361 0.920 122 126 109
343.5289 72.5515 -65.6105 -0.975 0.202 0.094 90 94 78
344.4111 71.2056 -65.7987 -0.288 -0.484 0.826 98 99 85
343.5801 70.5060 -65.5385 -0.939 0.065 -0.337 100 101 87
343.4172 69.9588 -65.4703 -0.944 0.164 -0.287 102 100 88
344.9327 66.2204 -65.7335 -0.088 -0.706 0.703 74 74 64
348.8916 63.9607 -66.7372 -0.112 -0.493 0.863 62 62 52
347.6608 62.7246 -66.3436 -0.830 0.334 0.447 60 60 52
346.5164 60.5297 -65.9335 -0.118 -0.547 0.829 57 56 51
351.8025 58.9383 -67.3337 -0.261 -0.206 0.943 54 53 48
352.6879 58.5817 -67.5645 -0.262 -0.200 0.944 52 53 45
353.9838 57.7857 -67.8907 -0.230 -0.327 0.916 51 54 43
358.3835 55.4306 -69.0127 -0.159 -0.457 0.875 41 44 33
351.2940 51.9825 -66.8997 -0.940 0.262 0.219 40 46 32
349.8532 50.3558 -66.4312 -0.965 0.175 -0.194 44 50 36
344.3823 46.4335 -64.7475 -0.625 0.444 -0.642 46 55 36
340.3971 43.3094 -63.5097 -0.950 -0.307 0.051 46 55 36
364.5118 24.5561 -69.4137 -0.686 -0.180 0.705 35 37 32
364.0908 24.1054 -69.2778 -0.704 -0.233 0.670 34 35 30
363.0364 23.6530 -68.9661 -0.995 -0.098 -0.020 36 37 32
362.8048 23.2095 -68.8831 -0.993 -0.115 0.028 37 38 33
363.2262 21.8890 -68.9445 -0.982 -0.187 0.022 41 42 37
362.2786 21.0161 -68.6447 -0.967 -0.254 -0.001 46 47 42
356.9207 18.9209 -67.0693 -0.270 -0.471 0.840 46 47 42
348.1124 91.2097 -68.2457 -0.590 0.026 0.807 96 96 97
347.6863 89.9409 -68.0714 -0.494 -0.312 0.811 97 95 99
345.2239 88.6267 -67.3255 -0.239 -0.826 -0.510 96 95 99
349.6303 88.2613 -68.5425 -0.805 -0.133 0.579 91 90 95
349.2346 87.0169 -68.3778 -0.782 -0.182 0.596 94 94 91
345.2894 84.7663 -67.1764 -0.877 -0.147 0.457 95 96 86
343.8323 83.8041 -66.7270 -0.760 -0.014 0.650 95 97 85
342.7168 80.2605 -66.2613 -0.430 -0.710 0.558 106 112 100
342.2014 75.9017 -65.9280 -0.058 -0.539 0.840 94 98 86
343.4600 75.1668 -66.2483 -0.104 -0.435 0.894 113 117 103
344.0704 69.1119 -66.1565 -0.461 -0.156 0.874 103 103 91
344.1292 66.5905 -66.0636 -0.476 -0.144 0.868 76 76 66
343.8920 66.0394 -65.9734 -0.527 -0.355 0.772 81 81 71
344.4358 65.6464 -66.1084 -0.246 -0.596 0.765 81 81 71
344.9756 65.2514 -66.2424 -0.246 -0.596 0.765 81 81 71
345.5169 64.8554 -66.3766 -0.246 -0.596 0.765 81 81 71
346.0596 64.4583 -66.5112 -0.246 -0.596 0.765 68 68 58
347.8086 63.2817 -66.9495 -0.834 0.366 0.412 66 66 56
353.5222 56.2427 -68.2429 0.077 -0.636 0.768 64 67 58
356.9219 55.2455 -69.1508 -0.124 -0.538 0.834 63 66 55
355.7591 54.5803 -68.7966 -0.933 0.344 0.103 62 65 54
355.5325 53.5566 -68.6888 -0.764 0.536 0.358 47 53 39
348.1457 50.1621 -66.4749 -0.988 0.134 0.075 56 62 48
362.6993 24.1062 -69.4168 -0.760 -0.441 0.477 36 37 32
361.5381 23.2157 -69.0534 -0.921 -0.358 0.155 33 34 29
362.3391 21.9015 -69.2205 -0.881 -0.430 0.197 32 33 28
365.6486 21.0130 -70.1079 -0.768 -0.541 -0.342 43 44 39
345.4268 92.6806 -68.1316 -0.703 0.241 0.669 64 75 62
352.8075 86.3886 -69.9321 -0.543 -0.300 0.784 89 91 79
348.1282 83.9520 -68.5039 -0.540 -0.178 0.823 102 104 93
344.1166 81.7504 -67.2744 -0.650 0.179 0.739 104 104 94
342.6035 80.8002 -66.8053 -0.642 0.023 0.766 102 105 94
342.6104 80.2674 -66.7835 -0.642 0.023 0.766 100 107 95
343.7888 73.7140 -66.8233 -0.112 -0.422 0.900 72 75 65
343.2393 68.9628 -66.4564 -0.639 -0.150 0.754 120 122 109
343.7040 67.0366 -66.5015 -0.628 -0.144 0.764 87 89 76
343.5120 65.9916 -66.4007 -0.525 -0.358 0.772 76 77 69
343.5374 65.4958 -66.3858 -0.514 -0.371 0.773 75 76 68
343.2469 64.9387 -66.2790 -0.525 -0.187 0.830 75 76 68
343.8677 64.5620 -66.4372 -0.528 -0.182 0.829 75 76 68
343.9332 63.5793 -66.4118 -0.751 -0.185 0.633 81 82 74
346.3493 63.0381 -67.0690 -0.940 0.296 0.171 81 82 74
346.0514 62.4842 -66.9603 -0.944 0.292 0.153 77 77 69
345.9001 61.9594 -66.8942 -0.944 0.292 0.153 68 68 60
345.5678 59.9257 -66.7098 -0.134 -0.556 0.820 66 65 60
346.1540 59.0443 -66.8357 -0.129 -0.567 0.813 65 64 59
347.9381 56.8880 -67.2426 -0.405 -0.201 0.892 67 70 61
355.2683 54.0393 -69.1826 -0.769 0.535 0.349 60 63 52
355.1440 53.5274 -69.1247 -0.764 0.535 0.360 51 57 43
354.8217 52.9903 -69.0098 -0.764 0.535 0.360 51 57 43
350.0823 50.9081 -67.5804 -0.875 -0.484 0.022 63 69 55
348.1087 50.1798 -66.9914 -0.988 0.134 0.075 64 70 56
348.2075 44.5843 -66.7696 -0.755 -0.539 0.374 57 66 45
367.3478 35.7717 -71.7738 -0.925 0.152 -0.348 40 48 35
362.4336 23.2325 -69.8285 -0.982 -0.186 0.018 46 47 42
361.5441 21.0424 -69.4800 -0.961 -0.243 -0.131 45 46 41
343.0806 83.1226 -67.6001 -0.726 0.129 0.676 84 86 75
339.1928 79.9099 -66.3478 -0.908 0.047 0.416 90 93 82
335.7685 75.3808 -65.1668 0.075 -0.771 0.632 56 68 54
340.5904 74.5311 -66.4982 -0.041 -0.739 0.673 38 41 32
342.8808 74.5701 -67.1510 -0.977 0.117 -0.178 42 45 36
343.2002 74.1265 -67.2214 -0.975 0.117 -0.189 46 49 42
343.4069 73.6558 -67.2585 -0.974 0.087 -0.209 54 57 50
342.1915 68.7666 -66.6888 -0.671 -0.201 0.713 75 77 64
342.3974 66.7957 -66.6569 -0.741 -0.181 0.647 86 88 75
342.5172 66.3194 -66.6691 -0.514 -0.371 0.773 85 87 76
342.7661 65.8698 -66.7192 -0.514 -0.371 0.773 84 85 77
343.0150 65.4202 -66.7693 -0.514 -0.371 0.773 84 85 77
343.1658 64.9512 -66.7907 -0.490 -0.226 0.842 84 85 77
343.3343 64.4862 -66.8172 -0.490 -0.226 0.842 84 85 77
343.3425 63.4946 -66.7741 -0.507 -0.199 0.838 79 80 72
346.3907 63.0736 -67.6211 -0.932 0.277 0.235 79 80 72
345.5252 62.4150 -67.3449 -0.873 0.023 -0.488 80 80 72
345.4100 61.8977 -67.2884 -0.868 0.022 -0.496 81 81 73
345.3331 60.8953 -67.2206 -0.749 -0.148 -0.646 80 80 72
345.4326 60.4203 -67.2271 -0.749 -0.148 -0.646 79 79 71
346.6158 56.7054 -67.3929 -0.361 -0.237 0.902 80 81 75
346.8750 56.2604 -67.4461 -0.134 -0.538 0.832 80 81 75
351.8889 54.5704 -68.7936 -0.056 -0.562 0.825 96 97 89
352.4757 53.6735 -68.9192 -0.204 -0.052 0.978 80 83 72
352.5718 53.1977 -68.9247 -0.204 -0.052 0.978 75 78 67
349.0996 51.7600 -67.8719 -0.933 -0.358 0.028 70 76 62
348.8112 51.2437 -67.7663 -0.938 -0.347 0.029 69 75 61
348.9786 50.7885 -67.7930 -0.938 -0.347 0.029 75 79 65
347.3874 50.1107 -67.3096 -0.949 0.076 -0.305 77 81 67
375.6395 37.2508 -74.7491 -0.691 0.129 -0.711 46 54 39
373.7132 35.1738 -74.1063 -0.796 0.027 -0.605 39 44 37
360.1067 32.1605 -70.1010 -0.341 -0.878 0.337 41 43 38
365.1364 25.9535 -71.2457 -0.590 -0.713 -0.378 37 39 34
366.0150 25.5146 -71.4753 -0.813 -0.418 0.406 41 43 38
365.7349 25.0588 -71.3748 -0.753 -0.451 0.479 44 46 41
365.3749 23.7069 -71.2104 -0.774 -0.414 0.479 50 51 46
364.3120 23.2543 -70.8876 -0.398 -0.584 0.707 50 51 46
364.9097 22.8119 -71.0372 -0.358 -0.673 0.647 49 50 45
366.4605 21.0330 -71.3963 -0.434 -0.537 0.724 46 47 42
336.2433 78.6244 -65.9867 -0.956 0.052 0.289 75 81 69
334.1933 77.0477 -65.3253 -0.846 0.472 0.249 76 87 73
333.6654 75.8909 -65.1196 -0.888 0.370 0.274 71 82 68
333.5087 75.3438 -65.0489 -0.890 0.011 0.457 48 59 45
334.4950 74.5833 -65.2955 0.092 -0.876 0.473 49 60 46
336.6147 74.6074 -65.9038 0.058 -0.851 0.522 51 60 47
337.9235 74.4219 -66.2699 -0.016 -0.774 0.634 51 57 47
342.3358 73.4338 -67.4871 -0.972 -0.083 -0.218 55 58 51
342.7170 73.0069 -67.5762 -0.965 -0.103 -0.239 60 63 56
341.2553 69.6042 -66.9971 -0.668 -0.218 0.711 57 59 46
341.4420 69.1395 -67.0287 -0.677 -0.209 0.706 37 39 26
341.9498 68.2397 -67.1317 -0.784 -0.145 0.603 39 41 28
342.0151 67.7499 -67.1274 -0.919 0.173 -0.354 45 47 34
341.8928 67.2217 -67.0674 -0.919 0.173 -0.354 51 53 40
341.3451 66.6072 -66.8816 -0.852 -0.082 0.517 58 60 47
341.1762 66.0740 -66.8081 -0.861 -0.047 0.507 69 71 60
341.2610 65.5941 -66.8097 -0.702 -0.228 0.675 78 79 71
341.6975 65.1853 -66.9155 -0.712 -0.228 0.664 79 80 72
341.8323 64.7160 -66.9320 -0.712 -0.228 0.664 79 80 72
344.3199 63.7090 -67.5970 -0.266 -0.251 0.931 72 73 65
343.3316 59.5920 -67.1199 0.016 -0.808 0.589 90 90 82
344.5366 59.3117 -67.4518 0.015 -0.804 0.594 93 93 85
345.1396 58.9257 -67.6063 -0.009 -0.748 0.663 93 93 85
346.8860 58.2376 -68.0741 -0.331 -0.540 0.774 93 93 85
346.4279 57.1870 -67.8934 -0.341 -0.289 0.895 80 81 75
346.7789 56.7561 -67.9736 -0.348 -0.439 0.828 80 81 75
347.5234 55.8996 -68.1465 -0.067 -0.573 0.817 80 81 75
348.5840 55.0879 -68.4120 0.101 -0.676 0.729 91 92 86
350.6629 54.4181 -68.9759 -0.234 -0.313 0.920 92 93 87
347.9145 51.1489 -68.0346 -0.268 -0.225 0.937 78 81 70
346.3244 50.4687 -67.5471 -0.747 -0.427 -0.509 79 83 69
346.0067 49.9578 -67.4320 -0.733 -0.396 -0.553 79 82 71
346.3513 49.5319 -67.5106 -0.782 -0.324 -0.533 79 82 71
351.9173 49.2667 -69.0923 -0.620 0.388 -0.682 79 83 68
351.1451 48.6971 -68.8443 -0.621 0.392 -0.679 72 79 59
343.4724 46.8712 -66.5606 -0.934 0.235 0.270 70 79 51
344.0371 46.4772 -66.7038 -0.998 0.020 0.058 70 79 50
345.1028 46.1371 -66.9930 -0.985 -0.084 0.152 71 80 51
357.1687 33.8587 -69.8702 -0.998 0.041 0.042 40 43 35
363.4024 26.8384 -71.3247 -0.437 -0.823 -0.364 37 39 33
364.4094 22.3790 -71.4030 -0.388 -0.601 0.698 55 56 51
365.8180 21.4910 -71.7646 -0.505 -0.411 0.759 47 48 43
258.2904 60.6293 -43.1525 -0.343 -0.253 -0.905 89 91 77
341.7923 81.7577 -68.2766 -0.956 0.242 -0.163 77 79 68
337.1055 78.8912 -66.7851 -0.874 0.187 0.449 66 72 60
333.3599 76.8610 -65.6057 -0.882 0.444 0.157 61 72 58
333.0867 76.2807 -65.4988 -0.882 0.444 0.157 63 71 58
333.0042 75.7524 -65.4494 -0.998 0.035 0.049 62 70 57
333.4002 75.3488 -65.5442 -0.888 0.019 0.459 51 62 48
336.9362 74.2103 -66.5097 0.096 -0.877 0.471 59 65 53
339.3822 74.3007 -67.2201 0.104 -0.879 0.465 60 63 54
340.4079 66.4423 -67.1358 -0.760 -0.039 0.649 63 65 52
340.0159 65.8653 -66.9948 -0.768 -0.056 0.638 64 66 55
339.5763 65.2817 -66.8396 -0.361 -0.341 0.868 62 63 55
341.4712 62.7019 -67.2617 -0.489 -0.213 0.846 67 68 60
344.0178 58.7626 -67.8061 -0.009 -0.748 0.663 86 86 78
345.0568 58.4499 -68.0909 -0.132 -0.535 0.834 86 86 76
345.5499 58.0442 -68.2136 -0.342 -0.300 0.891 87 87 79
345.8047 57.5988 -68.2656 -0.342 -0.300 0.891 84 85 79
345.6850 57.0937 -68.2066 -0.341 -0.289 0.895 80 81 75
345.9320 56.6479 -68.2563 -0.341 -0.289 0.895 80 81 76
346.3850 56.2341 -68.3670 -0.291 -0.444 0.847 80 81 76
346.6832 54.8299 -68.3852 0.099 -0.669 0.736 85 86 81
350.2377 54.3811 -69.3894 -0.110 -0.570 0.814 86 87 81
348.1888 50.7318 -68.6214 -0.160 -0.464 0.871 80 83 72
346.5973 50.0549 -68.1293 -0.778 -0.338 -0.530 79 82 71
347.3632 49.6803 -68.3322 -0.759 -0.296 -0.579 79 82 73
349.6084 48.5369 -68.9249 -0.647 0.440 -0.623 72 80 59
357.8270 33.4533 -70.5672 -0.873 -0.483 -0.064 55 58 48
359.3460 32.1589 -70.9429 -0.349 -0.864 0.362 50 53 44
361.2505 22.3867 -71.0198 -0.343 -0.678 0.649 60 61 56
342.7200 15.2411 -65.3254 -0.290 -0.663 -0.690 34 36 31
292.2551 160.7856 -58.3456 -0.816 0.552 -0.173 56 78 40
290.7451 157.5390 -57.7452 -0.754 0.471 -0.458 50 72 34
295.4297 154.0666 -58.9354 -0.384 -0.614 -0.689 52 74 36
295.9590 153.8232 -59.0772 -0.389 -0.608 -0.692 54 76 38
260.0945 60.5042 -44.0125 -0.371 -0.217 -0.903 98 100 87
336.8615 78.8602 -67.2517 -0.879 0.182 0.441 67 74 62
335.1616 77.8861 -66.7089 -0.850 0.445 0.283 60 70 56
334.7236 77.2555 -66.5502 -0.850 0.441 0.289 59 70 56
337.1132 74.7974 -67.1232 0.094 -0.771 0.630 57 65 52
338.5357 74.6388 -67.5291 0.094 -0.771 0.630 60 66 54
340.3549 74.5719 -68.0549 0.093 -0.773 0.627 60 63 54
343.4923 74.2949 -68.9536 0.092 -0.772 0.629 61 64 53
340.3333 66.9539 -67.6703 -0.875 0.238 -0.422 57 59 46
340.1490 66.4178 -67.5901 -0.875 0.238 -0.422 59 61 48
337.8232 64.9549 -66.8410 -0.453 -0.305 0.838 58 59 51
337.6584 64.4333 -66.7672 -0.452 -0.309 0.837 58 59 51
337.8815 63.9904 -66.8101 -0.452 -0.309 0.837 58 59 51
338.3499 63.1092 -66.9026 -0.455 -0.331 0.827 60 61 53
339.5325 61.8775 -67.1854 -0.468 -0.316 0.825 61 62 54
340.2390 61.5231 -67.3732 -0.667 -0.169 0.725 63 63 55
344.4433 56.4385 -68.3436 -0.356 -0.278 0.892 79 80 75
344.6669 55.9922 -68.3865 -0.357 -0.279 0.892 80 81 76
344.6981 55.5166 -68.3719 -0.172 -0.502 0.848 80 81 75
344.4555 54.5229 -68.2521 0.090 -0.671 0.736 80 81 76
345.6969 54.2281 -68.5985 0.091 -0.672 0.735 81 82 77
346.7394 53.9003 -68.8854 0.065 -0.670 0.739 81 82 76
347.7276 53.5614 -69.1560 -0.168 -0.314 0.935 81 82 76
348.0810 53.1304 -69.2374 -0.168 -0.314 0.935 87 88 80
347.4870 51.1383 -68.9657 -0.099 -0.372 0.923 89 92 81
264.2342 38.1419 -44.1062 -0.916 -0.281 -0.286 70 78 54
359.0347 32.6160 -71.4047 -0.333 -0.868 0.368 57 60 47
359.3557 32.1750 -71.4762 -0.343 -0.871 0.352 54 58 44
350.5112 30.0475 -68.7981 -0.902 0.143 -0.407 47 50 38
349.1370 29.5676 -68.3746 -0.890 0.147 -0.433 47 49 38
362.0457 14.6422 -71.3880 0.118 -0.540 0.833 34 36 31
362.8128 14.1943 -71.5889 0.115 -0.460 0.881 34 36 31
362.6710 13.7762 -71.5269 0.101 -0.449 0.888 35 35 33
351.0269 13.7827 -68.1405 -0.422 -0.521 -0.742 33 33 33
355.9975 12.3750 -69.5163 -0.582 -0.274 -0.765 33 33 33
356.6762 11.5317 -69.6719 -0.560 -0.289 -0.776 33 33 33
357.1185 11.1046 -69.7793 -0.563 -0.291 -0.773 34 34 34
294.1424 163.1253 -59.5610 -0.822 0.547 -0.158 56 79 38
291.1705 159.2956 -58.4950 -0.769 0.552 -0.324 56 78 38
291.4966 158.9015 -58.5706 -0.763 0.559 -0.324 50 72 33
301.9940 158.5857 -61.6309 0.002 -0.967 -0.253 55 77 38
335.4314 77.4768 -67.3010 -0.795 0.350 0.496 65 75 63
333.7360 76.0089 -66.7295 -0.853 0.441 0.278 66 74 61
336.8810 74.7721 -67.5882 0.095 -0.755 0.649 63 71 60
334.7034 73.7223 -66.8966 0.026 -0.738 0.674 64 70 60
335.8780 73.0010 -67.2041 0.175 -0.831 0.527 67 68 60
340.8975 66.6021 -68.3493 -0.886 0.457 -0.079 61 63 50
339.8880 65.8968 -68.0176 -0.921 0.338 -0.195 60 62 51
336.9033 64.7967 -67.0869 -0.797 -0.024 0.603 59 60 52
335.6898 64.0667 -66.6941 -0.856 -0.029 0.516 59 60 52
334.3780 62.8454 -66.2474 -0.676 -0.191 0.712 59 60 52
334.5849 62.4079 -66.2858 -0.675 -0.217 0.705 59 60 52
334.8441 61.5043 -66.3158 -0.675 -0.217 0.705 58 59 51
335.2673 61.1081 -66.4196 -0.673 -0.218 0.707 58 59 51
342.0227 54.1849 -68.0469 -0.081 -0.435 0.897 68 71 65
343.5208 53.4593 -68.4491 -0.137 -0.206 0.969 69 72 66
343.7849 53.0242 -68.5043 -0.137 -0.206 0.969 70 73 66
343.8189 50.6787 -68.3949 0.005 -0.353 0.936 82 87 76
264.5500 38.1920 -44.5279 -0.813 -0.329 -0.480 68 75 61
355.0917 32.4527 -70.7707 -0.966 0.010 -0.257 57 59 46
356.1570 32.0516 -71.0624 -0.973 -0.044 -0.228 56 58 45
357.2129 31.6469 -71.3513 -0.908 -0.309 -0.284 54 56 43
355.3882 31.1251 -70.7900 -0.907 -0.366 -0.208 53 55 42
355.9176 30.7000 -70.9235 -0.897 -0.391 -0.207 53 55 42
368.3605 25.6027 -74.3106 -0.448 -0.798 -0.404 51 53 42
353.2178 17.8002 -69.4755 -0.777 -0.347 -0.525 36 36 36
355.2794 15.2752 -69.9511 0.123 -0.551 0.826 31 31 29
352.3416 11.3386 -68.8897 -0.471 -0.226 -0.853 34 34 34
344.8658 10.5412 -66.6582 -0.491 -0.070 -0.869 36 36 36
294.1101 163.1820 -60.1051 -0.822 0.539 -0.183 66 89 45
292.9034 161.4925 -59.6606 -0.822 0.539 -0.183 66 89 46
298.5103 157.9664 -61.1323 -0.065 -0.837 -0.543 60 83 39
299.5172 158.0855 -61.4358 -0.065 -0.837 -0.543 60 83 39
334.6620 75.7727 -67.5193 -0.818 0.318 0.480 68 79 64
334.5838 75.2438 -67.4686 -0.821 0.315 0.476 67 78 63
331.7562 74.0217 -66.5699 -0.018 -0.711 0.703 67 78 63
333.3358 73.4156 -67.0047 0.001 -0.762 0.647 69 77 65
333.4129 72.9336 -67.0023 -0.003 -0.789 0.614 70 76 65
337.8033 54.9742 -67.3618 -0.973 0.216 -0.080 60 61 55
339.6768 54.3270 -67.8812 -0.096 -0.410 0.907 63 64 59
339.8189 53.8805 -67.8999 -0.063 -0.422 0.904 67 68 61
341.7958 53.2335 -68.4499 -0.145 -0.127 0.981 67 68 61
341.3009 50.3698 -68.1543 -0.039 -0.457 0.889 70 74 60
345.9259 30.3384 -68.4750 -0.753 0.191 0.630 58 62 48
345.0747 29.8820 -68.1998 -0.663 -0.677 0.321 57 61 47
345.4737 29.4721 -68.2963 -0.658 -0.687 0.309 57 61 47
345.7010 29.0560 -68.3417 -0.611 -0.735 0.293 56 60 46
346.1415 28.6464 -68.4504 -0.611 -0.735 0.293 55 57 46
346.5829 28.2361 -68.5593 -0.611 -0.735 0.293 55 57 46
339.3643 27.6249 -66.3959 -0.664 -0.695 0.276 55 57 46
350.7910 27.4935 -69.7632 -0.481 -0.860 0.172 55 57 46
350.5536 27.0593 -69.6704 -0.507 -0.851 0.137 54 56 45
349.9369 26.6192 -69.4653 -0.414 -0.910 0.029 56 58 47
348.1677 25.7398 -68.8971 -0.985 -0.025 0.168 57 59 48
362.7469 25.0869 -73.1681 -0.948 -0.316 -0.039 57 59 48
363.9723 24.6543 -73.5073 -0.954 -0.299 -0.011 56 57 49
364.1862 24.2089 -73.5472 -0.960 -0.259 -0.105 56 57 51
355.7326 22.4142 -70.9574 -0.910 0.185 0.370 56 57 52
355.6631 21.9870 -70.9145 -0.910 0.185 0.370 56 57 52
355.5937 21.5609 -70.8718 -0.910 0.185 0.370 53 54 49
359.1413 18.9759 -71.7845 -0.613 -0.529 0.586 48 48 46
344.2666 17.5809 -67.3194 -0.454 -0.487 -0.746 31 31 31
351.2487 15.4035 -69.2676 0.123 -0.551 0.826 25 25 23
354.1518 12.0653 -69.9507 -0.726 0.532 0.437 36 36 36
353.4839 10.8922 -69.6923 -0.478 -0.181 -0.860 34 34 34
355.3199 8.7984 -70.1252 -0.693 -0.220 -0.686 36 36 37
293.3739 161.9690 -60.3722 -0.822 0.539 -0.183 68 90 44
290.4150 152.3019 -58.9754 -0.977 -0.101 0.187 60 84 37
332.9619 75.3677 -67.5226 -0.898 0.315 0.309 69 83 60
328.6320 66.0053 -65.7342 -0.996 -0.010 -0.092 61 66 49
332.2014 64.8545 -66.7346 -0.933 -0.086 0.349 73 77 61
332.4115 64.4191 -66.7739 -0.931 -0.080 0.356 68 70 57
336.4248 54.7836 -67.4530 -0.970 0.236 -0.060 60 61 55
337.5918 53.1098 -67.7108 -0.129 -0.303 0.944 69 69 61
327.2112 32.3989 -63.5158 -0.424 -0.447 -0.788 54 60 48
326.7065 31.9781 -63.3432 -0.454 -0.409 -0.792 53 59 45
344.2656 30.2900 -68.4770 -0.678 -0.009 0.735 60 66 52
344.9622 29.0462 -68.6177 -0.595 -0.714 0.369 60 64 50
345.2433 28.6331 -68.6793 -0.586 -0.743 0.322 60 62 51
335.3394 27.9337 -65.6954 -0.509 -0.746 -0.430 59 61 50
334.6866 27.1162 -65.4575 -0.617 -0.602 -0.507 60 62 51
358.9781 24.1744 -72.5273 -0.510 -0.553 0.659 58 59 53
359.8600 23.7436 -72.7666 -0.509 -0.543 0.667 56 57 51
353.6201 22.4226 -70.8396 -0.973 0.189 0.133 56 57 52
353.2599 21.9992 -70.7098 -0.973 0.221 0.073 56 57 52
353.6879 21.5763 -70.8146 -0.970 0.213 0.118 53 54 49
353.6010 21.1548 -70.7662 -0.970 0.213 0.118 51 52 47
352.9631 20.7377 -70.5541 -0.974 0.191 0.121 51 52 47
351.6987 20.3286 -70.1561 -0.961 0.230 0.153 51 52 47
352.5702 19.9048 -70.3927 -0.958 -0.262 -0.119 51 52 47
348.4523 19.5353 -69.1479 -0.931 -0.339 -0.132 51 52 47
346.2482 19.1565 -68.4719 -0.960 -0.252 -0.124 48 48 46
343.6965 18.3943 -67.6720 -0.548 -0.645 -0.532 40 40 40
348.1514 17.1077 -68.9286 -0.453 -0.797 -0.400 29 29 29
347.7326 15.9152 -68.7403 -0.369 -0.540 0.757 24 24 24
352.3276 14.9743 -70.0571 0.058 -0.397 0.916 33 33 33
353.5568 12.9055 -70.3123 0.071 -0.396 0.915 59 57 58
353.2368 10.9118 -70.1105 -0.727 0.524 0.444 42 40 41
353.0110 10.5244 -70.0226 -0.727 0.524 0.444 41 39 40
285.8656 151.2868 -58.0856 -0.726 -0.303 0.618 61 84 38
287.2455 151.1299 -58.4906 -0.709 -0.299 0.639 61 85 37
287.4268 150.6407 -58.5182 -0.709 -0.299 0.639 60 84 36
333.3640 66.5754 -67.6891 -0.990 0.137 -0.047 72 83 54
334.4471 51.3103 -67.1788 -0.160 -0.347 0.924 64 65 57
341.9373 31.8994 -68.3622 -0.700 -0.649 0.297 60 64 50
340.9366 28.1041 -67.8547 -0.532 -0.499 -0.684 66 68 57
329.0008 24.2945 -64.0688 -0.750 0.165 -0.640 65 66 58
357.1244 22.8712 -72.4204 -0.170 -0.465 0.869 56 57 52
353.1680 22.0107 -71.1875 -0.973 0.216 0.080 57 58 53
352.1136 20.3363 -70.7799 -0.965 0.226 0.132 51 52 47
350.8741 19.9316 -70.3863 -0.901 0.339 0.272 51 52 47
348.4606 19.5455 -69.6417 -0.936 -0.325 -0.136 52 53 48
343.7431 18.8009 -68.1870 -0.588 -0.806 -0.064 43 43 43
342.9246 18.4170 -67.9207 -0.508 -0.859 -0.062 40 40 40
348.7766 17.5076 -69.6250 -0.489 -0.561 0.668 32 32 32
349.2112 16.2859 -69.6884 -0.746 -0.377 0.550 28 28 28
353.2222 10.9200 -70.5972 -0.724 0.527 0.445 59 57 58
351.8721 10.1939 -70.1528 -0.730 0.557 0.396 52 50 51
348.1403 10.0015 -69.0237 -0.690 0.438 0.576 49 47 48
333.9344 8.6069 -64.6895 -0.792 0.428 -0.435 43 41 52
330.3890 63.5853 -67.1404 -0.954 0.289 0.079 74 85 55
329.5765 62.9495 -66.8595 -0.955 0.279 0.096 74 85 55
342.1974 34.4826 -69.0775 -0.861 0.508 -0.010 63 69 55
341.3207 31.8860 -68.6675 -0.793 -0.601 -0.102 72 76 62
343.9947 29.8854 -69.3630 -0.775 -0.158 0.612 74 78 64
343.4974 27.3560 -69.0713 -0.478 -0.677 -0.560 76 78 67
343.9478 26.9507 -69.1846 -0.496 -0.660 -0.564 75 77 66
342.6655 26.5089 -68.7727 -0.430 -0.459 -0.777 74 76 65
343.0335 25.6917 -68.8380 -0.403 -0.511 -0.759 73 75 64
348.5756 24.9424 -70.4696 -0.404 -0.117 0.908 72 74 63
349.9839 22.0227 -70.7315 -0.441 -0.029 0.897 67 68 63
351.3486 20.7690 -71.0734 -0.370 0.033 0.928 55 56 51
348.2450 19.5583 -70.0685 -0.315 -0.192 0.929 54 55 50
349.0903 18.7310 -70.2774 -0.237 -0.931 0.276 48 48 48
350.0111 18.3080 -70.5318 -0.219 -0.935 0.279 44 44 44
349.1021 16.2979 -70.1448 -0.777 -0.428 0.461 28 28 28
347.5777 14.7431 -69.5975 0.044 -0.377 0.925 45 45 45
346.6143 14.3801 -69.2863 0.059 -0.443 0.894 58 58 58
361.2262 11.3642 -73.5297 -0.436 -0.272 -0.858 88 86 87
361.0326 10.5448 -73.4254 -0.473 -0.179 -0.863 78 76 77
347.7656 10.0288 -69.3905 -0.688 0.439 0.577 60 58 59
332.1661 8.3715 -64.5874 -0.818 0.396 -0.416 43 42 50
331.6387 8.0527 -64.4103 -0.810 0.370 -0.454 44 43 51
331.4394 7.7135 -64.3311 -0.810 0.370 -0.454 43 42 50
340.6902 5.9656 -67.0267 -0.716 0.221 -0.663 36 35 43
333.1088 64.6463 -68.5353 -0.872 0.415 -0.259 71 87 51
327.7070 60.7454 -66.6690 -0.954 0.253 -0.161 78 92 58
327.6702 60.2773 -66.6310 -0.956 0.246 -0.162 79 93 59
343.9760 29.4768 -69.8285 -0.539 -0.254 0.803 80 84 70
344.1190 27.8019 -69.7761 -0.791 -0.109 0.602 87 89 78
345.3421 26.9950 -70.1020 -0.535 -0.097 0.840 86 88 77
345.3768 26.5774 -70.0886 -0.675 -0.159 0.721 85 87 76
346.0069 26.1718 -70.2571 -0.506 -0.778 -0.372 85 87 76
346.9149 25.3508 -70.4863 -0.592 -0.570 -0.570 84 86 75
347.7593 22.4473 -70.5770 -0.378 -0.132 0.916 71 72 67
347.8751 22.0342 -70.5886 -0.378 -0.132 0.916 71 72 67
348.2917 21.6210 -70.6917 -0.416 -0.078 0.906 68 69 64
347.4958 21.2117 -70.4262 -0.342 -0.119 0.932 63 64 59
347.3241 20.8027 -70.3505 -0.433 -0.002 0.901 62 63 58
346.6161 20.3993 -70.1121 -0.203 -0.112 0.973 61 62 57
348.1339 18.7553 -70.4797 -0.194 -0.942 0.275 67 67 67
350.1634 18.3155 -71.0719 -0.041 -0.564 0.825 64 64 64
350.4782 16.6776 -71.0739 -0.540 -0.700 -0.468 46 46 46
348.7046 16.3173 -70.5138 -0.535 -0.587 -0.608 31 31 31
347.3994 15.9514 -70.0958 -0.950 0.277 -0.144 29 29 29
362.9060 10.8779 -74.5223 -0.473 -0.179 -0.863 87 85 86
347.4574 10.0524 -69.7760 -0.688 0.439 0.577 68 66 67
345.7322 5.5928 -68.9960 -0.909 0.404 0.104 36 35 43
345.5173 3.0061 -68.7826 -0.511 -0.343 -0.788 32 29 36
346.9722 1.7682 -69.1543 -0.551 -0.267 -0.791 32 29 36
343.4926 30.3174 -70.2238 -0.830 -0.469 -0.301 68 74 60
343.6268 27.8021 -70.1179 -0.575 -0.199 0.793 82 84 73
344.1707 27.3985 -70.2609 -0.591 -0.364 0.720 82 84 73
344.8179 26.9961 -70.4357 -0.535 -0.097 0.840 83 85 74
344.9285 26.5810 -70.4453 -0.674 -0.124 0.728 84 86 75
345.1934 26.1693 -70.5024 -0.676 -0.126 0.726 84 86 75
347.3463 25.3697 -71.1153 -0.535 -0.589 -0.606 85 87 76
348.2348 24.9627 -71.3637 -0.596 -0.546 -0.589 86 88 77
349.8873 22.4626 -71.7238 -0.152 -0.410 0.899 71 72 67
347.8781 22.0455 -71.0838 -0.411 -0.052 0.910 71 72 67
346.6440 21.2259 -70.6577 -0.339 -0.120 0.933 73 74 69
345.6100 20.8231 -70.3173 -0.208 -0.107 0.972 72 73 68
347.1793 19.1848 -70.7024 -0.030 -0.582 0.813 69 69 67
348.7058 18.3497 -71.1213 -0.041 -0.564 0.825 64 64 64
348.4413 10.3953 -70.5750 -0.714 0.541 0.443 79 77 78
346.3546 9.7341 -69.8970 -0.686 0.440 0.579 71 69 70
344.8824 8.6741 -69.3839 -0.454 -0.321 -0.831 55 54 60
345.0704 8.2831 -69.4186 -0.443 -0.332 -0.833 53 52 60
342.9305 7.2947 -68.7051 -0.525 -0.058 -0.849 45 44 52
347.2587 3.2320 -69.7937 -0.148 -0.589 0.795 33 30 37
349.0749 0.8345 -70.2100 -0.271 -0.027 0.962 32 29 36
342.9367 -2.1588 -68.1542 -0.486 -0.370 -0.791 36 36 36
346.5980 -4.0029 -69.1681 -0.652 0.105 -0.751 35 37 36
341.2483 31.5052 -70.0968 -0.802 -0.276 0.529 54 63 47
342.3185 31.1295 -70.4046 -0.828 -0.503 -0.248 54 63 48
343.1696 30.7418 -70.6441 -0.841 -0.406 -0.358 54 63 48
342.4343 30.2913 -70.3903 -0.552 -0.192 0.811 55 64 48
342.5589 29.8756 -70.4039 -0.552 -0.192 0.811 57 64 50
342.5607 29.4561 -70.3794 -0.557 -0.196 0.807 59 64 50
343.1190 27.8019 -70.4529 -0.589 -0.375 0.715 70 72 61
343.3311 27.3910 -70.4938 -0.589 -0.375 0.715 70 72 61
344.5601 27.0032 -70.8499 -0.537 -0.138 0.832 70 73 62
344.2050 26.5788 -70.7150 -0.741 -0.138 0.657 72 74 63
347.0844 22.4689 -71.3581 -0.413 -0.064 0.909 71 72 67
347.5347 22.0567 -71.4724 -0.412 -0.083 0.907 71 72 67
347.2480 21.6452 -71.3593 -0.412 -0.075 0.908 73 74 69
346.2235 21.2383 -71.0188 -0.445 -0.009 0.896 83 84 79
346.4011 18.8011 -70.9280 -0.041 -0.564 0.825 68 68 66
347.1704 18.3852 -71.1406 -0.048 -0.550 0.834 64 64 64
346.4416 10.8940 -70.4681 -0.668 0.421 0.614 81 79 80
345.5590 10.1690 -70.1523 -0.667 0.425 0.612 81 79 80
347.0400 8.5485 -70.5126 -0.454 -0.321 -0.831 81 80 86
343.9561 6.8559 -69.4597 -0.835 0.551 0.013 64 63 71
343.0773 5.4321 -69.1034 -0.327 -0.312 0.892 46 45 53
343.5229 5.0277 -69.2167 -0.336 -0.309 0.890 45 44 52
344.2748 4.5981 -69.4232 -0.196 -0.459 0.867 44 43 51
344.1334 4.2397 -69.3581 -0.147 -0.605 0.782 43 42 50
345.8508 3.3564 -69.8354 -0.122 -0.645 0.754 38 37 43
346.2542 -0.7191 -69.7163 -0.819 0.206 -0.536 31 28 35
346.7481 -2.9421 -69.7360 -0.513 -0.362 -0.778 35 37 36
321.5368 36.0918 -64.7405 -0.877 -0.464 -0.127 55 69 57
341.4064 31.1056 -70.6130 -0.774 -0.581 0.254 52 64 46
343.4426 30.3438 -71.1995 -0.848 -0.472 -0.242 50 63 45
341.7306 29.8596 -70.6377 -0.559 -0.208 0.803 51 63 45
341.8621 29.4460 -70.6534 -0.559 -0.208 0.803 52 62 45
341.6884 29.0230 -70.5736 -0.563 -0.203 0.801 52 62 45
341.6771 28.6065 -70.5446 -0.570 -0.199 0.797 54 61 45
340.7175 28.1639 -70.2193 -0.750 -0.266 0.605 55 60 46
342.9327 27.3942 -70.8610 -0.629 -0.191 0.754 57 61 47
345.1831 21.6600 -71.2107 -0.026 -0.364 0.931 73 75 70
344.8174 21.2544 -71.0722 -0.078 -0.314 0.946 90 91 86
348.7198 17.5569 -72.0598 -0.066 -0.533 0.844 57 57 55
350.9174 17.1035 -72.7152 -0.388 -0.869 -0.308 53 54 54
335.9171 13.6608 -67.8421 0.107 -0.521 0.847 89 87 88
359.1826 11.4891 -74.9420 0.155 -0.527 0.836 91 89 90
346.3250 8.9813 -70.7921 -0.629 -0.037 -0.776 84 82 87
349.4699 8.4064 -71.7346 -0.471 -0.297 -0.831 86 85 91
342.7545 6.2021 -69.5126 -0.834 0.539 -0.117 58 57 65
341.2650 5.5760 -69.0113 -0.858 0.500 -0.118 55 54 62
345.0529 3.0596 -70.0353 -0.131 -0.606 0.785 60 57 64
345.8114 2.6241 -70.2445 -0.131 -0.606 0.785 60 57 64
346.7678 1.7991 -70.4915 -0.264 -0.241 0.934 59 54 61
346.8108 1.4260 -70.4821 -0.280 -0.021 0.960 57 52 61
349.1994 -4.3061 -70.8748 -0.227 -0.256 0.940 35 36 38
339.5787 29.7955 -70.4507 -0.550 -0.505 0.666 50 63 45
339.7871 29.3886 -70.4906 -0.706 -0.464 0.536 50 63 45
339.7811 28.9748 -70.4630 -0.454 -0.160 0.876 51 62 45
338.1219 28.5116 -69.9147 -0.665 -0.268 0.696 53 62 45
338.3072 28.1083 -69.9476 -0.656 -0.282 0.700 54 60 46
338.7461 27.7120 -70.0603 -0.598 -0.369 0.712 54 60 46
339.1103 27.3129 -70.1495 -0.590 -0.373 0.716 56 60 46
340.2018 26.9299 -70.4673 -0.637 -0.270 0.722 54 60 46
343.3341 18.8661 -70.9458 -0.132 -0.510 0.850 65 65 63
344.7141 18.0460 -71.3268 -0.125 -0.507 0.853 60 59 57
346.6863 17.6076 -71.9170 0.006 -0.541 0.841 57 56 54
348.3763 17.1690 -72.4188 -0.187 -0.974 0.127 54 54 54
345.0160 9.4469 -70.8857 -0.871 0.122 -0.476 90 88 91
351.0010 8.7103 -72.7137 -0.453 -0.326 -0.830 90 88 91
345.6634 8.2643 -71.0148 -0.887 0.153 -0.436 90 89 95
346.9854 7.7988 -71.3997 -0.897 0.140 -0.419 87 86 94
344.5447 6.8261 -70.5749 -0.834 0.549 -0.057 75 74 82
340.6267 5.6299 -69.2738 -0.834 0.532 -0.143 65 64 72
345.5296 0.4527 -70.4864 -0.237 -0.205 0.950 60 57 64
344.6162 -0.5433 -70.1384 -0.236 0.024 0.971 55 52 59
348.3853 -4.5680 -71.0678 -0.199 -0.285 0.938 47 48 50
339.2802 26.5142 -70.6342 -0.919 0.021 0.393 54 60 46
342.7918 18.4869 -71.2314 -0.141 -0.505 0.852 53 53 51
342.4032 18.0979 -71.0841 -0.182 -0.335 0.924 54 53 51
353.7429 10.9472 -74.2054 0.140 -0.523 0.841 84 82 83
357.2135 8.7512 -75.1602 -0.286 -0.952 0.110 94 92 93
339.7765 7.1641 -69.5610 -0.855 0.519 -0.001 80 79 87
334.8063 7.1520 -67.9930 -0.881 0.136 -0.452 78 77 85
332.3651 6.9726 -67.2119 -0.357 -0.706 0.611 77 76 84
332.0876 6.6404 -67.1033 -0.177 -0.762 0.623 77 76 84
333.0494 6.2150 -67.3795 -0.161 -0.768 0.619 76 75 83
340.3093 3.8412 -69.5179 -0.221 -0.876 0.429 79 78 84
343.7634 -0.0920 -70.3571 -0.236 0.024 0.971 80 77 84
343.7219 -1.1653 -70.2758 -0.256 -0.280 0.925 74 71 79
346.6024 -5.4206 -70.9137 -0.513 -0.105 -0.852 68 70 69
338.2857 23.6901 -70.6170 -0.253 -0.264 0.931 47 54 46
338.1253 23.2903 -70.5402 -0.258 -0.283 0.924 46 52 48
337.6244 22.8907 -70.3552 -0.251 -0.307 0.918 47 53 49
339.3181 19.7284 -70.6881 -0.183 -0.253 0.950 69 75 71
340.1569 19.3253 -70.9283 -0.251 -0.243 0.937 59 65 61
324.0020 14.8658 -65.5092 0.120 -0.536 0.835 51 50 48
335.3916 8.5588 -68.7172 -0.910 0.410 -0.058 95 94 99
334.0598 8.2850 -68.2765 -0.889 0.386 0.245 93 92 97
331.6495 7.3826 -67.4526 -0.845 0.476 0.243 82 81 87
329.5676 7.1823 -66.7785 -0.372 -0.641 0.671 82 81 87
329.6515 6.8277 -66.7822 -0.327 -0.737 0.591 84 83 89
330.2678 6.4328 -66.9523 -0.329 -0.734 0.594 84 83 88
337.0175 4.4822 -68.9693 -0.167 -0.789 0.591 81 80 86
342.1913 0.4294 -70.3495 -0.230 -0.053 0.972 97 94 101
341.8944 -0.9673 -70.1647 -0.204 -0.392 0.897 92 89 97
342.4993 -1.7429 -70.3065 -0.115 -0.424 0.898 98 97 102
351.4111 -4.1949 -72.9776 -0.390 -0.201 -0.899 94 96 95
338.6720 23.7045 -71.2176 -0.285 -0.258 0.923 42 49 41
338.6020 23.3044 -71.1688 -0.273 -0.271 0.923 42 48 44
337.3781 22.9008 -70.7508 -0.258 -0.291 0.921 43 49 45
336.0554 21.3280 -70.2238 -0.426 -0.171 0.889 47 53 49
337.8663 19.7541 -70.6989 -0.219 -0.338 0.916 62 71 66
338.9237 19.3508 -71.0104 -0.243 -0.224 0.944 55 61 57
340.0142 18.9440 -71.3322 -0.278 -0.223 0.934 52 54 51
320.2577 9.5403 -64.3928 -0.800 0.330 -0.501 97 97 99
319.9955 9.2218 -64.2879 -0.799 0.346 -0.492 96 96 98
331.7419 7.3812 -67.9227 -0.842 0.473 0.260 96 96 98
328.8589 7.2391 -66.9913 -0.353 -0.689 0.633 89 89 92
329.2187 6.8650 -67.0817 -0.242 -0.809 0.536 85 84 87
330.0576 6.4537 -67.3228 -0.242 -0.809 0.536 85 84 87
334.4200 5.0562 -68.6255 -0.207 -0.814 0.543 85 84 89
341.4697 1.9406 -70.6740 -0.397 -0.187 0.898 75 73 78
341.3076 1.5960 -70.5994 -0.379 -0.231 0.896 76 74 79
340.5755 -2.2307 -70.1124 -0.256 -0.284 0.924 107 109 108
263.2206 130.9108 -54.6187 -0.416 -0.778 0.470 71 88 44
337.4463 23.7064 -71.3004 -0.289 -0.264 0.920 46 53 45
335.0832 21.3418 -70.3801 -0.449 -0.122 0.885 47 52 48
335.4844 20.5635 -70.4569 -0.071 -0.515 0.854 62 67 63
339.7026 18.9583 -71.7071 -0.047 -0.523 0.851 51 53 50
315.9606 10.1518 -63.4684 -0.833 0.403 -0.379 96 96 96
320.2253 9.2118 -64.7785 -0.802 0.346 -0.486 96 96 96
319.2787 8.9408 -64.4554 -0.789 0.327 -0.520 96 96 96
326.3080 8.1185 -66.6636 -0.923 0.383 -0.047 96 96 96
323.9949 7.9391 -65.9066 -0.386 -0.542 0.746 96 96 96
327.7035 7.3285 -67.0598 -0.247 -0.800 0.548 93 93 93
328.3025 6.9384 -67.2264 -0.216 -0.842 0.494 88 88 88
329.1028 6.5315 -67.4567 -0.220 -0.838 0.500 87 87 87
330.3506 6.0876 -67.8286 -0.392 -0.503 0.770 87 87 87
331.3425 5.6606 -68.1193 -0.399 -0.518 0.756 86 86 87
332.5530 5.2131 -68.4789 -0.426 -0.536 0.729 86 86 88
265.5348 130.0937 -55.7581 -0.647 -0.164 0.744 74 89 48
266.4006 130.2223 -56.0476 -0.429 -0.388 0.816 72 87 46
333.9004 22.1307 -70.5173 -0.429 -0.132 0.893 50 56 52
335.3710 20.1872 -70.8608 -0.050 -0.519 0.854 59 65 61
320.7147 10.5364 -65.4460 -0.594 -0.072 -0.801 104 104 104
326.1496 8.1347 -67.0435 -0.249 -0.441 0.862 96 96 96
326.8131 7.7432 -67.2318 -0.339 -0.548 0.765 96 96 96
327.2254 7.3684 -67.3397 -0.253 -0.780 0.573 95 95 95
327.8367 6.9781 -67.5112 -0.217 -0.821 0.527 92 92 92
328.7091 6.5664 -67.7658 -0.235 -0.794 0.560 92 92 92
329.4522 5.8162 -67.9553 -0.410 -0.502 0.761 91 91 91
326.7457 5.6913 -67.0691 -0.430 -0.407 0.806 91 91 91
338.7961 -4.0982 -70.3048 -0.021 -0.487 0.873 112 113 115
263.4990 131.2610 -55.6244 -0.423 -0.765 0.486 79 94 51
265.7139 131.9266 -56.3941 -0.261 -0.655 0.709 80 95 54
266.1480 131.1764 -56.4834 -0.623 -0.231 0.747 82 94 54
266.7103 129.9827 -56.5836 -0.436 -0.386 0.813 74 86 46
266.9751 129.6443 -56.6464 -0.442 -0.381 0.812 72 87 46
295.3100 24.6764 -58.5606 -0.678 -0.576 -0.457 59 65 51
332.7710 21.7551 -70.5876 -0.409 -0.031 0.912 53 59 55
345.0310 9.4856 -73.7328 -0.748 0.085 -0.659 108 108 108
324.9545 8.2230 -67.0896 -0.284 -0.506 0.814 96 96 96
325.6446 7.8316 -67.2875 -0.290 -0.514 0.807 96 96 96
326.1642 5.0648 -67.2637 -0.365 -0.380 0.850 95 95 93
326.3314 4.7122 -67.2937 -0.364 -0.377 0.852 95 96 91
327.2539 3.6165 -67.5183 -0.302 -0.405 0.863 93 94 89
328.4834 3.1645 -67.8882 -0.287 -0.688 0.666 93 93 91
328.9965 2.7771 -68.0286 -0.240 -0.760 0.604 92 93 88
336.5263 0.3117 -70.3148 -0.071 -0.454 0.888 93 93 91
334.5153 -1.5374 -69.5289 -0.086 -0.399 0.913 96 96 98
330.7790 21.7683 -70.3961 -0.483 -0.031 0.875 59 65 61
331.3181 21.3852 -70.5461 -0.475 -0.086 0.876 58 64 61
347.4547 9.3531 -74.9945 -0.825 0.469 -0.315 113 113 113
321.0800 6.1620 -66.0970 -0.234 -0.433 0.871 100 100 100
322.1867 4.7444 -66.3599 -0.201 -0.421 0.885 99 99 97
328.4922 2.8285 -68.2964 -0.271 -0.687 0.674 98 98 96
329.2964 2.4127 -68.5312 -0.253 -0.693 0.675 97 97 95
329.9215 2.0125 -68.7082 -0.253 -0.693 0.675 102 102 100
331.1308 1.2121 -69.0488 -0.306 -0.672 0.674 105 105 103
332.2333 0.0773 -69.3304 -0.474 -0.503 0.723 103 103 101
332.5218 -0.2934 -69.3989 -0.474 -0.503 0.723 101 101 99
321.0679 5.8361 -66.4861 -0.227 -0.456 0.860 106 106 106
321.2173 5.4931 -66.5107 -0.212 -0.518 0.829 105 105 105
322.9880 3.6846 -66.9657 -0.181 -0.534 0.826 102 102 100
327.3410 2.9414 -68.3527 -0.303 -0.731 0.611 101 101 99
328.8371 2.1225 -68.7885 -0.293 -0.725 0.623 106 106 104
330.0572 1.3243 -69.1346 -0.328 -0.641 0.694 115 115 113
331.1735 0.5317 -69.4466 -0.454 -0.555 0.697 113 113 111
331.5634 0.1515 -69.5481 -0.565 -0.326 0.758 112 112 110
332.0399 -0.5772 -69.6530 -0.565 -0.335 0.754 110 110 108
332.5781 -2.3239 -69.7046 -0.791 -0.193 0.581 99 99 101
333.0078 -3.0464 -69.7945 -0.788 -0.175 0.591 97 97 99
333.0841 -3.3907 -69.7948 -0.788 -0.175 0.591 101 101 103
338.5327 -4.4038 -71.5248 -0.010 -0.681 0.732 116 116 118
320.5491 4.8966 -66.6605 -0.281 -0.395 0.875 113 113 111
321.3297 3.8428 -66.8429 -0.150 -0.449 0.881 111 112 107
326.2773 3.0459 -68.4329 -0.292 -0.750 0.594 110 110 108
329.3338 0.7276 -69.2805 -0.792 -0.085 0.604 116 116 114
332.0261 -0.2345 -70.1067 -0.776 -0.134 0.616 116 116 114
332.8815 -2.6939 -70.2105 -0.791 -0.166 0.589 112 112 114
312.5607 11.0467 -64.8564 -0.048 -0.784 0.619 114 114 116
337.3808 -1.5061 -72.2414 -0.571 -0.118 0.812 117 117 117
315.8218 12.5257 -66.4751 0.161 -0.659 0.734 89 91 84
315.7205 12.8722 -66.8817 0.084 -0.518 0.851 70 77 61
311.2097 11.1430 -65.6163 -0.144 -0.899 0.414 118 123 126
309.0654 10.3178 -65.2140 -0.034 -0.607 0.794 120 119 124
307.9292 10.3957 -65.2233 -0.021 -0.622 0.783 124 123 128
317.1399 12.8290 -69.0333 -0.292 -0.677 0.676 65 74 54
307.5769 11.0560 -65.5496 0.113 -0.537 0.836 116 123 127
305.9875 11.1576 -65.3949 0.134 -0.533 0.835 108 116 119
250.0267 133.5086 -56.4324 -0.543 -0.828 -0.140 71 85 49
249.6938 132.6811 -56.2442 -0.945 0.244 -0.219 76 88 52
248.7901 131.3495 -55.8112 -0.941 0.251 -0.228 77 87 50
275.8916 76.4330 -60.7111 -0.330 -0.840 0.431 58 76 38
305.7310 10.8648 -65.6710 0.103 -0.613 0.783 122 127 131
305.4459 10.5700 -65.5451 0.072 -0.637 0.768 125 125 131
217.6999 202.3301 -51.3083 -0.621 0.151 0.769 52 74 35
250.0092 133.5606 -56.8532 -0.553 -0.809 -0.199 66 80 45
248.2896 131.4903 -56.0624 -0.320 -0.888 -0.331 71 83 47
248.3316 131.0070 -56.0355 -0.984 0.086 0.158 72 82 47
248.1745 130.3484 -55.9227 -0.908 0.358 0.217 72 82 47
247.8309 129.5281 -55.7295 -0.959 0.274 0.071 72 82 47
248.0643 129.2194 -55.7858 -0.958 0.281 0.065 76 86 51
247.5813 128.2838 -55.5331 -0.993 -0.016 0.119 76 86 51
272.1105 76.6932 -59.7963 -0.525 0.012 0.851 54 72 34
274.4053 75.5207 -60.5112 -0.567 -0.820 0.079 62 80 42
303.5733 11.0043 -65.3065 0.126 -0.506 0.853 115 118 125
239.3322 129.4457 -53.0925 -0.329 -0.878 -0.349 72 88 49
240.1320 129.6989 -53.4010 -0.647 -0.533 -0.546 73 89 50
248.4819 132.2527 -56.6144 -0.582 -0.806 0.106 59 73 38
248.2616 131.5317 -56.4723 -0.320 -0.893 -0.317 65 77 41
247.9111 130.6980 -56.2736 -0.977 0.076 0.199 66 76 41
247.9608 130.2243 -56.2498 -0.907 0.359 0.219 66 76 41
247.8278 129.5905 -56.1466 -0.958 0.275 0.078 67 77 42
248.0379 129.2611 -56.1929 -0.956 0.289 0.053 76 86 51
247.6002 128.3646 -55.9575 -0.994 -0.020 0.110 76 86 51
247.3611 127.6464 -55.8088 -0.943 -0.112 -0.314 76 86 51
247.1042 126.9164 -55.6528 -0.973 -0.126 -0.196 75 85 50
248.0508 126.7214 -55.9745 -0.972 -0.234 -0.032 78 85 51
274.9603 79.4434 -61.4577 -0.726 -0.294 -0.622 55 73 33
272.6797 76.1317 -60.3505 -0.867 -0.199 -0.458 58 76 36
272.7635 75.7606 -60.3480 -0.867 -0.199 -0.458 59 77 39
275.5111 75.5447 -61.3127 -0.448 -0.701 -0.554 66 86 49
241.0682 151.2875 -56.0569 -0.734 -0.584 -0.347 64 86 47
246.7374 130.7477 -56.2699 -0.392 -0.852 -0.348 55 69 34
247.6127 131.0162 -56.6091 -0.979 0.071 0.193 60 72 36
247.7055 130.5804 -56.6037 -0.976 0.087 0.197 61 71 36
247.5620 129.9357 -56.4946 -0.900 0.377 0.221 61 71 36
247.5529 129.4125 -56.4447 -0.996 -0.001 0.088 62 72 37
247.5415 128.8891 -56.3940 -0.994 -0.020 0.110 71 81 46
247.5559 128.3900 -56.3547 -0.994 -0.020 0.110 71 81 46
247.3427 127.6941 -56.2160 -0.997 -0.023 0.075 70 80 45
247.4286 126.7547 -56.1633 -0.993 -0.117 0.012 75 82 48
247.3294 125.6621 -56.0302 -0.964 0.241 0.112 77 84 50
241.9824 115.4411 -53.1935 -0.340 -0.915 -0.217 73 83 48
304.8147 11.8763 -66.6048 0.108 -0.438 0.892 58 68 59
305.2889 11.5347 -66.7453 0.090 -0.425 0.901 65 75 70
241.3514 151.6890 -56.6218 -0.727 -0.575 -0.376 59 81 42
246.0202 135.3978 -56.8424 -0.531 -0.803 0.272 61 77 38
249.4804 135.4190 -58.0987 -0.284 -0.849 -0.447 52 68 32
247.2682 129.2258 -56.7371 -0.997 -0.023 0.075 56 66 31
247.2828 128.7260 -56.6973 -0.997 -0.023 0.075 61 71 36
247.2973 128.2278 -56.6575 -0.997 -0.023 0.075 61 71 36
247.2012 127.1272 -56.5232 -0.918 -0.046 0.394 61 71 36
245.6458 123.7898 -55.6578 -0.961 0.226 0.163 72 79 45
303.5835 11.6402 -66.5282 0.033 -0.556 0.830 54 67 56
234.1428 146.9622 -53.9864 -0.314 -0.930 -0.190 65 82 46
240.2008 151.6322 -56.6242 -0.783 -0.584 -0.212 53 76 34
240.4438 151.3283 -56.6850 -0.783 -0.584 -0.212 53 76 34
241.2049 151.6072 -56.9882 -0.696 -0.650 -0.305 56 78 39
246.8531 129.4360 -57.0168 -0.902 0.381 0.204 57 64 30
247.2038 129.2337 -57.1262 -0.977 0.209 0.036 56 66 31
247.6758 128.6239 -57.2425 -0.972 0.229 -0.060 61 71 34
247.1270 127.6337 -56.9516 -0.979 0.195 -0.060 61 71 34
246.8519 126.8874 -56.7828 -0.992 0.097 0.085 63 70 36
246.7282 126.2758 -56.6817 -0.819 -0.104 0.565 66 73 39
246.0334 125.1757 -56.3274 -0.935 0.324 0.145 66 73 39
245.8538 124.5239 -56.2022 -0.947 0.296 0.123 66 73 39
245.4030 123.6443 -55.9571 -0.917 0.269 0.294 65 72 38
302.2922 11.7212 -66.4528 -0.081 -0.543 0.836 52 69 51
302.9835 11.3707 -66.6728 -0.037 -0.857 0.514 45 63 43
218.7715 195.2586 -53.2376 -0.929 0.020 0.369 68 89 50
246.2325 126.4125 -56.9195 -0.980 0.195 -0.022 61 71 36
246.4286 126.0797 -56.9606 -0.978 0.184 -0.097 61 68 34
245.6404 124.4030 -56.5155 -0.943 0.304 0.136 60 67 33
298.9912 12.2238 -65.6735 0.019 -0.625 0.780 61 78 59
301.1430 11.4870 -66.3948 -0.050 -0.877 0.478 45 64 42
322.0051 8.5202 -73.7764 -0.015 -0.965 0.260 115 116 118
218.1469 192.1611 -53.5755 -0.724 -0.251 0.643 56 77 38
297.3877 12.0243 -65.8168 -0.096 -0.926 0.366 57 74 55
318.0012 8.4744 -73.1373 0.109 -0.717 0.688 115 116 118
296.1202 12.1037 -65.7262 0.031 -0.733 0.679 58 75 56
291.0911 11.2569 -64.8465 0.137 -0.731 0.668 61 74 59
282.2686 11.0318 -62.4888 0.175 -0.675 0.717 69 74 69
299.0411 8.3585 -69.0848 0.132 -0.735 0.665 122 127 121
303.9379 7.3606 -70.8877 0.153 -0.684 0.713 117 122 116
258.2461 71.9694 -60.2820 -0.708 0.170 0.686 52 68 31
258.3660 71.6474 -60.2945 -0.702 0.185 0.687 61 77 40
291.0163 10.7094 -66.5670 0.047 -0.678 0.733 60 72 56
297.5601 8.1853 -68.8621 0.120 -0.772 0.624 117 122 116
277.9245 10.8239 -61.7785 0.119 -0.775 0.620 64 69 65
180.8640 159.1065 -39.8843 -0.927 0.074 0.367 67 96 50
272.5004 11.4825 -60.0315 0.148 -0.641 0.753 55 60 56
282.6059 9.9407 -63.8703 0.126 -0.762 0.635 89 94 88
274.1026 10.8580 -60.9219 0.133 -0.626 0.769 61 66 60
261.1683 54.2081 -60.9254 -0.859 0.241 0.451 59 72 44
272.0381 11.0177 -60.4354 0.133 -0.626 0.769 60 62 56
285.3632 9.1864 -65.5754 0.049 -0.593 0.803 90 95 89
260.2382 53.3559 -60.8040 -0.910 0.063 0.409 58 71 43
268.6330 11.5255 -59.4386 0.115 -0.558 0.822 59 61 57
269.9522 11.1790 -59.9315 0.132 -0.625 0.769 59 61 56
284.7666 8.9657 -65.6572 0.004 -0.599 0.801 106 111 105
285.5545 8.6275 -65.9367 0.037 -0.597 0.802 109 114 108
285.7648 9.7111 -66.4940 -0.125 -0.343 0.931 63 68 62
284.8271 8.4207 -65.9652 0.066 -0.599 0.798 109 114 108
259.8623 53.6330 -61.3783 -0.916 0.084 0.393 47 60 32
259.8507 53.3057 -61.3356 -0.916 0.084 0.393 48 61 33
259.8709 52.9866 -61.3067 -0.941 0.015 0.337 49 62 34
260.8206 52.8809 -61.6819 -0.943 -0.297 0.153 51 64 36
259.8731 52.3418 -61.2327 -0.910 0.101 0.403 53 66 38
295.1479 7.2488 -70.3861 0.195 -0.625 0.756 110 115 109
259.4011 54.1938 -61.6026 -0.988 0.046 0.149 41 54 26
259.5758 53.9104 -61.6409 -0.988 0.059 0.142 42 55 27
259.6734 53.6086 -61.6455 -0.913 0.099 0.396 43 56 28
259.6712 53.2838 -61.6064 -0.914 0.090 0.396 43 56 28
259.7626 52.9815 -61.6084 -0.941 0.015 0.337 43 56 28
284.0310 9.0367 -66.4026 0.159 -0.639 0.753 91 99 88
291.6173 7.2793 -69.3091 0.153 -0.632 0.759 108 115 107
291.1407 7.0411 -69.0855 0.131 -0.671 0.730 108 115 107
283.5832 8.8069 -66.5357 0.184 -0.609 0.771 81 89 76
285.3290 8.3874 -67.2062 0.174 -0.601 0.780 92 100 89
287.2910 7.9435 -67.9630 0.173 -0.598 0.783 104 112 101
287.7132 6.5427 -69.0232 0.162 -0.640 0.752 119 123 118
276.5232 7.8743 -64.8195 0.088 -0.604 0.792 122 132 118
272.8377 9.7267 -63.8160 0.003 -0.590 0.807 64 75 59
273.3758 9.4289 -64.0069 0.013 -0.592 0.806 62 73 57
285.4372 6.4973 -68.7549 0.162 -0.671 0.723 121 122 125
272.6091 9.4977 -64.0111 -0.001 -0.589 0.808 63 74 58
272.7137 7.9903 -63.8648 0.077 -0.483 0.872 118 125 116
272.9357 7.7207 -63.9254 0.073 -0.585 0.808 122 123 124
272.4688 9.5157 -64.5952 -0.148 -0.370 0.917 64 75 59
228.7216 46.2014 -50.7492 -0.366 -0.845 0.391 56 67 35
272.3912 9.5254 -64.8839 -0.133 -0.475 0.870 64 75 59
273.8332 7.3908 -65.2301 0.142 -0.554 0.820 123 123 125
225.3408 46.1490 -49.5379 -0.266 -0.832 0.486 62 73 41
272.5798 7.2705 -64.9898 0.088 -0.577 0.812 124 121 128
264.1844 9.7611 -61.9636 0.165 -0.673 0.721 66 79 59
264.7530 9.4737 -62.1743 0.168 -0.686 0.708 69 82 63
270.2603 7.5070 -64.3243 -0.034 -0.559 0.829 124 124 124
198.9936 151.8377 -52.6758 -0.328 -0.873 -0.361 65 90 48
199.1237 147.6617 -52.1714 -0.317 -0.932 -0.174 68 90 52
200.0687 146.5738 -52.4411 -0.283 -0.355 0.891 58 83 44
200.5199 146.7944 -52.6694 -0.629 -0.333 0.702 57 82 43
200.7975 146.7209 -52.7817 -0.675 -0.303 0.672 58 83 44
268.1519 8.4427 -63.8359 0.105 -0.606 0.788 76 89 71
268.5903 8.1592 -63.9908 0.083 -0.564 0.822 101 112 97
269.0862 7.3869 -64.1052 -0.343 -0.689 0.639 127 125 129
198.2772 150.6595 -52.5376 -0.448 -0.811 -0.375 61 86 44
