ply
format ascii 1.0
element vertex 852
property float x
property float y
property float z
property float nx
property float ny
property float nz
property uchar diffuse_red
property uchar diffuse_green
property uchar diffuse_blue
end_header
14.9343 279.2489 -35.0252 -0.198 -0.966 -0.168 79 83 72
15.6484 279.1029 -35.0285 -0.198 -0.966 -0.168 81 89 72
18.6082 284.0436 -35.6217 -0.480 -0.838 -0.260 85 95 75
-335.5145 264.3846 -25.0691 -0.332 -0.234 0.914 78 76 90
-281.4939 338.9413 -34.4420 -0.894 -0.442 -0.065 83 80 101
-137.1917 229.2917 -26.4819 -0.272 -0.961 0.054 79 60 64
-136.5493 229.1098 -26.4791 -0.272 -0.961 0.054 77 61 62
-135.8876 228.4575 -26.4267 -0.282 -0.958 0.047 71 57 57
-135.2869 229.2480 -26.5268 -0.272 -0.962 0.015 64 59 55
-124.4854 221.5176 -25.9819 -0.608 -0.786 0.115 94 70 73
-119.2609 205.3693 -24.3924 -0.893 -0.450 -0.020 66 42 48
-114.0958 218.2341 -25.9015 0.601 -0.785 0.151 90 72 69
-89.5302 197.2912 -24.3032 -0.256 -0.888 -0.381 100 88 97
-90.0847 186.1834 -23.1018 -0.448 -0.678 0.583 83 88 77
-59.2748 248.1006 -30.5199 -0.178 -0.249 0.952 73 74 58
-45.7798 265.5208 -32.7326 0.391 -0.066 0.918 84 71 73
-44.7592 266.6163 -32.8763 0.283 -0.039 0.958 81 67 69
-43.3462 269.1868 -33.1877 0.283 -0.039 0.958 81 65 67
-25.5694 280.8748 -34.8994 -0.190 0.113 0.975 87 99 72
-11.6899 289.6705 -36.2005 -0.694 -0.237 0.680 123 116 132
0.9532 297.8820 -37.4071 0.302 -0.066 0.951 110 97 116
10.5355 293.1532 -37.1512 -0.685 -0.703 -0.192 103 98 92
17.2891 284.4581 -36.3979 -0.076 -0.983 0.168 76 80 68
16.2267 280.2388 -35.9194 -0.085 -0.996 0.006 78 85 68
-259.5525 296.8962 -31.2941 -0.856 -0.495 -0.151 85 84 88
-137.8799 229.7693 -27.1425 -0.264 -0.962 0.067 73 54 58
-135.3273 229.5438 -27.1845 -0.248 -0.968 0.031 72 64 62
-127.6785 152.6824 -18.9921 -0.764 -0.631 -0.132 96 70 71
-123.8943 218.0925 -26.2328 -0.687 -0.713 0.143 94 67 71
-114.0980 218.4845 -26.5314 -0.047 -0.970 0.240 87 67 66
-112.4711 227.4218 -27.5497 0.217 -0.756 0.617 88 71 67
-111.7780 228.6626 -27.7033 0.188 -0.793 0.580 87 72 65
-97.0843 186.3109 -23.4629 -0.394 -0.729 0.560 83 70 84
-93.7171 187.2426 -23.6525 0.249 -0.953 -0.173 98 76 97
-93.0964 187.8083 -23.7305 -0.404 -0.816 0.413 116 97 117
-90.5939 186.3423 -23.6358 -0.498 -0.737 0.456 91 84 86
-53.2877 246.9816 -31.2310 -0.709 -0.704 0.034 68 59 70
-43.4211 255.2045 -32.3865 0.174 -0.043 0.984 78 61 68
-15.8521 286.5918 -36.5335 -0.510 -0.063 0.858 101 95 96
-14.3633 272.8252 -35.0693 -0.601 -0.142 0.787 124 110 136
6.2728 307.4774 -39.3918 -0.375 -0.000 0.927 104 92 112
10.5768 293.0717 -37.9313 -0.700 -0.688 -0.191 70 62 62
10.5717 291.0705 -37.7126 -0.606 -0.076 0.792 96 90 85
17.4713 303.8762 -39.2910 -0.371 0.043 0.928 106 105 98
18.1277 282.5901 -36.9840 0.630 -0.433 0.645 87 96 75
-149.9773 236.6471 -28.2209 0.480 -0.187 0.857 34 30 29
-136.6438 229.8992 -27.8177 -0.060 -0.950 -0.305 74 58 61
-136.0055 229.8627 -27.8304 -0.060 -0.950 -0.305 85 70 73
-123.9139 217.9929 -26.8235 -0.687 -0.713 0.143 85 60 66
-112.4899 227.2647 -28.1568 0.206 -0.762 0.613 88 68 67
-112.0808 222.4799 -27.6339 -0.103 -0.898 0.428 87 68 64
-95.2988 187.5708 -24.1806 -0.269 -0.842 -0.467 97 78 97
-94.6005 188.7554 -24.3310 -0.162 -0.771 0.616 97 75 95
-60.2989 243.3507 -31.3182 -0.186 -0.068 0.980 76 70 61
-45.7807 249.0197 -32.3308 0.282 -0.095 0.955 76 55 67
-23.1182 269.0949 -35.1634 0.178 -0.024 0.984 76 71 73
-13.8242 276.3744 -36.2187 -0.174 0.044 0.984 115 101 127
6.6601 295.3157 -38.8677 -0.435 -0.053 0.899 76 58 82
16.0981 300.3611 -39.6777 -0.371 0.043 0.928 103 99 98
-267.1818 288.9502 -31.7394 -0.704 -0.491 -0.513 67 64 83
-277.6429 322.6417 -35.3004 0.274 -0.867 -0.417 48 45 63
-285.9550 348.6513 -38.0433 -0.894 -0.442 -0.066 80 78 87
-264.9996 320.1487 -35.3489 -0.646 -0.278 0.711 35 35 35
-136.0175 229.4644 -28.4144 0.032 -0.863 -0.504 83 67 70
-123.3249 217.3554 -27.3694 -0.687 -0.713 0.144 74 47 58
-114.7059 219.2959 -27.8169 -0.022 -0.920 0.392 87 58 69
-113.4124 206.9003 -26.4396 -0.299 -0.916 0.266 86 62 65
-96.4580 186.9598 -24.6149 0.112 -0.968 0.225 95 76 96
-94.1458 188.0287 -24.7974 -0.338 -0.801 0.495 83 62 81
-92.1579 186.6672 -24.6946 -0.507 -0.739 0.444 86 72 85
-70.3479 244.1162 -31.8089 0.434 -0.694 0.575 85 85 73
-50.9472 245.0838 -32.4291 0.373 -0.172 0.912 72 48 62
-50.7349 243.2561 -32.2266 0.435 -0.202 0.878 75 53 66
-49.6702 244.7062 -32.4196 0.435 -0.202 0.878 80 58 71
-45.0019 246.6622 -32.7651 0.269 -0.068 0.961 79 58 72
-17.5233 281.2415 -37.4245 -0.479 -0.103 0.871 82 70 73
14.8281 301.1279 -40.5391 -0.429 0.026 0.903 61 51 56
18.0242 296.8725 -40.1386 0.053 -0.009 0.999 128 124 130
19.4270 298.2357 -40.3307 0.075 -0.013 0.997 99 98 103
20.4169 298.6179 -40.4003 0.075 -0.013 0.997 75 75 77
21.2502 298.6318 -40.4238 0.070 -0.013 0.997 73 73 73
-269.8044 298.2695 -33.5108 0.556 -0.761 -0.334 39 36 47
-157.4745 250.3695 -30.9074 -0.369 -0.181 0.911 34 30 33
-113.4124 207.1437 -27.0466 -0.292 -0.921 0.258 85 60 63
-97.5577 186.8126 -25.1023 -0.393 -0.780 0.487 87 74 86
-97.1057 186.0665 -25.0276 -0.373 -0.787 0.491 90 72 91
-94.6609 188.2265 -25.3430 -0.137 -0.780 0.610 94 75 95
-94.1644 187.8533 -25.3128 -0.256 -0.802 0.540 85 66 85
-61.8246 239.3643 -32.1511 -0.236 -0.046 0.971 83 67 72
-59.7276 233.9910 -31.5821 -0.187 -0.074 0.980 68 47 67
-44.9932 244.0842 -33.1435 0.283 -0.068 0.957 76 57 77
-42.0669 252.0187 -34.1426 0.087 -0.098 0.991 86 67 86
-10.2108 261.2384 -36.0541 0.305 -0.038 0.952 112 99 124
-7.1846 267.2425 -36.8316 0.309 -0.046 0.950 112 95 130
20.1052 292.0105 -40.4293 0.068 -0.012 0.998 95 97 92
15.3195 275.7004 -38.4078 0.026 -0.001 1.000 88 100 80
-280.6065 304.6806 -34.7655 -0.305 -0.087 0.948 79 74 97
-278.0120 300.6800 -34.3599 -0.301 -0.086 0.950 87 81 107
-269.7305 287.3097 -32.9941 -0.542 -0.250 0.803 112 107 125
-266.9779 282.7787 -32.5298 -0.543 -0.248 0.802 113 110 121
-270.5554 316.8827 -36.4779 -0.881 -0.455 -0.132 17 16 21
-154.5499 208.8787 -26.7441 0.687 -0.264 0.677 27 25 26
-137.2782 227.9709 -29.4644 -0.032 -0.974 0.224 73 47 54
-136.7196 229.6158 -29.6741 0.023 -0.861 -0.507 73 47 53
-136.0835 229.6447 -29.6944 0.023 -0.861 -0.507 79 51 58
-123.3595 218.1260 -28.6656 -0.612 -0.778 0.144 73 47 58
-122.7565 216.6819 -28.5103 0.162 -0.984 0.076 65 39 50
-98.1019 186.7784 -25.6178 -0.593 -0.742 0.312 76 68 73
-95.2350 187.9765 -25.8357 -0.720 -0.539 0.438 102 83 102
-94.7468 187.5347 -25.7962 -0.255 -0.809 0.529 97 76 95
-94.2335 187.2975 -25.7817 -0.287 -0.799 0.528 91 72 92
-89.9248 186.9755 -25.8575 -0.108 -0.783 -0.612 71 75 65
-61.5310 231.7974 -31.9221 -0.229 -0.126 0.965 88 67 84
-60.4336 230.8920 -31.8438 -0.064 -0.389 0.919 74 52 75
-52.4476 236.4326 -32.7119 0.007 -0.103 0.995 73 49 65
-51.0903 236.5102 -32.7570 0.018 -0.103 0.995 81 56 75
-43.2860 233.4861 -32.6050 0.296 -0.025 0.955 89 70 87
-39.8324 240.5382 -33.5324 0.095 -0.028 0.995 92 71 86
-14.3061 252.1632 -35.5858 0.246 -0.031 0.969 103 91 112
14.3838 284.1552 -40.1374 0.070 -0.013 0.997 144 139 144
15.3084 284.4600 -40.1980 0.070 -0.013 0.997 142 140 141
8.6613 267.2869 -37.9863 0.006 -0.007 1.000 125 125 124
-154.1465 210.0673 -27.4801 0.661 -0.005 0.750 30 26 27
-145.4994 219.6902 -28.8730 0.178 -0.967 -0.183 53 49 47
-136.6037 226.4246 -29.9233 -0.113 -0.962 0.250 76 45 53
-135.4533 229.1241 -30.2801 -0.364 -0.930 -0.056 78 46 52
-123.3894 215.5095 -28.9545 0.351 -0.927 0.130 69 46 56
-122.7812 215.7308 -28.9974 0.347 -0.929 0.129 61 35 46
-122.1719 215.9579 -29.0410 0.351 -0.927 0.130 68 40 52
-63.8786 235.9235 -33.0020 0.061 -0.159 0.985 76 53 70
-51.8265 233.6135 -33.0427 -0.029 -0.097 0.995 80 57 75
-28.3412 238.1620 -34.2160 0.172 0.010 0.985 84 65 81
-5.2769 260.3879 -37.5151 0.330 -0.062 0.942 120 102 124
13.0018 284.4550 -40.9098 -0.388 0.008 0.921 68 60 73
12.9469 282.4626 -40.6675 -0.304 0.024 0.952 78 71 79
42.8043 236.0242 -35.8460 0.589 -0.416 0.693 76 88 68
45.4342 234.7399 -35.7606 0.425 -0.862 0.274 82 93 74
-257.1034 281.6378 -34.1442 -0.592 -0.544 -0.595 26 26 28
-154.1162 230.9297 -30.6374 -0.376 -0.012 0.926 75 59 70
-111.6654 207.3855 -28.8662 0.681 -0.726 -0.094 79 63 63
-94.7635 187.3409 -26.8460 -0.258 -0.795 0.549 86 71 83
-91.0539 190.3542 -27.3161 0.043 -0.725 0.688 106 104 116
-90.4984 190.3709 -27.3330 0.043 -0.725 0.688 85 86 89
-72.0070 235.0403 -33.3306 0.369 -0.147 0.918 68 62 66
-63.4495 226.0723 -32.4532 -0.202 -0.020 0.979 64 41 61
-52.4220 231.2490 -33.3849 -0.032 -0.095 0.995 82 60 78
-51.8090 231.0850 -33.3810 -0.032 -0.095 0.995 82 58 80
-48.8614 227.5674 -33.0260 0.298 -0.057 0.953 81 60 77
-34.7109 229.0704 -33.5881 0.075 -0.187 0.980 79 63 71
-30.4610 229.9861 -33.8141 0.170 0.011 0.985 85 63 77
-27.9193 235.3582 -34.5438 0.001 0.067 0.998 86 66 78
-11.1393 245.4590 -36.2355 0.303 -0.040 0.952 125 108 122
-8.5437 250.2089 -36.8901 0.282 -0.037 0.959 118 99 116
12.3881 284.7015 -41.6984 -0.645 -0.074 0.761 72 60 82
12.1091 280.3169 -41.1507 -0.379 0.003 0.925 69 61 76
11.6765 277.4781 -40.7893 -0.312 0.026 0.950 65 58 71
12.2329 275.1732 -40.5200 -0.310 0.024 0.951 77 71 81
12.5792 274.1958 -40.4088 -0.310 0.025 0.950 103 99 106
7.2383 258.5960 -38.3440 0.008 -0.004 1.000 136 135 137
42.5760 234.3539 -36.2974 0.475 -0.524 0.706 68 75 57
-137.3911 228.4482 -31.4079 -0.092 -0.926 0.365 78 47 55
-127.0718 215.6452 -30.0755 -0.373 -0.722 -0.583 72 45 53
-118.6665 211.0372 -29.7213 -0.824 -0.497 -0.273 69 39 49
-112.2910 206.8630 -29.3674 0.681 -0.726 -0.094 72 56 57
-97.2668 189.1855 -27.5485 -0.724 -0.541 0.427 74 60 81
-95.1154 184.6139 -27.0318 0.145 -0.971 0.188 85 72 83
-94.6774 183.8547 -26.9482 0.481 -0.868 0.127 94 82 95
-91.6537 189.9800 -27.7983 -0.002 -0.712 0.703 118 115 133
-91.1034 189.9654 -27.8112 -0.002 -0.712 0.703 126 126 134
-90.5600 189.9036 -27.8179 -0.005 -0.706 0.709 83 86 86
-90.0051 189.9207 -27.8349 -0.101 -0.608 0.788 78 84 76
-73.3786 234.6993 -33.9032 0.079 -0.275 0.958 62 55 61
-67.0163 227.3074 -33.1447 -0.013 -0.411 0.911 61 44 54
-66.4288 227.0403 -33.1269 -0.091 -0.431 0.898 63 45 57
-65.0178 224.7062 -32.8714 -0.114 -0.035 0.993 66 44 62
-64.4313 224.4722 -32.8577 -0.229 -0.023 0.973 64 41 61
-31.1616 229.7220 -34.4059 0.004 0.054 0.999 80 52 69
-28.7078 227.3909 -34.1787 -0.129 0.104 0.986 87 77 91
-28.8150 223.5012 -33.6873 -0.020 0.058 0.998 77 74 87
-23.4403 227.5096 -34.3343 -0.196 0.021 0.980 78 71 71
-8.0680 247.7161 -37.2829 0.276 -0.034 0.960 116 97 115
-4.8681 253.8466 -38.1384 0.281 -0.045 0.959 115 99 124
9.0760 284.2004 -42.3233 -0.412 -0.001 0.911 113 102 135
10.9491 275.6041 -41.2937 -0.378 0.009 0.926 71 60 80
4.2403 258.2662 -38.9368 -0.450 -0.008 0.893 66 57 76
4.7315 257.7121 -38.8804 -0.439 -0.006 0.898 52 43 62
11.7541 272.1275 -40.8785 -0.388 0.013 0.922 51 43 60
6.7137 253.9677 -38.4630 0.028 0.020 0.999 138 138 140
7.2076 250.2823 -38.0133 -0.069 0.018 0.997 98 104 92
7.7145 249.8300 -37.9701 -0.069 0.018 0.997 97 105 92
18.6770 247.4963 -37.9699 -0.150 -0.817 -0.557 85 99 76
33.4971 221.4155 -35.0901 0.038 -0.940 -0.339 75 84 67
-272.2205 298.7359 -37.4196 -0.544 -0.596 -0.591 43 40 46
-154.0089 198.4583 -27.7569 0.678 -0.007 0.735 46 42 43
-147.6477 215.1464 -30.0627 -0.212 -0.705 0.676 69 55 57
-144.7797 217.0156 -30.3788 0.262 -0.964 0.046 72 61 61
-116.0258 201.4059 -29.1521 0.323 -0.907 -0.272 70 47 51
-114.8866 201.0933 -29.1426 0.336 -0.904 -0.265 64 43 46
-96.6959 184.8811 -27.5558 -0.457 -0.670 0.585 66 46 72
-95.3206 187.1860 -27.8875 -0.713 -0.537 0.450 78 60 80
-94.1033 184.0886 -27.5238 0.481 -0.868 0.127 112 100 117
-91.7152 189.5038 -28.2808 -0.002 -0.712 0.703 144 141 155
-91.1656 189.4892 -28.2936 -0.002 -0.712 0.703 136 136 141
-90.6240 189.4205 -28.2993 -0.005 -0.706 0.709 80 84 81
-90.0861 189.3290 -28.3021 -0.101 -0.608 0.788 80 87 77
-74.1572 230.4254 -33.9875 0.578 -0.561 0.593 53 46 53
-66.4102 227.0233 -33.7599 -0.015 -0.411 0.912 63 47 57
-52.4792 225.9375 -33.9943 0.261 -0.117 0.958 87 64 85
-51.7540 226.2303 -34.0512 0.234 -0.226 0.946 85 60 83
-51.0370 226.4878 -34.1034 0.428 -0.300 0.853 81 55 79
-47.4634 225.4225 -34.0628 -0.673 -0.535 0.511 70 56 69
-42.0674 228.2847 -34.5737 0.009 -0.079 0.997 80 50 68
-36.1320 224.5408 -34.2537 -0.372 -0.105 0.922 77 51 73
-27.8876 218.9478 -33.7591 0.650 -0.247 0.718 75 73 77
-26.5612 220.7946 -34.0309 0.360 -0.120 0.925 77 73 73
5.9461 274.5564 -41.7814 0.158 -0.048 0.986 111 98 128
3.6091 256.6358 -39.4257 -0.442 -0.008 0.897 70 57 84
3.8842 255.5925 -39.2996 -0.442 -0.008 0.897 54 41 68
4.2272 251.4384 -38.7772 -0.354 0.036 0.935 51 45 65
4.3479 250.0981 -38.6089 -0.346 0.038 0.938 64 59 76
24.3055 257.1515 -40.0464 0.251 -0.098 0.963 81 98 78
23.0650 246.2101 -38.6131 0.389 -0.301 0.871 80 98 75
44.8404 235.4798 -37.8237 0.573 -0.303 0.762 54 56 45
51.7348 244.3939 -39.1491 0.497 -0.402 0.769 58 58 50
41.9663 222.3084 -36.0613 -0.568 -0.685 -0.457 56 57 49
-262.1791 252.3254 -32.4287 0.577 -0.738 -0.350 116 115 128
-139.4271 218.5991 -31.3342 -0.314 -0.241 0.918 73 42 50
-97.8460 188.8962 -28.5814 -0.688 -0.641 0.340 78 66 76
-95.3623 186.8299 -28.3790 -0.713 -0.537 0.450 74 57 76
-92.3307 189.0056 -28.7440 -0.085 -0.604 0.792 124 113 132
-91.7914 188.9248 -28.7480 -0.085 -0.604 0.792 138 132 144
-91.2524 188.8441 -28.7519 -0.085 -0.604 0.792 141 139 142
-90.7137 188.7634 -28.7559 -0.085 -0.604 0.792 84 84 80
-90.1864 188.6089 -28.7500 -0.101 -0.602 0.792 70 77 66
-73.1339 232.3055 -34.9030 -0.464 -0.886 0.004 51 44 52
-60.7363 226.3324 -34.4579 -0.054 -0.446 0.894 62 51 57
-54.0637 222.3177 -34.1141 -0.033 -0.064 0.997 69 52 68
-48.2944 226.9041 -34.8670 -0.514 -0.303 0.802 57 39 55
-48.8334 220.5770 -34.0279 -0.018 -0.121 0.992 54 40 55
-48.4700 219.6538 -33.9174 -0.271 -0.479 0.835 60 48 62
-36.3595 221.8133 -34.5245 -0.269 -0.087 0.959 79 53 73
-35.5879 220.3314 -34.3521 -0.303 -0.092 0.949 76 53 73
-33.8221 221.7605 -34.5858 0.123 -0.198 0.972 73 52 65
-34.7215 217.3494 -33.9868 0.048 -0.129 0.990 69 49 62
-29.5658 214.3126 -33.7297 0.645 -0.247 0.723 74 73 77
9.8185 265.6252 -41.4756 -0.466 -0.008 0.885 52 37 68
3.5107 249.6512 -39.2243 -0.448 -0.009 0.894 48 38 65
13.1457 256.5936 -40.3881 0.161 -0.083 0.983 99 95 100
13.0442 253.2624 -39.9513 -0.354 0.043 0.934 101 96 100
21.0773 246.2997 -39.2599 0.457 -0.435 0.775 85 103 79
23.4357 248.1382 -39.5629 0.505 -0.434 0.746 82 100 74
25.5945 250.9427 -39.9865 0.479 -0.408 0.777 80 98 72
49.1103 234.4709 -38.4722 -0.595 -0.708 -0.379 51 52 47
-176.5420 251.8488 -35.3549 0.667 -0.483 0.567 19 14 24
-175.9796 273.4846 -38.2408 0.364 -0.889 0.277 25 20 22
-158.3885 213.7740 -30.7927 0.544 -0.561 0.624 40 40 39
-155.8517 207.9309 -30.0859 0.740 -0.624 0.251 55 50 48
-143.4120 206.2615 -30.1999 -0.170 -0.398 0.902 81 58 64
-142.6786 204.2521 -29.9531 0.130 -0.345 0.930 78 54 60
-139.2049 214.2388 -31.3719 -0.352 -0.280 0.893 72 42 50
-113.0497 203.9059 -30.7064 0.751 -0.161 0.640 63 44 48
-97.8688 188.6836 -29.0962 -0.728 -0.494 0.475 78 66 75
-91.8753 188.2917 -29.2059 -0.101 -0.602 0.792 130 120 134
-91.3392 188.1989 -29.2080 -0.101 -0.602 0.792 123 118 122
-90.8035 188.1062 -29.2102 -0.101 -0.602 0.792 78 76 73
-76.1607 233.6845 -35.6527 0.660 -0.683 0.314 73 68 65
-72.6581 227.8759 -34.9764 -0.486 -0.873 0.041 46 43 56
-72.6686 221.2919 -34.1026 0.142 -0.489 0.861 44 38 54
-70.0422 224.8507 -34.6456 -0.620 -0.366 0.694 51 37 48
-54.1820 219.4112 -34.3517 0.255 -0.120 0.959 78 60 75
-38.9160 229.7199 -36.1313 -0.643 -0.720 0.263 71 48 61
-34.2271 220.4556 -35.0286 0.127 -0.198 0.972 75 59 71
-35.5154 214.9404 -34.2621 0.048 -0.129 0.990 70 55 68
-22.0540 225.5837 -36.0374 -0.177 0.043 0.983 60 53 61
-21.7116 224.7892 -35.9412 -0.177 0.043 0.983 68 61 69
-20.1351 227.1641 -36.2989 -0.358 0.036 0.933 67 62 69
-20.6499 222.5505 -35.6728 -0.259 -0.015 0.966 74 68 72
0.3503 257.2088 -40.8379 0.291 -0.038 0.956 115 100 132
3.2258 262.2870 -41.5893 0.279 -0.042 0.959 109 94 123
2.9136 253.0252 -40.3520 -0.599 -0.087 0.796 71 56 90
11.1007 252.0177 -40.4391 0.161 -0.083 0.983 114 106 115
12.1202 252.6602 -40.5519 0.161 -0.083 0.983 110 103 110
12.0996 249.5579 -40.1397 -0.354 0.043 0.934 97 92 96
12.2453 248.3597 -39.9846 -0.377 0.041 0.925 94 90 93
13.2231 245.9595 -39.6926 -0.421 -0.046 0.906 95 98 89
19.6571 243.3380 -39.5183 0.270 -0.398 0.876 95 112 86
20.4877 243.5927 -39.5745 0.336 -0.417 0.845 89 106 80
18.6230 237.2630 -38.6843 0.162 -0.835 -0.526 87 106 78
51.9328 233.3698 -39.0663 0.218 -0.784 -0.582 55 67 57
-182.2315 271.0592 -38.4821 0.361 -0.699 0.617 21 16 23
-178.3400 257.6513 -36.7766 0.405 -0.733 0.546 21 17 26
-178.8171 281.1571 -39.9382 0.293 -0.951 -0.100 23 21 27
-169.4494 245.7071 -35.4041 -0.743 -0.379 0.551 29 31 28
-158.3174 212.9127 -31.2764 0.551 -0.567 0.613 43 44 40
-142.5093 209.4689 -31.2391 -0.009 -0.332 0.943 80 53 60
-130.6947 189.0879 -28.8063 0.546 -0.821 0.166 65 37 52
-130.0992 187.0629 -28.5489 -0.460 -0.883 0.089 69 42 57
-122.1773 169.2614 -26.3592 0.609 -0.634 -0.476 70 51 57
-113.1159 202.7121 -31.1220 0.748 -0.163 0.644 66 47 53
-95.1607 184.1357 -29.0991 0.132 -0.974 0.182 72 58 81
-92.4785 187.8661 -29.6755 -0.106 -0.611 0.785 137 126 147
-91.9433 187.7708 -29.6771 -0.106 -0.611 0.785 126 120 132
-91.4596 187.3228 -29.6297 -0.129 -0.593 0.795 109 109 111
-90.9084 187.3462 -29.6478 -0.121 -0.609 0.784 69 75 69
-78.0689 234.0360 -36.3008 -0.348 -0.541 0.766 73 77 60
-73.1434 232.0757 -36.1694 -0.479 -0.878 -0.010 55 49 60
-72.8532 226.7759 -35.4615 -0.557 -0.825 0.096 48 44 60
-70.1343 224.3061 -35.2015 -0.620 -0.370 0.691 48 34 51
-69.7169 223.2371 -35.0685 -0.638 -0.306 0.706 52 38 53
-55.8424 217.7920 -34.7085 -0.032 -0.066 0.997 67 56 65
-54.9996 216.2771 -34.5268 0.255 -0.120 0.959 69 52 63
-29.4653 211.0166 -34.5073 0.586 -0.359 0.727 56 53 61
-28.6225 211.6142 -34.6109 0.545 -0.344 0.765 58 53 62
-4.9755 246.0425 -39.9004 0.206 0.000 0.979 118 104 126
2.1011 252.6462 -40.9838 -0.603 -0.077 0.794 111 96 121
9.4892 256.2379 -41.6688 -0.509 -0.050 0.859 56 42 66
2.6319 238.0459 -39.0263 -0.530 -0.037 0.847 65 53 72
9.7727 248.9898 -40.6976 -0.374 0.042 0.926 113 102 115
4.7978 235.3582 -38.7220 0.157 -0.035 0.987 126 121 129
6.1824 236.8527 -38.9613 0.165 -0.042 0.985 111 108 114
11.2023 244.5132 -40.1317 0.169 -0.011 0.986 96 96 95
27.3482 255.4062 -42.0398 0.478 -0.351 0.806 87 106 78
33.0275 216.8229 -36.9827 0.569 -0.301 0.765 50 58 42
-265.5578 258.7014 -35.2543 -0.641 -0.720 -0.266 49 57 48
-263.4408 255.6630 -34.8942 -0.666 -0.702 -0.251 40 47 39
-188.5959 262.8127 -37.9088 -0.423 -0.901 0.096 21 19 24
-178.8502 245.3074 -35.7677 -0.795 -0.281 0.537 21 18 27
-177.6339 242.4142 -35.4031 -0.791 -0.289 0.540 23 17 27
-178.3183 257.1884 -37.4149 0.405 -0.733 0.546 25 22 30
-174.5899 251.7853 -36.7736 0.313 -0.525 0.792 28 28 32
-180.2758 289.3810 -41.7858 -0.742 -0.658 -0.126 31 30 35
-179.3168 288.2880 -41.6616 -0.690 -0.722 -0.044 32 33 35
-170.0904 245.1593 -35.9852 -0.756 -0.345 0.557 36 37 34
-158.5991 201.9036 -30.3527 -0.414 -0.501 0.760 46 49 42
-158.2894 212.3734 -31.7999 0.551 -0.567 0.613 47 48 43
-157.2567 213.6095 -31.9978 0.703 -0.375 0.604 56 51 47
-148.8483 213.5349 -32.2159 -0.079 -0.709 0.700 77 47 55
-148.2752 213.8283 -32.2717 -0.084 -0.708 0.702 78 48 56
-147.5081 212.0185 -32.0439 -0.299 -0.549 0.781 81 51 61
-117.2733 199.9624 -31.2079 -0.514 -0.480 0.711 43 32 38
-116.7235 199.2204 -31.1208 -0.626 -0.489 0.607 44 30 37
-97.4806 191.9874 -30.6493 -0.635 -0.582 0.508 85 69 82
-78.5975 230.8373 -36.5009 0.211 -0.929 -0.304 69 70 56
-73.0582 228.9889 -36.3973 -0.531 -0.840 0.106 48 42 55
-72.2495 226.4728 -36.0734 -0.381 -0.925 -0.004 46 42 55
-71.6576 226.2051 -36.0527 -0.564 -0.807 0.174 45 42 55
-71.1763 225.3927 -35.9542 -0.627 -0.317 0.712 49 42 56
-70.7539 224.3093 -35.8167 -0.652 -0.279 0.705 48 40 54
-70.3482 223.1698 -35.6711 -0.648 -0.283 0.707 48 37 51
-69.9533 222.0042 -35.5217 -0.631 -0.306 0.713 48 36 50
-67.3777 216.4596 -34.8296 -0.462 -0.887 -0.023 57 47 59
-66.8883 215.8707 -34.7620 -0.488 -0.873 0.015 55 46 57
-66.3376 215.5635 -34.7347 -0.488 -0.873 0.015 54 44 54
-64.3820 215.9697 -34.8436 0.297 -0.579 0.759 50 44 48
-62.3520 214.1051 -34.6425 0.295 -0.091 0.951 59 53 65
-56.9512 215.8491 -35.0288 0.138 -0.741 0.657 55 44 52
-56.4918 215.2375 -34.9572 0.213 -0.489 0.846 58 46 54
-55.6868 215.9221 -35.0732 0.456 -0.496 0.739 51 38 47
-53.6266 218.8994 -35.5383 0.044 -0.465 0.884 65 48 60
-53.3551 217.6000 -35.3671 0.105 -0.480 0.871 63 45 57
-52.4367 216.4043 -35.2277 0.191 -0.403 0.895 58 40 54
-36.2371 216.1972 -35.6390 0.110 -0.169 0.979 71 60 75
-35.7540 215.7828 -35.5952 0.082 -0.199 0.977 75 66 84
-35.3590 215.1219 -35.5151 0.049 -0.223 0.974 81 72 91
-18.7452 215.9545 -36.0806 0.053 -0.859 -0.510 111 97 113
1.1712 250.3319 -41.3456 -0.275 -0.007 0.961 125 108 127
1.9321 247.1875 -40.9341 -0.545 -0.040 0.837 98 80 106
1.4722 242.9752 -40.3428 -0.552 -0.059 0.832 71 55 84
4.9827 232.7249 -39.0294 0.164 -0.041 0.986 151 148 151
8.8777 235.2015 -39.4755 0.142 -0.042 0.989 93 95 87
12.5300 235.7052 -39.6439 0.225 -0.105 0.969 94 109 90
18.5602 240.8471 -40.5142 0.352 -0.433 0.830 115 140 106
19.0324 240.4111 -40.4671 0.333 -0.412 0.848 95 119 87
20.0269 240.9947 -40.5743 0.333 -0.412 0.848 91 112 81
19.6753 238.9677 -40.2862 0.113 -0.855 -0.507 87 108 77
21.7182 241.5711 -40.6995 -0.273 -0.779 -0.565 89 110 77
31.8678 213.7419 -37.1506 0.576 -0.311 0.756 44 55 41
34.4882 216.9538 -37.6631 0.557 -0.305 0.772 40 50 40
-199.6557 270.0082 -39.3272 -0.852 -0.497 0.167 18 13 20
-196.9013 261.5720 -38.2228 -0.766 -0.628 -0.136 19 14 20
-191.4974 259.5682 -38.0899 -0.287 -0.682 0.673 21 19 24
-188.5377 258.8952 -38.0764 -0.630 -0.568 0.529 25 20 27
-178.6446 240.4496 -35.7671 -0.586 -0.716 0.378 32 32 36
-172.8606 257.7144 -38.3383 0.125 -0.985 -0.118 41 45 39
-148.9077 213.7623 -32.8461 -0.285 -0.667 0.688 75 46 55
-148.2449 213.1120 -32.7733 -0.287 -0.665 0.690 74 44 54
-121.0987 176.1848 -28.3501 -0.382 -0.874 -0.299 50 27 37
-117.3551 197.6673 -31.4554 0.039 -0.969 0.244 62 51 57
-116.7922 197.4869 -31.4455 -0.010 -0.988 0.153 64 51 58
-110.3691 166.5084 -27.2896 -0.267 -0.963 -0.038 73 62 70
-108.5600 164.2788 -27.0272 -0.328 -0.944 -0.043 78 69 70
-90.3492 191.0356 -31.2638 0.196 -0.659 0.727 66 70 67
-81.6811 231.9525 -37.2201 -0.359 -0.932 0.056 62 70 56
-81.1537 231.1421 -37.1212 -0.370 -0.928 0.053 66 72 59
-75.8440 231.5119 -37.3175 -0.258 -0.948 -0.183 68 55 64
-70.9262 223.3668 -36.3127 -0.652 -0.283 0.704 43 37 48
-70.4577 222.5417 -36.2102 -0.652 -0.283 0.704 43 36 48
-68.9161 217.8784 -35.6002 -0.626 -0.281 0.727 55 46 61
-66.8600 215.8948 -35.3789 0.073 -0.443 0.894 49 43 54
-64.5309 215.2302 -35.3494 0.297 -0.579 0.759 43 37 42
-64.3966 213.1834 -35.0669 0.562 -0.396 0.727 45 38 45
-64.3591 210.7736 -34.7311 0.567 -0.417 0.711 53 46 54
-56.4606 215.2393 -35.5705 0.148 -0.650 0.745 49 33 43
-55.9755 214.7321 -35.5128 0.472 -0.508 0.720 47 31 41
-55.3887 214.6089 -35.5116 0.471 -0.493 0.731 49 36 45
-54.1756 216.7749 -35.8474 0.366 -0.627 0.688 54 41 51
-53.7172 216.1700 -35.7753 0.228 -0.569 0.790 56 41 54
-36.6744 212.9975 -35.7960 0.064 -0.218 0.974 70 61 83
-34.8461 212.9111 -35.8337 -0.406 0.024 0.914 66 54 73
-25.6416 214.2471 -36.2712 -0.196 0.036 0.980 68 54 72
-25.2540 213.6416 -36.1971 -0.199 0.037 0.979 67 54 70
-22.9750 211.5658 -35.9690 0.690 -0.688 -0.223 89 70 89
-18.3409 218.3271 -37.0404 0.238 -0.842 -0.484 114 98 110
-15.8783 219.6555 -37.2932 0.453 -0.764 -0.458 116 98 118
-7.2081 235.5192 -39.7471 0.337 -0.103 0.936 120 104 117
0.5635 252.0869 -42.2750 0.261 -0.052 0.964 123 107 119
8.7583 259.1724 -43.4887 -0.502 -0.037 0.864 108 90 116
8.4685 256.8776 -43.1600 -0.555 -0.070 0.829 92 76 101
8.4456 255.2005 -42.9249 -0.546 -0.069 0.835 72 57 81
8.4382 253.5756 -42.6976 -0.509 -0.056 0.859 58 43 66
4.4987 228.7498 -39.1196 0.142 -0.042 0.989 146 141 145
8.6106 231.7167 -39.6463 0.146 -0.042 0.988 98 101 94
9.1522 231.4513 -39.6240 0.149 -0.041 0.988 88 95 85
18.9695 237.4357 -40.7280 0.462 -0.175 0.869 88 112 80
-199.1903 267.7677 -39.7523 -0.840 -0.532 0.106 22 17 23
-191.4263 258.9291 -38.7078 -0.287 -0.682 0.673 26 24 29
-182.4666 249.3202 -37.5864 -0.634 -0.214 0.743 32 30 32
-180.7042 243.8661 -36.8590 -0.808 -0.448 0.383 31 30 30
-178.7338 240.5939 -36.4476 -0.533 -0.737 0.415 36 36 35
-167.7894 222.4098 -34.1612 0.618 -0.557 0.555 40 49 40
-167.7058 225.7007 -34.6314 0.394 -0.748 0.534 41 48 38
-167.0668 225.6284 -34.6386 0.436 -0.790 0.431 41 47 36
-145.2581 205.7842 -32.4130 0.076 -0.893 0.444 68 38 46
-143.7098 201.0206 -31.7780 0.074 -0.845 0.529 71 40 48
-111.6070 222.2703 -35.6765 -0.600 -0.703 0.383 57 40 50
-110.8936 166.1570 -27.7177 -0.248 -0.962 -0.115 74 62 72
-81.9201 234.5836 -38.2383 0.003 -0.042 0.999 52 56 49
-68.8675 215.1318 -35.8293 0.177 -0.402 0.898 59 55 69
-68.2062 215.3217 -35.8744 0.177 -0.402 0.898 57 53 67
-67.0528 214.9369 -35.8512 -0.492 -0.870 -0.029 48 44 57
-52.1825 210.5487 -35.6335 0.063 -0.098 0.993 64 50 62
-37.4265 212.4814 -36.3115 0.123 -0.227 0.966 56 48 69
-35.0763 210.3973 -36.0794 -0.456 -0.058 0.888 62 46 62
-37.1303 201.3295 -34.7340 -0.255 -0.194 0.947 71 51 63
-30.2218 207.0142 -35.7310 0.553 -0.335 0.763 59 42 58
-27.8042 206.9875 -35.7933 -0.297 0.021 0.955 72 57 77
-18.4115 219.5653 -37.8383 0.069 -0.879 -0.471 103 86 101
-15.0694 216.9055 -37.5514 0.044 -0.874 -0.483 128 111 129
-2.5715 244.6032 -41.8310 0.261 -0.052 0.964 124 107 124
4.4668 247.7768 -42.4745 0.217 -0.062 0.974 107 89 111
-1.2126 233.5954 -40.3030 0.099 -0.029 0.995 101 83 104
0.2920 233.9323 -40.3920 -0.284 -0.034 0.958 84 66 88
0.2612 232.3878 -40.1716 -0.268 -0.028 0.963 69 51 75
0.3694 231.1614 -40.0002 -0.579 -0.043 0.814 59 42 65
0.4177 229.8183 -39.8105 -0.679 -0.071 0.731 57 42 62
3.8601 224.5363 -39.1536 -0.069 0.037 0.997 169 162 169
4.3376 224.1728 -39.1149 -0.072 0.037 0.997 144 140 144
17.9037 239.2247 -41.6257 0.155 -0.051 0.987 81 103 70
18.7564 239.5376 -41.6935 0.152 -0.052 0.987 85 106 74
17.9340 235.2682 -41.0640 0.530 -0.237 0.814 85 105 77
22.1107 239.3218 -41.7545 0.144 0.015 0.989 106 121 98
-309.3850 253.6576 -35.4188 -0.447 -0.830 -0.333 43 41 46
-307.6136 251.9031 -35.2137 -0.375 -0.876 -0.302 43 41 46
-179.8409 242.5535 -37.3643 -0.745 -0.483 0.460 46 45 41
-176.2595 234.1789 -36.2518 0.378 -0.529 0.760 40 45 40
-162.7231 230.0709 -36.0290 -0.821 -0.486 -0.299 47 53 39
-154.3658 254.9464 -39.8542 -0.600 -0.626 -0.499 53 30 38
-142.4384 198.9210 -32.0819 0.171 -0.340 0.924 62 34 41
-136.9967 203.6694 -32.9175 -0.318 -0.021 0.948 60 34 41
-98.0591 186.9632 -31.5696 -0.727 -0.498 0.473 83 66 82
-81.3058 230.0519 -38.2579 0.054 -0.064 0.996 58 54 57
-78.6001 230.5919 -38.4101 0.013 -0.005 1.000 66 54 64
-63.1411 210.5571 -35.9376 -0.636 -0.763 -0.111 55 44 61
-52.0678 204.6177 -35.3825 -0.552 -0.612 0.566 63 51 64
-51.9830 202.8990 -35.1363 0.687 -0.262 0.677 60 48 60
-51.7053 190.6048 -33.3666 -0.621 -0.258 0.740 59 43 58
-19.2768 217.3045 -38.1153 0.350 -0.079 0.933 84 70 87
-13.6858 218.5109 -38.4430 0.074 -0.878 -0.473 133 116 135
0.0732 242.4799 -42.2852 0.206 -0.050 0.977 122 104 127
1.7270 241.5007 -42.1889 0.222 -0.061 0.973 113 96 114
4.1549 243.7880 -42.5862 0.220 -0.057 0.974 104 87 106
-1.9599 228.8331 -40.2566 0.064 0.008 0.998 103 86 106
-1.0234 229.4269 -40.3681 0.009 -0.006 1.000 93 75 98
-0.3572 229.4270 -40.3864 -0.575 -0.045 0.817 73 56 79
0.0004 228.7609 -40.2999 -0.679 -0.071 0.731 59 44 64
3.7927 220.2571 -39.1745 0.151 -0.040 0.988 136 133 136
16.2532 234.4884 -41.5734 0.152 -0.052 0.987 88 106 79
5.4692 193.1168 -35.2970 -0.696 -0.696 0.176 86 102 66
42.3217 223.7843 -40.7405 0.127 -0.034 0.991 64 71 52
48.5543 226.2581 -41.2690 -0.156 -0.987 -0.039 73 85 71
-250.9161 269.0355 -39.9708 -0.787 -0.554 0.273 32 40 29
-231.9546 262.2205 -39.4907 0.006 -0.821 0.571 21 22 24
-230.2027 265.3004 -39.9915 -0.490 -0.770 -0.408 16 17 21
-197.0359 273.4125 -42.0956 -0.644 -0.149 0.750 41 41 43
-186.2813 244.3214 -38.1164 -0.806 -0.299 0.511 38 42 42
-185.1677 242.2580 -37.8438 -0.805 -0.303 0.510 38 41 42
-166.1363 235.4000 -37.3593 0.232 -0.456 0.859 45 53 38
-81.1411 226.9693 -38.4575 0.242 -0.197 0.950 63 53 65
-63.6033 211.0599 -36.6019 -0.651 -0.753 -0.096 57 44 63
-57.2927 202.8877 -35.5745 0.018 -0.255 0.967 57 46 62
-52.8628 201.8150 -35.5387 -0.606 -0.439 0.663 59 48 67
-31.0695 210.9902 -37.4862 -0.427 -0.278 0.860 57 38 52
-23.5169 216.0485 -38.4372 -0.106 0.060 0.992 66 50 71
-20.2703 217.8391 -38.7896 0.443 -0.153 0.883 62 48 71
-17.6959 217.9164 -38.8718 0.350 -0.079 0.933 82 67 92
-15.2392 222.2877 -39.5817 -0.022 -0.872 -0.489 91 75 100
-14.9014 221.5497 -39.4826 -0.018 -0.863 -0.504 108 93 118
-12.9250 220.1384 -39.3295 0.043 -0.858 -0.512 141 124 141
-1.7669 233.5507 -41.6073 0.298 -0.081 0.951 129 113 126
0.7434 237.6163 -42.2737 0.225 -0.061 0.972 124 108 122
-1.1005 226.2292 -40.5497 -0.699 -0.094 0.709 78 65 84
-1.2494 224.4956 -40.2908 -0.721 -0.107 0.685 64 51 69
5.3790 192.8124 -35.8172 -0.593 -0.804 -0.053 84 99 68
13.7132 206.6504 -38.0799 -0.616 -0.705 0.351 78 90 63
46.9973 226.7809 -41.9533 0.736 -0.614 0.285 73 84 64
47.4734 226.4822 -41.9225 0.730 -0.630 0.266 73 85 66
-235.0931 246.3886 -37.7526 -0.649 -0.459 0.607 32 37 31
-235.2983 250.4185 -38.3487 0.574 -0.380 0.725 31 36 30
-189.1542 230.8451 -36.6985 0.511 -0.835 0.205 37 39 38
-188.8725 232.3481 -36.9308 0.696 -0.650 0.304 40 42 41
-196.0125 268.6662 -42.1576 -0.644 -0.149 0.750 39 41 40
-167.0665 224.6617 -36.3844 0.424 -0.790 0.442 53 63 47
-168.0753 239.1286 -38.5170 0.106 -0.581 0.807 51 62 46
-165.2170 224.8567 -36.4645 -0.834 -0.547 -0.069 50 61 45
-155.1753 214.4965 -35.1943 0.642 -0.571 0.511 63 51 54
-121.5720 184.1205 -31.5849 -0.179 -0.944 0.278 45 29 33
-102.4046 227.1122 -38.5340 -0.137 0.113 0.984 57 53 54
-98.7257 190.7795 -33.2095 -0.787 -0.135 0.602 71 61 64
-78.6112 222.8557 -38.5547 0.062 0.013 0.998 59 53 61
-77.0123 221.1266 -38.3406 -0.140 0.023 0.990 56 54 61
-54.6026 195.8265 -35.1804 0.776 -0.350 0.525 59 52 69
-49.6499 191.4929 -34.6698 0.699 -0.277 0.659 70 64 78
-43.0482 204.4965 -36.7939 0.434 -0.257 0.864 68 57 74
-38.7160 196.5705 -35.7297 0.621 -0.390 0.679 56 37 56
-31.5154 209.6575 -37.8828 -0.433 -0.299 0.850 52 34 48
-18.9230 213.3009 -38.7743 0.062 -0.060 0.996 83 64 96
-3.2255 230.1436 -41.7226 -0.038 -0.026 0.999 127 114 123
-3.3676 222.5878 -40.5903 0.008 -0.009 1.000 106 91 112
-1.2047 221.6563 -40.5108 -0.730 -0.091 0.677 59 46 66
7.8799 222.9395 -40.9530 -0.352 0.069 0.933 150 148 148
8.0162 221.9179 -40.8042 -0.361 0.060 0.931 135 137 134
8.4172 221.4267 -40.7419 -0.352 0.061 0.934 119 126 117
14.8790 227.5951 -41.8414 0.408 -0.211 0.888 100 109 92
5.3227 193.6122 -36.5027 -0.633 -0.774 -0.036 86 101 72
32.0276 213.2064 -40.1656 0.381 -0.133 0.915 81 103 65
46.0882 225.1986 -42.3444 0.715 -0.642 0.277 78 94 66
-222.7673 230.5636 -36.3681 -0.605 -0.773 0.191 31 31 31
-226.2161 261.3508 -40.9442 -0.517 -0.752 -0.409 26 30 27
-203.0895 256.7150 -40.8807 -0.380 -0.089 0.921 36 42 36
-181.4827 239.8680 -38.9224 -0.308 -0.416 0.855 53 58 53
-178.6015 238.6475 -38.8169 -0.186 -0.499 0.847 43 50 39
-169.4385 219.9684 -36.2362 0.317 -0.609 0.727 50 54 43
-167.9939 218.6968 -36.0832 0.517 -0.853 0.066 52 53 42
-166.4406 232.4670 -38.2156 0.605 -0.505 0.615 54 65 51
-155.0289 208.0637 -34.8286 0.627 -0.511 0.589 63 52 53
-123.7678 174.3825 -30.5831 -0.154 -0.977 -0.148 47 33 36
-123.2499 175.1104 -30.7078 0.268 -0.642 0.718 54 41 43
-121.1288 178.9074 -31.3427 -0.382 -0.871 -0.309 57 37 45
-119.2804 168.6980 -29.8447 -0.488 -0.482 0.728 58 43 50
-99.1884 214.1376 -37.2954 -0.531 -0.049 0.846 71 57 55
-79.6920 216.5834 -38.2061 0.052 0.007 0.999 59 55 59
-63.1499 207.7341 -37.3211 -0.618 -0.709 -0.340 70 57 84
-58.6100 202.1812 -36.6041 0.306 -0.571 0.762 58 46 63
-58.6682 199.8114 -36.2430 0.261 -0.357 0.897 64 51 69
-45.0963 199.9927 -36.6460 -0.454 -0.799 0.394 70 66 79
-40.3286 196.8163 -36.2960 0.741 -0.449 0.499 75 58 74
-20.8103 208.6324 -38.6290 0.092 -0.014 0.996 74 52 89
-4.6239 231.3608 -42.5256 -0.566 -0.141 0.812 133 120 130
-4.7394 229.5890 -42.2536 -0.439 -0.139 0.888 132 119 128
-3.6340 219.0752 -40.6889 0.173 -0.023 0.985 107 94 112
-2.7224 219.6495 -40.8012 0.168 -0.023 0.986 93 80 98
-1.2843 221.3342 -41.0967 0.023 0.001 1.000 80 67 86
-0.7188 221.1600 -41.0859 -0.581 -0.006 0.814 72 59 79
6.0255 224.3163 -41.7514 -0.344 0.041 0.938 52 41 50
6.8909 219.5385 -41.0504 -0.410 0.027 0.912 147 147 147
7.2658 219.0070 -40.9801 -0.360 0.063 0.931 144 148 144
7.2438 217.7039 -40.7818 -0.422 0.026 0.906 134 140 135
7.5334 217.0201 -40.6861 -0.410 0.027 0.912 117 123 117
10.6089 219.2403 -41.1080 0.385 -0.179 0.905 98 107 92
4.8659 192.6477 -36.9141 -0.687 -0.703 0.185 86 101 74
5.1745 192.1609 -36.8488 -0.686 -0.700 0.195 82 93 73
5.4135 191.5542 -36.7634 -0.607 -0.790 -0.080 54 61 46
51.6596 232.6226 -44.2746 0.719 -0.592 0.365 80 101 68
-228.1302 264.6159 -42.1076 -0.310 -0.916 -0.256 34 41 33
-244.0624 351.8511 -55.1110 -0.638 -0.142 0.757 34 41 37
-238.7794 340.3922 -53.4915 -0.502 -0.326 0.801 36 43 39
-235.3303 337.7654 -53.1824 0.005 -0.805 0.593 36 44 39
-207.0065 248.2009 -40.1639 -0.562 -0.152 0.813 36 46 38
-204.7070 247.2398 -40.0796 0.212 -0.392 0.895 33 45 35
-203.8557 246.6035 -40.0052 0.491 -0.485 0.724 32 45 35
-191.5885 232.4000 -38.1565 -0.262 -0.260 0.929 38 45 38
-189.2163 230.5333 -37.9346 -0.049 -0.358 0.932 44 51 44
-188.2445 229.1236 -37.7443 0.429 -0.647 0.630 46 53 46
-187.3120 227.8535 -37.5744 0.463 -0.787 -0.408 46 53 47
-186.9408 228.9737 -37.7574 0.476 -0.800 -0.364 46 53 47
-182.0658 239.1824 -39.4662 -0.308 -0.416 0.855 46 56 46
-176.8660 232.7282 -38.6158 -0.851 -0.322 0.415 44 55 41
-131.6755 165.1694 -29.4573 -0.562 -0.667 0.490 56 42 49
-120.6929 174.6141 -31.2179 0.496 -0.306 0.812 59 41 47
-104.7983 205.3876 -36.4023 0.123 0.058 0.991 49 46 55
-86.4986 212.6366 -38.0276 0.084 0.040 0.996 68 66 64
-85.1795 213.2415 -38.1575 0.074 0.035 0.997 70 69 66
-76.5696 210.0259 -37.9009 -0.107 0.025 0.994 71 69 70
-73.5427 212.9760 -38.4396 -0.664 -0.375 0.647 76 74 77
-59.0378 198.3544 -36.5886 0.297 -0.584 0.756 60 47 64
-54.3088 194.6500 -36.1489 0.728 -0.287 0.623 56 54 66
-52.9454 197.2645 -36.5897 0.731 -0.286 0.620 66 64 73
-51.4660 200.2181 -37.0860 0.745 -0.296 0.597 68 65 72
-51.3417 196.8058 -36.5636 0.233 -0.638 0.734 60 57 64
-47.2504 195.1057 -36.4151 0.832 -0.350 0.430 88 90 103
-46.9768 192.4618 -36.0152 -0.285 -0.937 -0.203 65 63 77
-46.3758 192.5505 -36.0455 -0.296 -0.926 -0.235 63 60 75
-22.5615 204.2950 -38.5168 0.094 -0.004 0.996 72 53 86
-22.7865 202.3200 -38.2062 0.070 -0.005 0.998 70 51 81
-21.6992 203.4761 -38.4145 0.110 -0.008 0.994 91 73 100
-20.7426 204.3110 -38.5698 0.116 -0.008 0.993 113 94 115
-19.8109 205.0775 -38.7138 0.112 -0.005 0.994 128 110 129
-19.6749 203.9827 -38.5488 0.122 -0.016 0.992 137 120 138
-17.9936 206.4768 -38.9799 0.075 0.018 0.997 145 131 148
-16.3448 207.4577 -39.1769 0.073 0.020 0.997 134 122 134
-1.7675 217.4475 -41.1213 -0.514 -0.015 0.858 77 61 80
-1.5353 216.5982 -40.9968 -0.514 -0.015 0.858 67 52 73
-1.3818 215.5939 -40.8463 -0.548 -0.044 0.835 60 44 68
5.1882 222.4647 -42.0877 -0.338 -0.007 0.941 48 37 52
6.8260 214.2580 -40.8682 -0.411 0.028 0.911 140 144 139
7.8713 215.0523 -41.0197 0.407 -0.149 0.901 122 127 119
8.3030 214.6620 -40.9715 0.380 -0.171 0.909 108 114 104
4.6758 194.2655 -37.7271 -0.316 0.054 0.947 89 104 75
3.7014 190.4120 -37.1061 0.341 -0.858 0.383 86 101 75
4.3715 190.5816 -37.1508 -0.641 -0.700 0.314 83 92 76
5.0684 190.7973 -37.2034 -0.648 -0.706 0.286 55 57 50
8.0286 192.9600 -37.6189 -0.518 -0.853 0.056 46 42 44
10.1995 192.6862 -37.6370 -0.780 -0.573 0.252 88 99 85
35.5693 210.4845 -41.0845 0.393 -0.131 0.910 85 107 69
42.1492 218.7465 -42.5406 0.384 -0.137 0.913 84 106 68
-238.7237 256.7477 -41.3030 0.669 -0.524 0.527 40 50 41
-225.6846 253.1220 -41.0985 -0.355 -0.821 0.448 35 43 32
-225.4816 258.6037 -41.9623 -0.093 -0.974 -0.206 38 46 35
-235.6509 338.4810 -54.1825 -0.029 -0.791 0.611 37 46 41
-206.1001 244.7525 -40.3338 -0.590 -0.143 0.794 40 52 42
-201.4425 247.3624 -40.8721 -0.409 -0.093 0.908 37 51 39
-188.2695 228.9441 -38.3559 0.413 -0.658 0.630 46 56 47
-179.1196 237.3097 -39.9201 -0.193 -0.500 0.844 52 56 48
-170.5460 218.6736 -37.2417 0.639 -0.471 0.608 57 68 51
-169.5393 216.4344 -36.9193 -0.530 -0.549 0.646 56 67 50
-144.9347 199.5897 -34.9677 -0.005 -0.972 0.234 49 27 40
-132.1888 165.1947 -29.9387 -0.592 -0.601 0.537 67 54 63
-65.0390 207.2088 -38.3853 -0.645 -0.762 -0.048 55 46 65
-59.7985 195.4745 -36.6944 -0.009 -0.298 0.955 55 43 57
-58.9614 196.4143 -36.8648 0.165 -0.550 0.818 59 46 63
-55.8925 191.1369 -36.1242 0.776 -0.345 0.528 55 51 65
-52.3948 197.0457 -37.1465 0.601 -0.358 0.714 56 49 60
-54.3132 183.5203 -34.9759 -0.265 -0.442 0.857 62 56 66
-52.7384 185.0162 -35.2539 -0.543 -0.839 0.042 64 58 72
-48.1904 192.1254 -36.4934 0.826 -0.338 0.451 76 78 90
-47.1052 191.9574 -36.4973 0.254 -0.278 0.927 64 64 75
-43.6927 195.2485 -37.1075 -0.654 -0.537 0.533 65 58 75
-37.4344 201.3590 -38.2383 0.864 -0.435 0.254 70 52 66
-25.0827 206.8916 -39.4483 -0.452 -0.143 0.881 74 60 72
-24.5739 206.6415 -39.4233 -0.448 -0.145 0.882 73 59 77
-23.5541 198.9471 -38.2473 0.110 -0.008 0.994 87 68 95
-22.5626 199.8889 -38.4223 0.130 -0.008 0.991 121 103 126
-21.7695 200.3553 -38.5174 0.112 -0.005 0.994 147 131 150
-21.0355 200.6785 -38.5885 0.087 0.010 0.996 146 131 150
-20.0431 201.5954 -38.7596 0.070 0.020 0.997 141 127 144
-17.6271 205.7760 -39.4813 0.119 0.022 0.993 137 125 139
-15.3355 208.2178 -39.9274 0.173 -0.000 0.985 141 129 141
-13.0422 210.6083 -40.3654 0.171 0.001 0.985 134 124 133
-1.8237 219.8853 -42.1300 0.261 -0.034 0.965 123 109 123
3.2554 226.4389 -43.2973 0.180 -0.065 0.982 96 79 100
-1.2837 214.3350 -41.2762 -0.568 -0.001 0.823 77 61 87
12.3894 211.5181 -41.2160 -0.582 -0.774 -0.248 92 106 83
0.6164 186.7645 -37.0134 0.568 -0.506 0.649 85 99 75
4.3357 190.3759 -37.6823 -0.641 -0.700 0.314 80 88 74
5.0409 190.6063 -37.7380 -0.648 -0.706 0.286 55 58 52
8.0737 192.8955 -38.1808 -0.518 -0.853 0.056 43 42 39
9.1193 192.6874 -38.1774 0.641 -0.733 -0.227 72 73 69
8.8401 191.1938 -37.9358 -0.776 -0.585 0.235 84 89 79
10.0804 192.3363 -38.1492 -0.775 -0.573 0.266 89 99 82
-232.5015 243.7705 -40.1175 -0.478 -0.565 0.673 41 53 41
-229.7313 256.5166 -42.2207 -0.064 -0.950 -0.306 37 47 39
-272.7025 410.1697 -65.4414 -0.800 -0.599 0.027 38 46 35
-191.3981 228.4968 -38.8382 -0.351 -0.113 0.929 44 56 42
-177.3249 231.1584 -39.6544 -0.582 -0.486 0.652 53 61 46
-166.6447 220.7733 -38.3022 -0.618 -0.531 0.580 60 67 52
-165.9593 220.3567 -38.2551 -0.626 -0.532 0.570 60 67 54
-165.2215 219.5952 -38.1547 -0.626 -0.532 0.570 65 69 58
-163.2287 214.6074 -37.4176 -0.374 -0.382 0.845 63 65 57
-132.1938 164.7535 -30.3609 -0.601 -0.598 0.530 73 60 71
-107.7830 205.1978 -37.4710 -0.384 -0.046 0.922 62 55 70
-101.3035 198.7017 -36.6195 -0.087 -0.138 0.987 77 57 73
-91.6659 181.7337 -34.1919 0.075 -0.936 0.344 63 60 60
-67.3931 204.7770 -38.5324 0.384 -0.204 0.901 64 58 73
-58.1059 197.2925 -37.6023 0.237 -0.278 0.931 57 46 60
-54.0683 189.5754 -36.4886 -0.440 -0.545 0.713 61 51 66
-54.9181 183.2289 -35.4561 -0.505 -0.662 0.554 56 50 62
-43.4666 195.7838 -37.7715 -0.590 -0.519 0.618 64 58 72
-43.1898 194.9059 -37.6397 -0.652 -0.517 0.555 69 62 73
-37.0843 194.1960 -37.6974 -0.680 -0.179 0.711 66 48 62
-26.4458 197.5354 -38.5254 -0.473 -0.048 0.880 68 49 76
-24.5070 195.1790 -38.2050 0.130 -0.008 0.991 100 85 107
-19.3372 205.9069 -40.0545 0.064 0.004 0.998 149 134 155
-18.0506 207.4816 -40.3407 0.071 0.022 0.997 168 155 173
-17.7693 206.7141 -40.2266 0.067 0.005 0.998 160 147 164
-20.9057 198.0989 -38.7697 0.066 0.014 0.998 144 132 146
-16.6676 206.4366 -40.2133 0.074 -0.012 0.997 134 122 134
-5.8409 212.5558 -41.4883 0.229 -0.030 0.973 128 114 126
1.9130 222.1248 -43.2257 -0.547 -0.090 0.832 113 96 117
5.4141 206.4660 -40.8348 0.071 0.050 0.996 119 119 115
8.1193 190.8030 -38.4209 0.528 -0.810 -0.256 60 61 53
8.9955 191.3198 -38.5276 -0.768 -0.569 0.295 73 77 64
10.5071 187.9999 -38.0421 -0.471 -0.758 0.450 86 105 77
11.3968 188.5347 -38.1520 -0.673 -0.732 0.107 88 107 77
-254.3596 365.6509 -59.8433 -0.793 -0.243 0.559 45 56 42
-165.7844 218.9436 -38.6551 -0.625 -0.527 0.576 62 67 57
-165.1748 218.9790 -38.6779 -0.626 -0.532 0.570 62 64 54
-148.7406 163.8272 -30.2400 -0.533 -0.550 0.643 89 56 69
-148.0708 162.2507 -30.0044 -0.527 -0.544 0.653 90 57 70
-132.2001 164.3506 -30.7879 -0.638 -0.542 0.547 69 55 69
-130.6909 163.0667 -30.6231 -0.633 -0.600 0.490 70 60 68
-125.3431 166.2658 -31.2891 0.908 -0.366 0.205 46 37 38
-107.9980 202.1342 -37.5624 -0.330 -0.015 0.944 65 62 73
-80.8575 199.5885 -37.9122 0.060 0.005 0.998 75 84 67
-71.0801 204.2194 -38.9334 -0.639 -0.086 0.764 70 75 68
-67.5710 201.3836 -38.5742 0.043 -0.044 0.998 64 58 73
-67.0968 198.4475 -38.1138 -0.214 0.060 0.975 61 53 70
-66.7917 188.1156 -36.4553 -0.100 -0.147 0.984 62 50 67
-61.5233 195.2763 -37.7583 -0.450 -0.251 0.857 53 41 58
-61.3660 191.6202 -37.1728 -0.449 -0.228 0.864 47 34 51
-61.1231 190.4379 -36.9888 -0.437 -0.239 0.867 51 38 55
-55.0471 184.4740 -36.1969 0.777 -0.389 0.494 57 52 65
-43.4777 193.9512 -38.0502 0.380 -0.171 0.909 66 59 68
-38.6154 197.8306 -38.8124 0.517 -0.142 0.844 73 55 68
-38.4311 196.7231 -38.6389 0.273 -0.123 0.954 76 55 72
-36.3656 194.4434 -38.3289 0.414 -0.213 0.885 66 48 62
-29.8156 199.2809 -39.2930 -0.036 -0.043 0.998 67 54 63
-21.0880 201.6746 -39.9238 0.064 0.004 0.998 87 77 96
-20.2543 202.2195 -40.0350 0.067 0.005 0.998 142 131 148
-19.5802 202.3892 -40.0813 0.067 0.005 0.998 177 166 182
-23.1125 192.8928 -38.4501 -0.035 0.000 0.999 175 164 177
-18.4515 202.2204 -40.0857 -0.004 0.002 1.000 156 146 157
-6.2219 210.2729 -41.7277 0.119 -0.014 0.993 134 118 127
-2.2785 217.2634 -42.9661 -0.587 -0.059 0.807 137 120 129
-1.2682 218.0387 -43.1195 -0.579 -0.052 0.814 137 119 130
-0.4281 218.4509 -43.2095 0.587 -0.654 0.477 136 120 135
1.7106 220.2078 -43.5529 -0.548 -0.092 0.831 125 107 128
2.5397 220.5794 -43.6361 -0.518 -0.040 0.854 110 95 116
2.9841 188.7010 -38.5051 0.720 -0.627 0.297 74 84 75
11.1461 186.0637 -38.3083 -0.778 -0.477 0.408 84 104 69
-220.9885 129.5155 -23.0794 -0.752 -0.620 -0.224 144 141 160
-165.1281 218.3647 -39.1993 -0.626 -0.532 0.570 54 55 47
-148.0672 161.9372 -30.4386 0.339 -0.670 0.661 94 68 79
-147.6074 162.1266 -30.4825 0.339 -0.670 0.661 76 52 62
-133.7284 165.1594 -31.3693 -0.617 -0.762 0.196 55 42 53
-123.8630 169.2954 -32.3240 0.391 -0.395 0.831 45 36 37
-121.3813 166.8087 -31.9865 0.561 -0.825 -0.072 70 59 58
-98.9907 188.3403 -36.1419 -0.874 -0.210 0.437 39 25 44
-61.6066 192.7251 -37.9109 -0.460 -0.251 0.852 57 48 64
-56.2653 182.1920 -36.3362 0.801 -0.383 0.460 55 55 65
-55.2063 183.8478 -36.6371 0.801 -0.386 0.458 62 64 71
-46.4436 183.6739 -36.8550 0.447 -0.154 0.881 65 56 64
-45.1415 185.8092 -37.2412 0.411 -0.148 0.900 68 55 65
-37.9877 196.2111 -39.1457 0.392 -0.055 0.918 78 58 74
-34.0661 197.3104 -39.4360 -0.540 -0.194 0.819 66 48 62
-21.2098 198.4875 -39.9902 -0.018 0.004 1.000 99 91 104
-20.6458 198.4232 -39.9955 -0.032 -0.006 0.999 145 137 148
-20.0691 198.3882 -40.0060 -0.032 -0.007 0.999 166 159 168
-19.6280 198.0458 -39.9623 -0.032 -0.008 0.999 166 159 167
-17.7867 199.5246 -40.2562 0.287 -0.041 0.957 135 125 134
-16.3341 201.4387 -40.6105 0.287 -0.041 0.957 127 120 128
-17.1037 198.3982 -40.0910 0.118 0.020 0.993 132 125 133
1.6401 218.5806 -43.9229 -0.531 -0.082 0.843 132 117 135
1.6247 212.1065 -42.8623 -0.314 0.035 0.949 71 62 81
1.3285 210.2663 -42.5526 -0.370 -0.003 0.929 62 53 72
1.6714 209.7092 -42.4710 -0.278 0.011 0.960 51 41 64
2.3041 208.5066 -42.2919 -0.268 0.013 0.963 50 43 63
-164.7519 211.8605 -38.7494 0.453 -0.816 0.359 47 46 41
-165.0817 217.7524 -39.7191 -0.626 -0.532 0.570 42 43 37
-163.1058 212.8546 -38.9610 0.403 -0.810 0.425 51 49 44
-145.4408 164.2068 -31.3752 -0.708 -0.443 0.550 61 46 51
-121.4020 166.3442 -32.4083 0.567 -0.820 -0.075 73 59 62
-115.2440 170.5765 -33.2853 -0.300 -0.887 -0.350 53 40 47
-68.5680 194.5222 -38.5806 -0.141 0.053 0.989 65 67 63
-63.7812 188.7261 -37.7525 0.746 -0.666 0.005 59 54 61
-62.5097 191.3782 -38.2290 -0.449 -0.221 0.866 58 55 61
-59.9611 175.2221 -35.6162 -0.242 -0.509 0.826 55 53 60
-57.3873 180.1935 -36.5149 0.847 -0.381 0.371 60 62 67
-53.8015 182.9540 -37.0748 -0.538 -0.195 0.820 59 62 60
-45.9901 188.0812 -38.1470 0.376 -0.176 0.909 51 49 53
-32.8902 195.6744 -39.7782 -0.440 -0.166 0.883 60 47 57
-32.5211 195.1260 -39.6975 -0.440 -0.166 0.883 56 42 56
-22.5435 195.2728 -40.0033 -0.018 0.004 1.000 73 70 77
-26.3263 185.2512 -38.2313 0.262 -0.063 0.963 74 69 75
-25.6561 185.5033 -38.2921 0.329 -0.067 0.942 117 111 117
-24.2725 187.3711 -38.6415 0.329 -0.067 0.942 158 151 158
-18.6668 196.0945 -40.2492 0.301 -0.037 0.953 152 145 152
-17.2026 194.1629 -39.9695 0.116 0.022 0.993 137 126 140
1.3411 208.9060 -42.9423 -0.313 0.036 0.949 61 50 74
0.9502 190.9960 -39.9551 0.041 0.045 0.998 82 81 81
0.7403 185.4112 -39.0212 -0.472 0.011 0.882 79 81 82
3.0817 188.5944 -39.6162 -0.184 0.073 0.980 76 80 77
7.0388 188.4970 -39.7116 -0.471 -0.882 0.001 49 50 44
7.0823 185.6211 -39.2349 -0.335 0.053 0.941 57 60 51
-171.8809 208.1637 -38.5299 -0.616 -0.661 0.429 66 70 56
-147.0253 165.0133 -31.9583 -0.153 -0.688 0.710 72 57 64
-140.2451 179.8866 -34.6576 -0.296 -0.163 0.941 72 52 61
-137.0516 170.5677 -33.1768 0.223 -0.027 0.975 61 51 52
-125.3796 163.2755 -32.2776 0.218 -0.558 0.801 53 44 45
-124.8915 163.9406 -32.4036 0.409 -0.282 0.868 56 47 48
-114.7184 171.1465 -33.9062 -0.246 -0.882 -0.402 64 53 59
-104.9150 190.3145 -37.4151 -0.068 -0.510 0.858 55 49 61
-99.8383 190.7676 -37.6351 0.071 -0.138 0.988 39 32 42
-63.5047 189.6639 -38.4768 0.754 -0.656 0.016 57 59 49
-62.1375 190.5474 -38.6645 -0.442 -0.220 0.870 68 68 63
-52.4443 181.9443 -37.4883 -0.379 -0.362 0.852 62 71 58
-51.2215 182.3323 -37.5883 0.490 -0.143 0.860 49 57 44
-19.8298 192.0767 -40.1191 0.314 -0.039 0.949 152 150 152
-16.3202 195.9510 -40.8716 0.305 -0.046 0.951 139 130 143
-0.3254 212.9559 -44.1909 -0.215 0.061 0.975 142 130 144
-0.6473 207.2684 -43.2229 -0.141 0.046 0.989 122 109 127
-174.1693 207.5431 -38.9556 -0.593 -0.496 0.634 61 67 53
-174.9565 214.4700 -40.1178 -0.619 -0.228 0.752 59 65 51
-171.8661 207.8028 -39.0653 -0.616 -0.661 0.429 68 71 60
-171.2830 207.8344 -39.0873 -0.309 -0.757 0.576 71 73 62
-149.4924 160.9598 -31.6895 0.144 -0.793 -0.592 74 59 70
-142.0625 153.2660 -30.5846 0.395 -0.344 0.852 91 71 82
-141.1744 153.7020 -30.6844 0.017 -0.422 0.906 87 68 78
-124.9052 162.8048 -32.7027 0.403 -0.251 0.880 59 53 53
-124.4163 163.2648 -32.7953 0.403 -0.251 0.880 56 50 50
-114.2597 170.2626 -34.2802 -0.568 -0.789 -0.234 69 58 63
-105.0280 189.0221 -37.7503 -0.384 -0.128 0.914 55 49 60
-62.3787 191.6551 -39.4109 -0.243 -0.177 0.954 70 77 59
-54.5142 178.7821 -37.4326 -0.365 -0.322 0.873 62 74 58
-53.4808 180.3135 -37.7238 -0.352 -0.351 0.868 68 81 63
-46.7318 174.8892 -36.9877 -0.650 -0.642 0.407 67 68 58
-26.6159 179.3236 -38.3169 0.328 -0.040 0.944 91 92 87
-24.9581 181.8009 -38.7876 0.328 -0.040 0.944 130 131 127
-20.9930 188.1046 -39.9781 0.363 -0.056 0.930 147 147 148
-1.7321 207.4236 -43.8285 -0.201 0.064 0.978 142 129 147
0.1813 202.7170 -43.0779 -0.145 0.046 0.988 72 62 85
0.5331 202.2218 -43.0032 -0.145 0.046 0.988 62 52 76
-0.3424 184.1988 -39.8962 -0.527 -0.048 0.848 94 95 88
0.8409 184.3023 -39.9474 -0.566 -0.058 0.822 82 84 76
1.0519 183.6751 -39.8462 -0.566 -0.058 0.822 75 85 68
6.5687 182.5431 -39.8091 -0.558 -0.763 0.327 54 66 50
-246.9340 140.1960 -25.7996 -0.136 -0.850 -0.508 39 35 50
-170.6089 207.0950 -39.5751 -0.285 -0.753 0.593 76 78 67
-141.1983 153.6606 -31.1447 0.453 -0.501 0.737 85 69 76
-140.6636 152.8227 -31.0146 0.314 -0.558 0.768 77 61 70
-124.9186 161.6252 -32.9895 0.406 -0.248 0.880 64 60 57
-124.4322 162.0880 -33.0837 0.406 -0.248 0.880 65 61 58
-114.2608 170.4228 -34.8188 -0.568 -0.789 -0.234 72 63 63
