ply
format ascii 1.0
element vertex 852
property float x
property float y
property float z
property float nx
property float ny
property float nz
property uchar diffuse_red
property uchar diffuse_green
property uchar diffuse_blue
end_header
-336.4857 65.1612 -13.7185 0.967 0.252 -0.047 129 120 117
-336.0335 65.6168 -13.6625 0.980 0.173 -0.100 112 106 103
-334.8091 65.7754 -13.5689 0.867 -0.087 0.490 126 121 118
-333.4774 65.8870 -13.4703 0.886 -0.124 0.446 136 131 128
-328.7077 65.8785 -13.1394 0.471 -0.009 0.882 126 121 118
-328.2793 66.3200 -13.0858 0.498 0.162 0.852 131 126 123
-333.6915 74.1275 -13.0409 0.991 0.011 -0.134 85 84 76
-332.0477 79.7692 -12.6225 0.569 -0.549 -0.612 108 100 97
-331.5072 80.8012 -12.5293 0.632 -0.613 -0.475 108 100 98
-330.9796 83.7567 -12.3333 0.900 -0.045 0.433 102 94 92
-329.9316 85.8263 -12.1489 0.962 0.143 0.232 86 77 78
-330.9403 100.7335 -11.4153 0.853 -0.508 0.119 66 61 57
-331.0762 101.4747 -11.3848 0.898 -0.438 0.050 71 66 62
-328.7701 102.8627 -11.1497 0.680 -0.499 -0.536 94 89 85
-325.8922 103.2248 -10.9302 0.964 0.115 0.241 134 131 124
-325.5338 103.6795 -10.8808 0.987 -0.100 0.126 133 130 123
-325.4753 104.3053 -10.8430 0.987 -0.100 0.126 124 121 114
-327.7435 111.6489 -10.6047 0.515 -0.713 -0.475 82 78 69
-327.5923 120.4223 -10.1211 0.931 -0.166 0.326 108 106 94
-326.4107 128.6563 -9.5951 0.793 0.492 -0.359 127 120 110
-331.0672 133.9820 -9.6315 0.658 -0.752 -0.043 69 62 52
-323.8636 131.7766 -9.2499 0.663 -0.738 -0.130 70 63 53
-326.3080 135.6234 -9.2123 0.712 -0.675 0.193 72 65 57
-328.9775 153.5962 -8.4288 0.522 -0.434 0.734 84 74 72
-327.3000 155.2338 -8.2240 0.505 -0.441 0.741 67 63 54
-331.6129 168.6216 -7.8018 0.609 -0.780 0.142 105 102 97
-326.9623 175.3984 -7.1133 0.737 0.506 0.447 101 100 95
-328.2805 177.3547 -7.0994 0.834 0.413 0.365 90 89 84
-329.0001 178.7825 -7.0724 0.834 0.413 0.365 81 80 75
-330.5589 180.9752 -7.0625 0.834 0.492 0.251 92 89 84
-326.1653 178.5546 -6.8878 0.742 -0.060 -0.668 102 99 92
-323.9634 177.3183 -6.8014 0.762 -0.046 0.646 102 99 92
-326.7818 181.4588 -6.7740 0.733 -0.205 0.649 100 97 90
-326.3723 195.3530 -5.9964 0.737 -0.669 0.095 114 109 106
-324.9557 194.7554 -5.9302 0.752 -0.659 0.027 113 108 105
-324.6450 195.2481 -5.8821 0.753 -0.068 -0.654 114 109 106
-333.6147 206.6712 -5.8895 0.670 -0.269 0.692 98 93 90
-332.4552 206.3403 -5.8267 0.712 -0.200 0.673 96 91 88
-332.6665 207.3900 -5.7848 0.713 -0.218 0.666 96 91 88
-325.8513 209.5050 -5.1972 0.882 0.137 0.450 97 97 89
-324.5623 208.9700 -5.1365 0.819 -0.430 -0.381 100 100 92
-323.5820 208.7540 -5.0800 0.772 -0.424 -0.473 104 104 96
-325.1124 216.2010 -4.7849 0.763 0.480 -0.432 86 81 78
-323.7655 215.5683 -4.7254 0.776 0.406 -0.483 83 78 75
-326.0408 250.1988 -3.0164 0.223 -0.919 0.324 56 56 54
-321.7213 246.6126 -2.9096 0.180 -0.927 0.329 56 56 54
-327.3651 260.0223 -2.5788 0.846 -0.445 -0.293 59 59 57
-326.5004 259.8333 -2.5289 0.915 0.145 0.376 59 59 57
-326.3210 261.4346 -2.4301 0.842 -0.402 -0.360 71 73 70
-324.1434 259.5395 -2.3809 0.836 -0.407 -0.367 73 75 72
-347.9249 299.4117 -1.8836 0.440 -0.885 0.150 77 79 76
-246.3400 -68.8972 -14.9754 0.397 -0.917 -0.036 130 146 146
-304.2403 -55.0896 -18.3978 0.446 -0.873 0.198 49 49 49
-358.6772 -9.9545 -19.9035 0.775 0.151 -0.614 64 62 65
-362.8240 -3.8940 -19.8786 0.082 -0.967 0.239 66 62 63
-354.0526 -1.6331 -19.1284 0.625 0.011 -0.781 67 63 64
-360.5959 4.2298 -19.2860 0.964 0.137 -0.227 84 78 78
-356.6790 16.9475 -18.3276 0.783 -0.527 0.331 76 68 66
-349.1658 19.3275 -17.6614 0.884 0.420 -0.207 71 63 60
-350.0171 20.0646 -17.6833 0.894 0.409 -0.183 73 65 62
-350.4323 20.7312 -17.6776 0.856 0.512 -0.070 78 70 67
-350.0631 21.2629 -17.6228 0.847 0.528 -0.056 78 70 67
-349.7984 21.8122 -17.5745 0.871 0.486 -0.070 78 70 67
-350.1671 22.4753 -17.5657 0.871 0.486 -0.070 79 71 68
-350.4125 23.7182 -17.5171 0.097 -0.995 0.020 87 79 76
-345.3435 25.7267 -17.0462 0.559 -0.828 -0.047 108 98 96
-344.9394 38.2287 -16.3515 0.464 -0.833 -0.303 127 119 116
-345.8409 39.0651 -16.3717 0.643 0.247 0.725 110 98 100
-346.4939 39.8433 -16.3772 0.936 0.136 0.323 123 111 113
-347.3100 40.6679 -16.3919 0.880 -0.458 0.124 126 114 116
-343.5640 40.9160 -16.1097 0.824 0.174 0.539 81 69 71
-344.6596 41.8161 -16.1404 0.664 -0.176 0.727 81 69 71
-344.5476 42.3986 -16.1014 0.664 -0.176 0.727 81 69 71
-343.6351 44.6017 -15.9186 0.737 0.302 -0.605 76 68 66
-337.5204 48.9173 -15.2497 0.922 -0.144 -0.361 63 54 59
-341.2367 50.6667 -15.4234 0.985 0.171 -0.003 73 64 69
-338.0442 50.9037 -15.1816 0.969 -0.247 -0.002 100 91 95
-337.9002 51.4688 -15.1411 0.969 -0.247 -0.002 85 75 75
-337.7323 55.0924 -14.9361 0.816 0.191 -0.545 75 65 64
-340.9964 56.7982 -15.0797 0.667 0.067 -0.742 75 65 64
-339.8411 59.5325 -14.8511 0.889 0.121 0.441 105 96 97
-339.5792 60.0675 -14.8039 0.902 0.162 0.401 105 96 97
-334.9464 59.0603 -14.5248 0.856 -0.373 0.358 105 96 97
-333.5079 59.1644 -14.4160 0.847 0.001 0.532 105 96 96
-332.0002 59.2367 -14.3039 0.978 0.177 -0.112 91 81 80
-332.8438 60.1501 -14.3158 0.957 0.286 -0.054 81 71 69
-333.2854 60.9228 -14.3064 0.949 0.301 -0.096 67 57 55
-335.2970 62.2736 -14.3789 0.830 0.509 0.228 56 46 44
-335.2540 62.8783 -14.3436 0.847 0.489 0.206 89 79 77
-336.3012 63.8888 -14.3650 0.919 0.300 -0.255 96 86 84
-336.2760 64.5045 -14.3304 0.964 0.263 0.032 102 92 90
-337.1693 65.4672 -14.3433 0.961 0.275 -0.039 107 98 95
-336.3762 65.7952 -14.2689 0.983 0.157 -0.092 103 96 94
-332.9609 79.5913 -13.2891 0.641 -0.611 -0.464 81 73 70
-332.7772 80.1490 -13.2462 0.635 -0.596 -0.491 90 82 79
-329.3696 82.4178 -12.8807 0.644 -0.507 0.573 90 82 80
-329.5813 83.1537 -12.8567 0.828 -0.135 0.544 97 89 87
-329.8647 83.9255 -12.8360 0.827 -0.131 0.546 105 97 95
-329.5779 84.4291 -12.7886 0.965 0.159 0.207 98 89 90
-331.0149 88.3413 -12.6835 0.942 0.151 0.299 79 70 71
-331.4248 89.1918 -12.6676 0.532 -0.767 -0.359 71 62 63
-327.5533 102.2401 -11.6949 0.703 -0.682 0.202 137 132 128
-325.9538 103.9783 -11.4875 0.797 -0.498 -0.343 146 143 136
-325.3175 104.2735 -11.4261 0.764 -0.550 -0.336 144 141 134
-329.1215 111.8606 -11.2952 0.725 -0.359 -0.588 104 100 91
-328.6855 112.2776 -11.2417 0.726 -0.365 -0.582 77 73 64
-328.3943 112.7807 -11.1940 0.726 -0.365 -0.582 84 80 71
-327.3600 114.8656 -11.0087 0.782 -0.246 -0.573 97 93 84
-326.7060 130.3266 -10.1386 0.919 0.040 0.392 88 81 71
-327.5589 131.6201 -10.1309 0.582 -0.813 -0.006 88 81 71
-328.2419 135.6467 -9.9656 0.687 -0.727 0.007 69 62 54
-324.1455 134.8483 -9.7139 0.854 -0.481 -0.201 69 62 54
-322.9951 134.7220 -9.6381 0.808 -0.590 -0.001 68 61 55
-322.3535 134.9582 -9.5794 0.932 0.289 0.218 69 62 54
-331.2147 144.3065 -9.7180 0.797 0.545 0.262 83 75 64
-331.9935 146.3550 -9.6648 0.794 0.488 0.363 99 91 80
-324.1477 145.5263 -9.1456 0.812 0.228 0.538 113 104 97
-323.8692 146.0323 -9.0986 0.786 0.272 0.556 111 102 97
-328.1011 153.7219 -8.9931 0.519 -0.458 0.722 63 52 48
-326.4450 153.8858 -8.8654 0.930 0.071 -0.361 71 64 56
-326.4892 154.6599 -8.8274 0.930 0.071 -0.361 86 82 73
-326.1469 167.1065 -8.1401 0.596 -0.739 -0.314 112 109 104
-325.0294 167.6583 -8.0305 0.363 -0.895 -0.261 134 133 128
-327.5278 176.7626 -7.7251 0.737 0.506 0.447 86 85 80
-328.5166 178.4308 -7.7073 0.807 0.423 0.412 81 80 75
-330.2506 180.7811 -7.7067 0.834 0.492 0.251 97 94 89
-326.6436 179.0741 -7.5385 0.715 -0.095 -0.693 109 106 99
-328.1214 194.7411 -6.8105 0.725 -0.162 0.670 96 93 88
-328.1143 195.5421 -6.7673 0.683 -0.428 0.591 89 84 80
-327.1427 195.3959 -6.7053 0.684 -0.467 0.560 99 94 91
-326.8375 195.9018 -6.6565 0.684 -0.467 0.560 106 101 98
-325.2708 195.1569 -6.5836 0.750 -0.655 0.097 110 105 102
-325.0714 195.7616 -6.5371 0.740 -0.085 -0.667 116 111 108
-326.3148 197.8059 -6.5176 0.682 -0.525 0.509 121 116 113
-323.2045 198.7046 -6.2464 0.638 -0.704 0.312 86 81 78
-320.5433 196.7941 -6.1570 0.648 -0.639 0.414 80 75 72
-320.1203 197.1570 -6.1073 0.679 -0.589 0.437 80 77 72
-324.1052 204.4875 -6.0032 0.891 0.442 0.107 75 75 67
-324.1222 215.2208 -5.4329 0.805 0.338 -0.488 85 80 77
-322.0956 213.8418 -5.3608 0.860 0.330 -0.390 80 75 72
-322.3416 238.7203 -4.0538 0.448 -0.831 0.330 69 68 64
-327.4760 260.2779 -3.2747 0.926 0.141 0.349 56 56 54
-325.5496 258.7308 -3.2187 0.910 0.167 0.379 56 56 54
-246.4066 -68.9150 -15.2741 0.398 -0.917 -0.041 130 146 146
-246.1256 -66.0326 -15.1017 0.674 -0.732 -0.101 45 50 46
-356.9373 -10.0038 -20.3705 0.863 0.219 -0.456 71 69 72
-360.3134 -8.6921 -20.5518 0.891 0.340 -0.300 73 71 74
-357.9561 -1.8709 -20.0184 0.615 0.016 -0.788 66 62 63
-371.3230 8.4716 -20.4655 -0.034 -0.996 0.084 78 72 74
-346.2759 7.3418 -18.6682 -0.058 -0.998 -0.015 78 72 76
-347.7653 12.7060 -18.4966 0.437 -0.870 -0.228 86 80 82
-348.9944 14.6313 -18.4865 0.606 0.599 -0.523 106 100 100
-352.9750 15.8192 -18.7191 0.566 0.579 -0.586 97 92 90
-348.7823 19.8908 -18.1943 0.856 0.507 -0.098 60 52 49
-349.1720 20.5502 -18.1885 0.856 0.507 -0.098 60 52 49
-349.5635 21.2126 -18.1827 0.856 0.507 -0.098 61 53 50
-349.8747 21.8634 -18.1715 0.871 0.486 -0.070 63 55 52
-350.5575 23.1831 -18.1528 0.088 -0.996 -0.011 61 53 50
-344.2460 25.5476 -17.5606 0.550 -0.833 -0.064 115 105 103
-350.8435 28.0656 -17.9173 0.120 -0.982 0.148 119 109 107
-353.0566 37.1726 -17.6026 0.012 -0.915 0.404 68 60 57
-347.2486 37.0113 -17.1805 0.883 -0.249 0.398 53 45 42
-345.2881 38.9669 -16.9324 0.615 0.273 0.740 99 87 89
-345.6109 39.6595 -16.9199 0.615 0.273 0.740 108 96 98
-346.8211 40.5840 -16.9610 0.820 -0.138 0.555 101 89 91
-344.0904 41.7071 -16.6995 0.655 -0.193 0.730 75 63 65
-343.9663 42.2850 -16.6599 0.664 -0.176 0.727 72 60 62
-345.4366 45.1473 -16.6184 0.859 0.078 0.507 89 81 79
-347.2316 47.5214 -16.6267 0.824 0.504 -0.258 84 76 74
-337.0712 52.4706 -15.6133 0.917 0.059 -0.396 96 86 85
-341.7339 57.0909 -15.7160 0.667 0.067 -0.742 66 56 55
-341.6145 58.3062 -15.6433 0.736 0.292 -0.610 68 59 60
-341.8866 59.0282 -15.6255 0.736 0.292 -0.610 61 52 53
-334.7224 59.0275 -15.0945 0.856 -0.373 0.358 66 57 58
-333.1561 59.0854 -14.9753 0.847 0.001 0.532 66 57 57
-332.7209 59.5409 -14.9191 0.800 -0.017 0.600 51 41 39
-333.7101 61.1238 -14.9092 0.764 0.280 0.581 62 52 50
-334.8602 62.7803 -14.9074 0.719 0.235 0.654 91 81 79
-336.4277 63.9837 -14.9603 0.804 0.277 0.526 99 89 87
-336.4669 64.6239 -14.9296 0.809 0.227 0.542 106 96 94
-338.6582 66.0773 -15.0156 0.944 0.270 0.188 112 103 100
-338.5518 66.6703 -14.9765 0.961 0.276 0.013 91 84 82
-336.6449 66.5744 -14.8402 0.927 -0.260 0.269 93 88 85
-334.6464 66.4337 -14.6995 0.971 0.072 0.230 101 96 93
-334.4306 72.6366 -14.3574 0.984 0.093 -0.153 60 60 52
-334.4879 73.2940 -14.3271 0.984 0.093 -0.153 63 63 55
-335.4155 74.3169 -14.3420 0.930 -0.051 -0.363 76 76 68
-333.7395 74.2487 -14.2214 0.924 -0.040 -0.381 88 87 79
-332.3160 74.2792 -14.1143 0.909 -0.413 -0.054 99 93 87
-332.0735 74.8069 -14.0685 0.909 -0.413 -0.054 96 89 83
-329.6984 83.2614 -13.4480 0.873 -0.224 0.433 163 155 153
-329.5701 83.8394 -13.4081 0.873 -0.224 0.433 151 143 141
-331.7703 85.5241 -13.4826 0.800 -0.592 0.100 124 115 116
-331.2638 85.9283 -13.4238 0.814 -0.569 0.117 96 87 88
-330.5798 86.2453 -13.3565 0.802 -0.588 0.101 77 68 69
-330.5996 86.8997 -13.3235 0.948 0.192 0.255 71 62 63
-326.9676 94.1234 -12.6745 0.475 -0.684 -0.554 84 79 73
-328.0135 100.5721 -12.4130 0.834 -0.549 -0.049 95 90 86
-327.1587 100.7587 -12.3398 0.788 -0.615 0.034 107 102 98
-326.8420 101.2411 -12.2910 0.953 -0.304 -0.014 138 133 129
-326.6632 101.7998 -12.2484 0.953 -0.304 -0.014 136 131 127
-326.4844 102.3585 -12.2057 0.953 -0.304 -0.014 116 111 107
-326.3010 102.9144 -12.1629 0.822 -0.169 -0.544 90 85 81
-323.5173 105.2641 -11.8330 0.929 0.164 0.332 128 125 118
-328.9484 113.1779 -11.8196 0.676 -0.403 -0.617 86 82 73
-323.5306 118.6171 -11.1320 0.815 -0.549 -0.187 117 114 105
-324.0170 119.6107 -11.1158 0.357 -0.923 0.145 107 106 101
-323.3712 119.8701 -11.0543 0.357 -0.923 0.145 105 104 100
-324.8282 125.6305 -10.8595 0.798 0.472 -0.374 114 111 106
-329.9019 133.3119 -10.8318 0.831 0.112 0.545 80 73 63
-324.0803 136.9855 -10.2071 0.850 -0.294 -0.437 71 64 56
-325.3286 146.5053 -9.7991 0.926 0.105 0.362 103 94 87
-323.8391 146.0813 -9.7110 0.794 0.178 0.581 101 92 87
-325.4489 149.5055 -9.6503 0.678 0.324 0.660 86 77 70
-327.2187 153.8380 -9.5537 0.519 -0.458 0.722 98 89 84
-326.8479 154.2824 -9.5029 0.931 0.069 -0.358 114 107 99
-326.2614 167.2846 -8.7758 0.596 -0.739 -0.314 108 105 100
-327.4374 177.5420 -8.3237 0.646 -0.763 -0.010 88 87 82
-330.8535 181.4113 -8.3736 0.791 0.499 0.354 103 100 95
-330.8257 182.1780 -8.3312 0.836 0.335 0.435 111 108 101
-327.2493 179.7102 -8.1958 0.742 -0.060 -0.668 114 111 104
-323.3406 176.9143 -8.0530 0.772 -0.042 0.634 119 116 109
-326.0952 190.4574 -7.5452 0.799 0.076 0.597 133 130 125
-325.8344 191.0015 -7.4973 0.747 0.074 0.661 127 124 119
-325.9596 191.9207 -7.4583 0.747 0.074 0.661 120 117 112
-327.6169 194.3379 -7.4540 0.725 -0.162 0.670 110 107 102
-327.0815 194.6196 -7.3995 0.710 -0.155 0.687 106 101 97
-326.7897 195.1384 -7.3506 0.684 -0.467 0.560 109 104 101
-326.0584 195.2224 -7.2920 0.755 -0.644 0.125 113 108 105
-325.7181 195.6899 -7.2422 0.763 -0.636 0.121 116 111 108
-326.0414 197.6235 -7.1645 0.675 -0.529 0.514 122 117 114
-334.3487 207.5977 -7.2559 0.823 -0.232 0.518 109 104 101
-332.0767 206.1461 -7.1638 0.776 -0.088 0.625 105 100 97
-322.4875 199.6718 -6.7934 0.849 0.527 -0.042 89 86 81
-323.6091 201.6297 -6.7736 0.841 0.330 -0.428 88 85 80
-325.7539 206.2939 -6.6874 0.947 0.321 0.009 76 76 68
-327.3920 211.3191 -6.5446 0.904 0.425 -0.035 107 107 99
-327.5431 213.1493 -6.4596 0.816 -0.334 -0.471 113 113 105
-325.2764 212.4015 -6.3309 0.885 0.292 -0.364 101 98 93
-325.4758 213.4473 -6.2907 0.834 0.450 -0.319 109 106 101
-324.8162 215.2376 -6.1477 0.795 0.419 -0.439 95 90 87
-324.9918 216.2643 -6.1067 0.808 0.376 -0.453 89 84 81
-325.2020 258.3995 -3.9071 0.910 0.167 0.379 56 56 54
-324.6002 258.5371 -3.8552 0.872 -0.480 0.093 58 58 56
-317.3904 256.3573 -3.4354 0.537 -0.758 0.371 83 85 82
-248.3093 -67.2419 -15.6258 0.424 -0.903 -0.073 130 136 134
-363.2254 -2.0216 -21.0264 0.136 -0.988 -0.076 104 100 101
-356.7440 -1.3526 -20.4961 0.608 0.068 -0.791 73 69 70
-346.8669 9.7352 -19.1655 0.566 -0.824 0.021 73 67 69
-348.2882 10.4974 -19.2346 0.627 -0.778 -0.037 72 66 68
-348.1015 11.0505 -19.1917 0.780 -0.363 -0.510 69 63 65
-348.0826 11.6266 -19.1603 0.779 -0.362 -0.513 65 59 61
-349.6642 21.2677 -18.7808 0.856 0.507 -0.098 60 52 49
-349.8213 21.8915 -18.7605 0.872 0.487 -0.055 57 49 46
-349.4363 22.4188 -18.7037 0.888 0.453 -0.083 58 50 47
-351.2199 23.3425 -18.7921 0.100 -0.993 -0.069 69 61 58
-350.4563 28.0264 -18.4906 0.120 -0.982 0.148 126 116 114
-347.2183 30.9729 -18.0901 0.322 -0.880 0.350 80 70 71
-346.4229 36.8519 -17.7242 0.915 -0.052 0.400 58 50 47
-346.6299 40.5768 -17.5467 0.824 -0.147 0.547 70 58 60
-343.5050 41.5936 -17.2550 0.655 -0.193 0.730 79 67 69
-343.1802 42.1162 -17.2030 0.673 -0.187 0.715 70 58 60
-346.6392 45.5264 -17.2905 0.705 0.312 0.637 100 92 90
-350.0208 47.1013 -17.4673 0.846 0.046 0.531 93 85 83
-350.0741 47.7484 -17.4378 0.846 0.046 0.531 70 62 60
-347.8710 47.7492 -17.2693 0.827 0.499 -0.261 70 62 60
-343.9009 47.2278 -16.9928 0.236 -0.965 -0.112 70 61 62
-337.4437 51.4135 -16.2819 0.970 -0.243 0.006 78 68 68
-339.1702 52.5734 -16.3537 0.987 0.039 0.155 78 68 67
-337.3381 52.6009 -16.2122 0.917 0.059 -0.396 78 68 67
-334.7147 59.0710 -15.6758 0.811 -0.219 0.542 61 52 53
-333.2864 59.1778 -15.5611 0.845 -0.011 0.535 61 52 52
-332.3378 59.4497 -15.4745 0.916 0.099 0.389 64 54 53
-332.6185 60.1614 -15.4590 0.765 0.274 0.583 69 59 57
-334.9087 62.2257 -15.5269 0.788 0.249 0.563 80 70 68
-336.0225 63.8807 -15.5262 0.804 0.277 0.526 97 87 85
-336.0580 64.5187 -15.4958 0.809 0.227 0.542 100 90 88
-338.5427 66.0823 -15.6046 0.944 0.270 0.188 102 93 91
-337.2271 66.8460 -15.4644 0.951 -0.205 0.229 77 72 69
-333.7314 72.3977 -14.9090 0.973 0.212 -0.093 71 71 63
-331.8599 74.7662 -14.6430 0.910 -0.412 -0.052 112 105 99
-331.0697 75.6873 -14.5347 0.893 0.332 0.303 117 108 103
-331.1327 80.7874 -14.2749 0.640 -0.437 -0.632 85 77 75
-329.4329 83.1895 -14.0202 0.873 -0.224 0.433 143 135 133
-329.3048 83.7670 -13.9805 0.873 -0.224 0.433 149 141 139
-331.6867 85.5380 -14.0706 0.800 -0.592 0.100 133 124 125
-331.3383 86.0178 -14.0191 0.800 -0.592 0.100 117 108 109
-331.2644 86.6285 -13.9818 0.858 -0.434 0.276 99 90 91
-330.4378 86.8754 -13.9058 0.948 0.192 0.255 71 62 63
-331.3422 89.2607 -13.8511 0.953 0.172 -0.248 71 62 63
-332.1739 90.3239 -13.8595 0.926 0.248 -0.286 71 62 63
-331.5706 90.6776 -13.7950 0.909 0.318 -0.271 79 70 71
-331.7073 91.3998 -13.7680 0.953 0.172 -0.248 88 79 80
-327.4097 91.8205 -13.4176 0.604 -0.421 -0.677 83 74 75
-327.8279 99.2104 -13.0660 0.974 -0.196 0.110 93 88 84
-328.9544 100.4864 -13.0859 0.780 -0.500 0.377 88 83 79
-328.6582 100.9855 -13.0374 0.780 -0.500 0.377 82 77 73
-327.5511 101.0342 -12.9502 0.786 -0.615 0.063 83 78 74
-327.0851 101.4346 -12.8938 0.788 -0.613 0.065 122 117 113
-326.7184 101.8890 -12.8422 0.919 -0.391 -0.047 132 127 123
-329.0343 111.9314 -12.4980 0.891 0.069 0.449 87 83 74
-329.8194 117.1990 -12.2846 0.855 0.399 -0.331 143 139 130
-322.6099 118.0855 -11.6874 0.905 -0.426 -0.015 121 118 109
-323.0822 119.0673 -11.6726 0.376 -0.912 0.162 114 113 108
-320.7664 118.9060 -11.5039 0.407 -0.879 0.250 119 118 114
-326.2672 128.0600 -11.4493 0.954 0.254 0.158 89 82 72
-326.9407 129.9205 -11.4043 0.808 0.079 0.583 87 80 70
-327.0398 130.6916 -11.3718 0.808 0.079 0.583 85 78 68
-326.1070 130.7487 -11.2975 0.737 0.147 0.660 80 73 63
-324.6930 137.5013 -10.8390 0.675 -0.684 -0.276 77 70 62
-328.6719 141.8479 -10.9176 0.727 0.422 0.542 80 71 62
-329.9436 144.2421 -10.8905 0.697 0.412 0.586 77 69 58
-326.5435 153.3764 -10.1565 0.525 -0.437 0.731 99 90 85
-325.6367 154.1272 -10.0482 0.927 0.092 -0.363 116 112 103
-324.6440 154.0656 -9.9755 0.974 -0.101 -0.204 115 112 103
-324.0016 155.0162 -9.8770 0.972 -0.067 -0.225 114 111 102
-327.5489 167.7079 -9.4895 0.880 -0.469 0.081 92 89 84
-327.5859 168.5029 -9.4511 0.882 -0.462 0.094 96 93 88
-325.6938 168.3935 -9.3121 0.414 -0.851 -0.322 127 126 121
-324.4861 168.1032 -9.2348 0.412 -0.866 -0.284 134 133 128
-327.7957 180.2928 -8.8552 0.742 -0.060 -0.668 109 106 99
-326.8300 180.1924 -8.7866 0.657 0.010 -0.754 114 111 104
-326.7829 180.9310 -8.7447 0.428 -0.796 -0.428 119 116 109
-327.7756 187.3759 -8.4861 0.786 0.139 -0.603 101 98 93
-326.8917 188.1272 -8.3795 0.781 0.133 -0.610 110 107 102
-327.1143 193.9364 -8.0950 0.725 -0.162 0.670 103 100 95
-327.0005 194.6297 -8.0503 0.725 -0.162 0.670 101 96 92
-326.9290 195.3652 -8.0067 0.732 -0.159 0.663 110 105 102
-326.6706 195.9167 -7.9583 0.738 -0.174 0.652 113 108 105
-326.1808 196.2384 -7.9041 0.769 -0.631 0.102 112 107 104
-326.7173 197.5791 -7.8756 0.650 -0.670 0.357 111 106 103
-323.3506 199.0346 -7.5426 0.639 -0.700 0.318 101 96 93
-321.8251 198.2827 -7.4650 0.865 0.307 -0.397 95 90 87
-323.0954 200.3858 -7.4530 0.850 0.527 -0.032 93 90 85
-324.2363 202.3666 -7.4374 0.841 0.330 -0.428 89 86 81
-326.4434 208.7565 -7.2745 0.921 0.381 -0.076 72 72 64
-329.2082 215.0145 -7.1611 0.784 -0.358 -0.508 103 103 95
-328.7412 217.0497 -7.0197 0.894 -0.430 0.125 102 99 94
-327.7675 216.8471 -6.9558 0.962 -0.271 0.029 102 97 94
-326.4635 218.8079 -6.7544 0.864 0.394 -0.315 93 88 85
-322.3985 223.5667 -6.1966 0.684 0.469 0.559 84 83 81
-324.7863 229.7043 -6.0606 0.566 -0.659 0.496 83 82 80
-322.6298 228.0734 -5.9804 0.444 -0.585 -0.679 81 80 78
-317.3475 256.4134 -4.1056 0.408 -0.796 0.448 81 83 80
-244.9221 -69.1497 -15.7554 0.471 -0.879 -0.078 178 196 196
-364.5878 -7.8242 -22.0407 0.901 0.145 -0.409 69 67 70
-375.1652 -6.0343 -22.7822 0.744 0.629 -0.227 65 61 62
-361.2817 -2.1363 -21.4888 0.104 -0.988 0.115 127 123 124
-347.3439 13.8754 -19.5705 0.587 -0.806 -0.077 87 81 83
-347.9563 15.1307 -19.5545 0.538 0.804 -0.252 106 101 99
-354.2717 17.8884 -19.9107 0.448 -0.746 0.493 102 94 91
-355.6753 19.3222 -19.9478 0.570 0.721 -0.394 82 74 71
-360.7569 22.0139 -20.2103 0.667 -0.725 0.169 81 73 70
-350.1755 21.9923 -19.3778 0.748 -0.659 0.071 83 75 72
-350.6199 28.0989 -19.0999 0.379 -0.912 0.155 118 108 106
-350.1912 28.6180 -19.0396 0.334 -0.923 0.191 116 106 104
-356.6976 38.1244 -19.0651 0.039 -0.905 0.424 80 72 69
-347.5064 37.1569 -18.3906 0.323 -0.741 0.589 65 57 54
-344.0385 38.7334 -18.0367 0.639 0.236 0.732 79 68 69
-344.5580 40.0831 -18.0085 0.744 0.053 0.666 82 70 72
-342.4941 41.3665 -17.7801 0.658 -0.180 0.732 84 72 74
-341.7759 42.9945 -17.6401 0.621 0.232 0.748 137 128 127
-337.7188 51.5448 -16.8825 0.874 0.143 -0.464 71 61 61
-339.5515 52.7398 -16.9656 0.837 0.168 -0.521 71 61 60
-338.3170 52.9600 -16.8571 0.845 0.164 -0.509 71 61 60
-336.8371 58.0098 -16.4818 0.791 0.095 -0.604 71 62 63
-335.3873 58.7388 -16.3303 0.791 0.048 -0.610 77 68 69
-332.1491 58.8190 -16.0711 0.832 -0.071 0.549 77 68 68
-332.0929 60.0178 -16.0052 0.830 0.503 0.241 89 79 77
-333.7511 61.8482 -16.0421 0.831 0.509 0.225 100 90 88
-334.8032 63.4745 -16.0416 0.838 0.493 0.233 94 84 82
-335.0669 64.1950 -16.0255 0.850 0.484 0.208 90 80 78
-336.5603 66.6392 -16.0179 0.944 -0.214 0.252 75 70 67
-333.2718 66.0000 -15.7916 0.711 0.087 -0.698 72 67 64
-332.2250 69.3226 -15.5389 0.791 0.094 -0.604 82 81 74
-331.6275 75.3480 -15.1832 0.910 -0.412 -0.052 94 85 80
-333.6655 80.7053 -15.0693 0.635 -0.596 -0.491 90 82 79
-332.4365 80.7925 -14.9680 0.548 -0.678 -0.489 81 73 71
-332.0120 81.8812 -14.8788 0.621 -0.485 -0.616 110 102 100
-328.8078 82.9485 -14.5717 0.765 -0.185 0.616 111 103 101
-328.2925 83.3413 -14.5110 0.751 -0.188 0.633 115 107 105
-330.3845 84.9723 -14.5922 0.775 -0.308 0.552 109 100 101
-330.3602 85.6035 -14.5580 0.785 -0.295 0.544 104 95 96
-330.1804 86.1606 -14.5153 0.785 -0.295 0.544 92 83 84
-330.2761 86.8511 -14.4874 0.948 0.192 0.255 71 62 63
-331.5253 89.4057 -14.4550 0.953 0.172 -0.248 72 63 64
-332.4078 90.4951 -14.4687 0.926 0.248 -0.286 76 67 68
-332.2682 91.0808 -14.4277 0.917 0.262 -0.302 87 78 79
-332.7943 92.0006 -14.4220 0.951 0.149 -0.272 105 96 97
-333.0350 92.7804 -14.4010 0.951 0.172 -0.258 116 107 108
-328.7284 94.5065 -13.9733 0.499 -0.859 -0.112 103 98 94
-329.2995 99.4094 -13.7671 0.847 -0.524 -0.092 90 85 79
-327.4693 99.0722 -13.6402 0.950 -0.313 -0.007 97 92 88
-328.3823 100.2304 -13.6528 0.969 -0.238 0.066 88 83 79
-328.4219 100.9133 -13.6209 0.780 -0.500 0.377 79 74 70
-328.1810 101.4417 -13.5749 0.880 -0.156 0.449 70 65 61
-328.0919 102.0543 -13.5365 0.880 -0.156 0.449 56 51 47
-327.6217 102.4537 -13.4790 0.957 0.057 0.284 85 80 76
-329.3255 104.0768 -13.5301 0.975 0.221 0.036 108 103 99
-329.3595 108.1239 -13.3254 0.697 -0.593 -0.402 95 92 85
-329.5859 108.9311 -13.3019 0.755 -0.527 -0.390 94 91 84
-330.6454 110.2305 -13.3188 0.712 -0.641 -0.288 92 89 82
-329.2306 110.0753 -13.2153 0.791 -0.547 -0.276 90 87 80
-324.9449 108.8728 -12.9393 0.933 0.260 0.248 87 83 74
-325.5858 109.9238 -12.9359 0.924 -0.020 0.382 87 83 74
-322.3431 128.8951 -11.7085 0.626 -0.746 -0.226 80 73 63
-322.9852 130.0361 -11.7007 0.831 0.294 0.471 81 74 64
-325.3519 138.0513 -11.4765 0.695 -0.652 -0.304 82 75 65
-328.9792 142.8712 -11.5153 0.693 0.450 0.563 84 76 65
-323.7474 148.3222 -10.8239 0.782 0.216 0.585 103 94 87
-325.4882 154.8206 -10.6281 0.988 -0.021 -0.156 88 85 76
-328.1276 168.2835 -10.1464 0.880 -0.460 0.118 80 77 72
-326.6868 168.5716 -10.0181 0.657 -0.680 0.325 102 99 94
-325.3422 168.1688 -9.9328 0.616 -0.775 0.140 116 115 110
-324.8918 168.5362 -9.8785 0.616 -0.775 0.140 118 117 112
-330.0468 181.6404 -9.6133 0.793 0.159 0.589 85 82 75
-327.8858 180.4594 -9.5035 0.884 0.349 0.312 90 87 80
-328.8950 188.5202 -9.1701 0.788 0.134 -0.601 90 87 82
-326.8082 191.3222 -8.8621 0.820 0.343 -0.458 103 100 95
-326.1224 191.4570 -8.8012 0.805 0.061 0.590 104 101 96
-328.1886 194.2677 -8.8200 0.568 -0.648 0.508 104 101 96
-326.6168 193.5394 -8.7335 0.729 -0.166 0.664 105 102 97
-326.1952 195.5368 -8.5979 0.738 -0.174 0.652 99 94 91
-326.5161 196.6609 -8.5656 0.724 -0.689 -0.034 94 89 86
-326.4944 197.4477 -8.5236 0.694 -0.717 -0.068 89 84 81
-322.3026 198.8610 -8.1210 0.861 0.323 -0.393 86 81 78
-324.0091 201.4138 -8.1246 0.852 0.523 -0.039 84 81 76
-324.5058 202.7360 -8.0960 0.853 0.520 0.036 89 86 81
-324.8628 205.5543 -7.9798 0.833 0.196 -0.518 76 76 68
-325.5974 207.1409 -7.9564 0.911 0.398 0.109 71 71 63
-326.0506 208.4396 -7.9255 0.906 0.406 0.120 71 71 63
-328.6487 217.0481 -7.6892 0.894 -0.430 0.125 96 93 88
-326.9125 216.0231 -7.6049 0.958 -0.288 0.015 97 92 88
-324.7919 214.5705 -7.5123 0.973 -0.231 0.018 98 93 89
-326.7334 217.5129 -7.5145 0.880 0.365 -0.304 99 94 90
-326.9925 218.6387 -7.4772 0.878 0.369 -0.304 99 94 90
-327.0482 219.5455 -7.4352 0.864 0.394 -0.315 99 94 90
-320.6410 221.6702 -6.8216 0.688 0.463 0.559 84 83 79
-321.6885 223.7027 -6.8000 0.674 0.486 0.556 86 82 79
-321.8098 232.3512 -6.3665 0.833 -0.499 -0.240 74 73 69
-319.9377 255.4486 -5.0357 0.360 -0.810 0.462 59 61 56
-319.1803 255.3580 -4.9807 0.357 -0.818 0.452 63 65 60
-318.2964 255.9894 -4.8787 0.419 -0.600 0.681 69 71 66
-250.1051 169.6537 -3.9297 0.644 -0.249 0.724 78 80 75
-246.6150 -68.9713 -16.1733 0.389 -0.921 -0.027 125 143 143
-366.7672 -6.4851 -22.7589 0.995 0.052 -0.087 103 99 100
-366.8300 -5.8842 -22.7336 0.960 -0.171 -0.220 113 109 110
-363.5982 -5.4873 -22.4514 0.935 0.204 -0.290 118 114 115
-349.9273 10.2020 -20.5494 0.360 -0.882 -0.303 74 68 70
-346.9713 12.6981 -20.1835 0.601 -0.625 -0.499 106 100 102
-347.4305 13.9234 -20.1588 0.585 -0.800 -0.133 100 94 96
-350.6723 16.1693 -20.3082 0.545 0.676 -0.496 116 109 106
-354.6394 17.9839 -20.5382 0.449 -0.735 0.508 91 84 81
-354.7483 18.6041 -20.5156 0.559 0.754 -0.344 86 79 76
-355.9567 19.4059 -20.5731 0.569 0.726 -0.386 85 78 75
-360.5225 20.7731 -20.8743 0.869 0.000 0.495 70 63 60
-360.5397 21.3953 -20.8442 0.869 0.000 0.495 69 62 59
-360.6005 22.0260 -20.8173 0.830 -0.373 0.415 84 76 73
-348.5875 21.1529 -19.8871 0.546 0.328 0.771 90 82 79
-349.4346 21.8977 -19.9182 0.728 -0.681 0.077 75 67 65
-350.3008 23.8502 -19.8897 0.199 -0.908 -0.370 106 98 96
-347.8264 24.5803 -19.6521 0.183 -0.914 -0.361 139 131 128
-348.1388 28.2350 -19.4927 0.366 -0.917 0.157 101 91 89
-347.6565 28.7366 -19.4282 0.381 -0.849 -0.366 103 93 91
-342.7225 30.6635 -18.9306 0.480 -0.870 0.116 84 74 75
-343.0757 36.1192 -18.6834 0.154 -0.941 0.302 69 61 58
-339.0028 39.8801 -18.1629 0.745 0.364 0.558 68 58 59
-342.2505 41.9507 -18.3217 0.613 -0.589 0.526 66 56 57
-341.0772 42.2397 -18.2119 0.586 -0.616 0.526 71 62 63
-341.2097 42.8817 -18.1902 0.594 -0.622 0.511 97 88 89
-344.8356 45.1096 -18.3716 0.637 0.234 0.734 109 100 100
-345.6288 45.9513 -18.3934 0.641 0.243 0.728 85 77 76
-337.3246 51.4646 -17.4411 0.879 0.094 -0.468 80 70 70
-344.0487 54.2184 -17.8473 0.971 0.124 -0.205 80 70 69
-339.0317 53.2346 -17.4901 0.849 0.157 -0.505 80 70 69
-337.2821 56.9731 -17.1592 0.791 0.143 -0.595 93 84 85
-335.1899 58.7158 -16.9014 0.791 0.024 -0.611 98 89 90
-334.6792 59.1510 -16.8380 0.791 0.029 -0.611 98 89 90
-331.6277 58.6793 -16.6143 0.827 -0.068 0.558 98 89 89
-336.4760 62.8953 -16.7944 0.886 0.138 0.442 115 105 103
-335.9991 66.4727 -16.5749 0.945 -0.203 0.255 87 82 79
-333.9634 80.8919 -15.6807 0.635 -0.596 -0.491 94 86 83
-332.7430 80.9838 -15.5771 0.548 -0.678 -0.489 85 77 75
-332.0879 81.3274 -15.5066 0.727 -0.653 -0.213 96 87 86
-332.5244 82.1690 -15.4995 0.988 -0.152 0.027 118 109 108
-331.7238 83.0851 -15.3882 0.885 -0.310 0.346 109 100 99
-331.2876 83.5243 -15.3306 0.867 -0.281 0.412 92 84 83
-331.1242 84.0903 -15.2888 0.867 -0.281 0.412 77 69 67
-331.2025 84.7706 -15.2607 0.825 -0.335 0.456 65 57 55
-331.0035 85.3203 -15.2168 0.825 -0.335 0.456 69 60 61
-330.8045 85.8698 -15.1729 0.825 -0.335 0.456 72 63 64
-330.6056 86.4192 -15.1290 0.825 -0.335 0.456 73 64 65
-329.9692 86.7563 -15.0603 0.828 -0.318 0.461 72 63 64
-330.2331 87.5296 -15.0426 0.845 -0.364 0.393 70 61 62
-331.4792 89.4379 -15.0472 0.954 0.172 -0.245 70 62 63
-332.3466 90.5201 -15.0628 0.953 0.173 -0.250 79 71 72
-332.4703 91.2371 -15.0366 0.953 0.173 -0.250 96 88 89
-332.9933 92.1562 -15.0326 0.951 0.149 -0.272 115 108 108
-333.9900 93.3185 -15.0546 0.946 0.191 -0.263 128 120 121
-326.4952 91.4612 -14.5407 0.909 -0.406 -0.095 110 103 103
-326.8413 92.2840 -14.5272 0.919 -0.370 -0.135 117 110 108
-327.5641 93.3054 -14.5341 0.877 -0.480 -0.015 120 113 110
-330.2791 96.6897 -14.5832 0.719 -0.292 0.631 86 81 75
-329.8951 97.1456 -14.5290 0.770 -0.433 0.468 93 88 82
-329.2320 97.4511 -14.4598 0.771 -0.449 0.451 108 103 97
-329.7902 98.4098 -14.4566 0.775 -0.473 0.419 109 104 98
-330.1820 99.2828 -14.4442 0.694 -0.695 0.187 93 88 83
-329.4586 99.5535 -14.3719 0.701 -0.687 0.191 82 77 72
-328.4620 99.6717 -14.2851 0.821 -0.411 0.397 86 82 78
-328.2203 100.1994 -14.2388 0.821 -0.411 0.397 87 83 79
-328.1284 100.8093 -14.2005 0.780 -0.494 0.384 89 84 80
-327.7755 101.2748 -14.1483 0.950 -0.313 -0.017 94 89 85
-327.5907 101.8330 -14.1051 0.950 -0.313 -0.017 114 110 106
-331.5078 106.7187 -14.1758 0.815 -0.162 0.557 107 104 98
-331.9768 107.6649 -14.1660 0.811 -0.171 0.559 99 96 90
-330.6936 107.6057 -14.0649 0.788 -0.419 -0.451 91 88 81
-330.0375 107.9029 -13.9967 0.736 -0.386 -0.556 86 83 76
-328.6570 107.7754 -13.8912 0.755 -0.528 -0.389 84 81 75
-328.0894 108.7885 -13.7939 0.915 -0.218 -0.341 86 83 77
-328.8001 109.8818 -13.7963 0.695 -0.436 -0.572 88 85 78
-325.4602 108.5736 -13.5916 0.955 0.112 0.276 88 85 77
-324.4918 108.6624 -13.5085 0.936 0.237 0.262 88 84 75
-321.6993 128.5127 -12.2785 0.623 -0.751 -0.216 79 72 62
-322.1130 129.4920 -12.2625 0.847 0.265 0.461 79 72 62
-325.4736 138.2099 -12.0943 0.695 -0.652 -0.304 89 82 72
-329.2668 144.6133 -12.0782 0.811 0.497 0.308 94 86 75
-330.0029 145.8954 -12.0731 0.810 0.492 0.317 91 83 72
-329.1002 145.9502 -11.9971 0.970 0.230 0.078 96 88 77
-330.5377 147.7690 -12.0217 0.863 0.017 0.505 101 93 82
-332.6476 161.4277 -11.5023 0.643 -0.292 0.708 98 94 85
-330.8813 160.7567 -11.3929 0.358 -0.625 0.694 100 97 88
-326.2259 163.7094 -10.8661 0.438 -0.535 -0.723 84 81 76
-326.3198 166.0562 -10.7550 0.396 -0.865 -0.310 82 79 74
-328.7224 168.8734 -10.8075 0.665 -0.661 0.348 79 76 71
-326.8818 168.0575 -10.6994 0.657 -0.680 0.325 82 79 74
-322.9721 169.9628 -10.2860 0.761 0.520 0.389 85 84 79
-328.7255 180.5238 -10.2187 0.799 0.180 0.573 85 82 76
-327.4972 180.1890 -10.1360 0.884 0.347 0.313 84 81 74
-326.8224 180.3541 -10.0729 0.776 -0.245 0.581 85 82 75
-326.4020 180.7497 -10.0188 0.626 -0.719 -0.302 83 80 73
-326.3932 181.5238 -9.9790 0.610 -0.729 -0.310 84 81 74
-327.5592 185.7585 -9.8594 0.643 -0.748 -0.163 75 72 65
-326.9290 186.7496 -9.7582 0.630 -0.754 -0.185 96 93 88
-326.5488 187.1820 -9.7055 0.581 -0.786 -0.210 104 101 96
-327.1162 189.3115 -9.6439 0.348 -0.871 -0.345 117 114 109
-324.9819 190.4386 -9.4138 0.509 -0.119 -0.852 121 118 113
-323.3569 198.4180 -8.8786 0.536 -0.755 0.378 80 75 72
-324.3609 202.6792 -8.7446 0.851 0.524 -0.041 80 77 72
-325.1510 204.3095 -8.7262 0.888 0.278 -0.367 85 85 77
-325.2849 205.2667 -8.6887 0.652 -0.289 -0.701 96 96 88
-325.5775 206.3914 -8.6556 0.837 0.188 -0.513 102 102 94
-325.5278 207.1623 -8.6126 0.911 0.398 0.109 102 102 94
-326.0157 208.4975 -8.5846 0.920 0.376 0.113 96 96 88
-326.0180 210.9854 -8.4590 0.797 -0.556 -0.236 85 85 77
-328.5335 214.4912 -8.4858 0.868 0.123 0.480 86 86 78
-324.5101 213.5296 -8.2081 0.983 -0.177 0.046 87 84 79
-327.2825 218.2072 -8.1965 0.866 0.380 -0.324 88 85 80
-327.6363 220.2875 -8.1200 0.864 0.394 -0.315 89 86 81
-327.0709 221.3665 -8.0196 0.580 -0.788 -0.208 82 79 74
-320.1731 222.0748 -7.4243 0.679 0.484 0.552 72 68 65
-321.2524 224.1481 -7.4070 0.686 0.496 0.532 76 72 68
-323.9765 229.8339 -7.3405 0.976 0.046 0.214 106 102 99
-322.8022 231.0443 -7.1841 0.561 -0.712 -0.422 99 95 92
-321.8862 232.5446 -7.0339 0.833 -0.499 -0.240 62 63 58
-322.7939 256.5555 -5.8936 0.375 -0.812 0.447 53 52 48
-243.2463 -68.5631 -16.1657 0.969 0.049 0.244 178 196 196
-360.8768 -5.0396 -22.8107 0.676 0.187 0.713 158 154 153
-347.3826 12.7915 -20.7953 0.601 -0.625 -0.499 107 102 106
-347.5020 13.9692 -20.7465 0.585 -0.800 -0.133 115 110 114
-354.9314 15.6618 -21.2819 0.883 -0.466 0.046 114 110 113
-354.0479 16.7267 -21.1551 0.909 -0.413 0.051 118 114 114
-355.9800 18.2346 -21.2411 0.552 0.759 -0.345 106 101 104
-355.3215 18.7341 -21.1612 0.559 0.754 -0.344 91 86 89
-355.2018 19.3197 -21.1220 0.573 0.740 -0.352 65 60 63
-358.7852 20.5222 -21.3610 0.904 -0.065 0.423 65 61 61
-359.5159 21.2610 -21.3851 0.897 -0.061 0.438 66 61 62
-359.8365 21.9338 -21.3783 0.884 -0.124 0.450 70 65 65
-347.7399 21.0407 -20.4136 0.547 0.327 0.771 81 75 74
-353.7411 22.7052 -20.8313 0.107 -0.994 -0.008 80 74 73
-350.9745 23.4119 -20.5652 0.115 -0.993 -0.039 101 95 95
-350.2150 27.4896 -20.2984 0.455 -0.886 -0.088 98 89 89
-349.3574 27.9208 -20.2054 0.455 -0.886 -0.088 101 92 93
-346.6233 29.1597 -19.9154 0.780 -0.583 0.226 101 92 93
-345.5681 29.5345 -19.8087 0.791 -0.573 0.215 99 91 89
-346.2946 32.6980 -19.7115 0.284 -0.959 0.001 72 64 62
-343.1402 32.5812 -19.4542 0.510 -0.527 0.679 80 72 70
-340.0880 40.8089 -18.7891 0.742 0.387 0.547 69 62 63
-340.2831 41.4630 -18.7727 0.737 0.390 0.552 66 59 59
-339.9417 41.9731 -18.7188 0.585 -0.595 0.551 63 56 56
-339.5114 42.4579 -18.6587 0.576 -0.613 0.541 66 60 63
-340.1183 43.2287 -18.6709 0.613 -0.573 0.544 72 66 69
-339.7112 43.7198 -18.6124 0.613 -0.573 0.544 79 73 76
-339.4576 44.2530 -18.5647 0.614 -0.570 0.546 81 75 78
-347.3456 54.6790 -18.7026 0.757 -0.632 -0.168 87 80 80
-339.8814 53.5530 -18.1361 0.761 -0.626 0.171 101 94 94
-336.7558 55.6092 -17.7727 0.749 0.049 -0.661 92 85 85
-346.9712 60.3160 -18.3902 0.790 0.129 -0.599 79 71 69
-346.5590 60.8186 -18.3307 0.782 0.124 -0.610 72 64 62
-337.7349 58.4125 -17.7146 0.787 0.083 -0.611 67 59 57
-345.4577 61.7236 -18.1937 0.592 -0.442 -0.674 96 88 86
-331.6472 58.1248 -17.2210 0.661 0.041 -0.749 97 89 87
-334.4016 61.5629 -17.2793 0.773 0.311 0.553 87 77 76
-335.8521 65.8374 -17.1871 0.892 -0.202 0.406 84 79 78
-336.1530 67.8394 -17.1123 0.984 -0.161 0.081 78 74 73
-332.8449 70.2965 -16.7138 0.977 0.026 -0.211 104 98 97
-336.2606 72.9563 -16.8660 0.980 0.097 -0.174 92 87 85
-328.9510 79.3173 -15.9389 0.748 0.216 0.628 90 84 85
-329.1785 80.0527 -15.9212 0.748 0.216 0.628 90 84 86
-329.4266 80.7999 -15.9046 0.751 0.248 0.612 100 94 96
-329.2706 81.9981 -15.8318 0.864 -0.369 0.342 100 94 95
-330.7074 83.3061 -15.8864 0.816 -0.565 0.122 92 86 88
-328.6761 82.9919 -15.7326 0.750 -0.421 0.510 86 80 80
-329.0258 84.4322 -15.6900 0.728 -0.427 0.536 72 66 66
-329.3601 86.5150 -15.6139 0.960 0.025 0.278 70 64 64
-328.8284 86.8987 -15.5504 0.929 0.369 0.025 70 64 64
-331.6608 89.5823 -15.6529 0.954 0.172 -0.245 66 62 61
-330.9472 94.4611 -15.3499 0.674 -0.330 0.661 108 104 103
-329.8104 95.8411 -15.1863 0.721 -0.284 0.632 106 101 98
-329.8464 96.5179 -15.1555 0.719 -0.292 0.631 94 89 86
-329.2069 96.8369 -15.0862 0.770 -0.458 0.445 104 99 95
-328.9315 97.3476 -15.0378 0.770 -0.458 0.445 108 103 100
-328.9363 98.0083 -15.0052 0.773 -0.462 0.435 101 96 93
-327.2408 97.7512 -14.8766 0.740 -0.583 0.336 94 89 86
-328.6805 99.1885 -14.9250 0.760 -0.559 0.331 82 79 76
-327.5670 99.2404 -14.8295 0.777 -0.366 0.512 88 88 85
-327.3444 99.7761 -14.7842 0.777 -0.366 0.512 110 111 108
-328.0927 103.4995 -14.6609 0.869 0.431 -0.245 128 129 126
-328.7538 107.2196 -14.5305 0.833 -0.394 -0.388 91 90 86
-327.7261 107.2936 -14.4410 0.842 -0.408 -0.353 99 98 93
-328.8557 109.9756 -14.4015 0.697 -0.419 -0.583 98 97 93
-327.8722 111.4184 -14.2475 0.690 -0.401 -0.603 93 90 81
-329.9796 113.3673 -14.3261 0.878 -0.083 -0.472 93 90 81
-324.9224 137.8774 -12.6814 0.772 -0.630 -0.081 93 89 77
-324.0466 137.9463 -12.6049 0.770 -0.604 -0.204 99 93 81
-328.1064 143.8196 -12.6506 0.812 0.467 0.350 86 78 67
-328.4402 144.7968 -12.6297 0.815 0.464 0.348 82 74 63
-328.4017 145.4971 -12.5916 0.980 0.198 0.009 92 84 73
-328.7651 146.5021 -12.5718 0.980 0.196 0.021 107 99 88
-333.6125 161.5205 -12.2270 0.399 -0.512 0.761 89 81 75
-331.3594 161.2231 -12.0538 0.368 -0.524 0.768 105 97 91
-330.8556 161.5732 -11.9943 0.612 -0.168 0.773 99 91 85
-329.5071 169.6266 -11.4801 0.746 -0.569 0.345 75 75 67
-325.7379 170.9600 -11.0991 0.625 -0.781 0.001 85 81 78
-325.4712 171.4900 -11.0504 0.738 -0.674 -0.019 90 86 83
-325.0840 171.9126 -10.9970 0.738 -0.674 -0.019 93 89 86
-326.6052 177.9013 -10.8252 0.677 -0.719 0.154 112 108 105
-327.7722 179.7411 -10.8308 0.826 0.300 0.478 114 111 106
-326.7928 179.6301 -10.7546 0.880 0.361 0.309 106 103 98
-326.4362 180.0844 -10.7022 0.776 -0.245 0.581 96 93 88
-325.5081 180.0114 -10.6284 0.717 -0.662 -0.219 88 85 80
-325.0375 180.3559 -10.5719 0.636 -0.710 -0.302 84 81 76
-327.0961 187.7882 -10.3729 0.607 -0.765 -0.217 86 83 78
-327.2107 190.2876 -10.2578 0.651 -0.733 -0.198 112 109 104
-326.9852 190.8699 -10.2099 0.758 -0.080 -0.648 117 114 109
-324.6166 199.7871 -9.5675 0.741 -0.272 -0.614 74 69 66
-324.3710 200.3468 -9.5191 0.741 -0.272 -0.614 79 74 71
-325.1013 203.5339 -9.4210 0.831 0.397 -0.390 75 72 67
-325.7237 204.9943 -9.4001 0.912 0.324 -0.252 91 88 83
-325.6981 205.7886 -9.3583 0.884 0.218 -0.414 111 108 103
-326.0298 206.9560 -9.3277 0.833 0.196 -0.518 124 121 116
-325.8955 207.6404 -9.2824 0.640 -0.278 -0.717 125 122 117
-325.5544 210.5895 -9.1068 0.893 0.097 0.439 86 83 78
-326.6526 212.5875 -9.0988 0.935 0.143 0.324 87 84 79
-326.0494 212.7790 -9.0389 0.890 0.287 0.354 87 84 79
-326.4790 214.0736 -9.0101 0.890 0.287 0.354 87 84 79
-324.6837 212.9812 -8.9149 0.966 0.215 0.143 85 82 77
-321.9270 210.8391 -8.7917 0.723 -0.274 -0.634 85 82 77
-325.9344 221.0605 -8.6162 0.508 -0.843 -0.177 77 74 69
-323.6047 219.3236 -8.5084 0.535 -0.828 -0.168 71 69 64
-319.9162 222.7187 -8.0313 0.683 0.477 0.553 71 66 61
-323.6893 229.6042 -8.0026 0.971 0.061 0.233 106 101 96
-322.6496 230.9689 -7.8478 0.588 -0.709 -0.388 103 99 93
-321.9626 232.7383 -7.7022 0.833 -0.499 -0.240 59 60 55
-321.2059 237.0112 -7.4259 0.764 -0.206 -0.612 91 92 87
-318.0042 254.9400 -6.2644 0.445 -0.633 0.634 54 55 50
-324.0511 267.4472 -6.1450 0.315 -0.903 0.293 92 93 88
-323.5118 267.6535 -6.0897 0.315 -0.903 0.293 88 89 84
-322.1277 266.7272 -6.0204 0.315 -0.908 0.276 86 87 82
-320.6214 265.6267 -5.9497 0.307 -0.914 0.266 83 84 79
-242.4625 -68.7771 -16.3954 0.985 0.023 -0.174 178 196 196
-243.2874 -68.5728 -16.4561 0.959 0.140 0.244 178 196 196
-250.3290 -70.4807 -17.1539 0.377 -0.925 -0.044 132 150 150
-330.3597 -42.9019 -22.6598 0.604 0.069 -0.794 75 70 67
-349.9871 -23.2881 -23.3777 0.010 -0.826 0.564 82 74 72
-357.3181 -11.5464 -23.4286 0.280 -0.785 0.553 80 74 76
-351.0946 -9.0077 -22.7699 0.638 0.108 -0.762 111 105 107
-360.9342 -5.0040 -23.4167 0.706 0.227 0.671 146 142 141
-358.9869 -2.7983 -23.1412 0.227 -0.670 0.706 114 109 106
-354.6388 -1.3935 -22.6991 0.291 -0.350 0.891 101 96 93
-346.9680 10.4600 -21.4580 0.852 -0.519 0.069 60 55 59
-347.7953 12.8853 -21.4095 0.601 -0.625 -0.499 80 75 79
-347.5151 14.0064 -21.3303 0.577 -0.803 -0.146 88 83 87
-359.2273 21.2507 -21.9782 0.897 -0.061 0.438 66 62 63
-354.7409 27.2074 -21.3003 0.780 -0.345 0.522 93 84 85
-350.5577 28.2044 -20.8925 0.457 -0.885 -0.095 83 74 75
-344.3193 29.3069 -20.3033 0.829 -0.505 0.242 79 71 69
-344.0198 29.8374 -20.2515 0.847 -0.495 0.192 65 57 55
-338.5911 31.5806 -19.7001 0.445 -0.854 0.271 69 61 59
-344.8926 36.0381 -20.0212 0.835 0.357 -0.418 87 77 76
-344.6483 36.5842 -19.9733 0.831 0.356 -0.427 86 76 75
-344.8831 37.2480 -19.9608 0.830 0.352 -0.432 84 74 73
-337.1237 38.8735 -19.2154 0.518 -0.197 0.832 75 69 69
-342.8445 41.5864 -19.5725 0.887 0.375 0.268 65 59 59
-343.1378 42.2743 -19.5638 0.887 0.375 0.268 71 65 65
-338.6683 42.2684 -19.1808 0.569 -0.617 0.543 85 79 83
-338.5047 43.4246 -19.1098 0.551 -0.581 0.599 55 49 53
-343.7948 51.0994 -19.1858 0.613 0.739 0.280 74 65 68
-336.5413 50.6978 -18.5835 0.960 -0.278 -0.021 90 81 84
-343.8578 54.8779 -19.0052 0.684 -0.541 0.490 100 94 94
-342.9993 55.2289 -18.9144 0.698 -0.526 0.486 86 80 80
-342.6507 55.7431 -18.8591 0.698 -0.526 0.486 77 71 71
-344.0902 62.5743 -18.6464 0.634 -0.336 -0.696 93 85 83
-331.9054 58.8700 -17.7838 0.590 -0.429 -0.684 93 85 83
-331.3017 59.2620 -17.7127 0.624 -0.410 -0.665 87 77 76
-333.9693 66.4140 -17.5895 0.995 0.030 -0.094 78 74 73
-335.7399 67.7275 -17.6767 0.977 -0.089 0.195 93 89 88
-335.3608 68.2088 -17.6205 0.979 -0.183 -0.093 117 113 112
-334.8066 73.6787 -17.3038 0.911 0.184 -0.369 78 72 72
-336.0351 78.0441 -17.1943 0.872 0.221 -0.436 71 62 67
-334.4292 77.9884 -17.0593 0.736 0.506 0.450 80 71 76
-329.8719 79.7865 -16.5800 0.715 0.494 0.495 90 84 86
-330.3924 80.6586 -16.5817 0.819 0.318 0.479 90 84 86
-329.9630 81.0983 -16.5233 0.774 0.360 0.521 91 85 87
-329.7206 81.6229 -16.4767 0.769 -0.100 0.631 89 83 85
-329.5793 82.1940 -16.4364 0.809 -0.058 0.585 87 81 83
-331.4822 83.7215 -16.5244 0.825 -0.548 0.139 83 77 79
-329.7242 86.7453 -16.2249 0.944 0.057 0.325 75 69 69
-332.5437 90.0732 -16.3029 0.917 0.400 -0.000 72 68 67
-330.4796 94.2757 -15.9191 0.674 -0.330 0.661 113 109 108
-329.2184 96.8999 -15.6818 0.773 -0.462 0.435 95 90 87
-328.9412 97.4099 -15.6329 0.773 -0.462 0.435 101 96 93
-328.6643 97.9193 -15.5841 0.773 -0.462 0.435 98 93 90
-327.4621 97.9279 -15.4805 0.945 -0.301 0.126 95 90 87
-326.9180 98.2880 -15.4162 0.911 -0.413 -0.009 79 77 73
-327.4724 99.2463 -15.4165 0.944 -0.329 0.011 92 92 90
-327.2807 99.7988 -15.3729 0.944 -0.329 0.011 135 137 134
-327.4388 100.5444 -15.3498 0.875 -0.476 -0.090 133 135 132
-327.4984 101.2373 -15.3208 0.801 -0.589 -0.113 136 136 134
-327.1487 101.7028 -15.2679 0.801 -0.589 -0.113 144 144 142
-329.5750 105.7363 -15.2775 0.804 0.168 0.570 95 96 91
-329.7529 106.5105 -15.2546 0.804 0.168 0.570 83 82 78
-329.0506 107.4518 -15.1481 0.705 -0.699 -0.120 81 80 76
-328.6209 107.8749 -15.0904 0.705 -0.699 -0.120 84 83 79
-327.2072 108.3902 -14.9438 0.864 -0.372 -0.340 85 84 80
-327.7488 109.3817 -14.9414 0.967 0.141 0.214 85 84 80
-327.9909 110.1993 -14.9220 0.888 -0.297 -0.350 84 83 78
-328.2737 111.0437 -14.9047 0.632 -0.496 -0.595 85 82 75
-329.3101 112.3437 -14.9296 0.653 -0.417 -0.632 85 82 73
-331.4895 114.3413 -15.0181 0.866 -0.077 -0.494 85 82 73
-328.7603 113.3739 -14.8317 0.899 -0.266 -0.348 85 82 73
-332.4482 116.9998 -14.9695 0.880 -0.203 -0.429 116 114 102
-332.8896 117.9670 -14.9598 0.894 -0.181 -0.411 116 113 104
-332.1649 118.2159 -14.8854 0.871 -0.214 -0.443 115 112 103
-321.6167 129.2774 -13.4364 0.854 0.503 -0.134 96 92 80
-326.9558 137.9995 -13.4650 0.922 0.209 0.324 79 75 63
-326.4331 138.3351 -13.4037 0.766 -0.634 0.100 82 78 66
-326.0685 138.7840 -13.3503 0.766 -0.634 0.100 88 84 72
-326.6447 140.6395 -13.3084 0.844 0.405 0.351 97 91 79
-328.7636 144.3821 -13.3060 0.839 0.398 0.371 86 78 67
-328.5542 146.4155 -13.1879 0.960 0.259 0.104 103 95 84
-332.7887 160.1716 -12.8741 0.671 0.472 0.572 84 75 70
-333.7821 161.7355 -12.8823 0.467 -0.341 0.816 94 85 80
-331.5301 161.4400 -12.7037 0.366 -0.493 0.789 106 97 92
-326.2523 162.3825 -12.2047 0.288 -0.463 -0.838 83 80 73
-325.3102 167.6221 -11.8661 0.739 -0.662 0.124 60 60 52
-326.5357 172.5100 -11.7306 0.837 -0.321 0.444 80 76 73
-326.2408 175.3307 -11.5665 0.569 -0.777 -0.269 107 103 100
-327.6298 178.1330 -11.5477 0.704 -0.607 -0.368 94 90 87
-327.2360 178.5567 -11.4931 0.704 -0.607 -0.368 111 107 104
-326.8429 178.9795 -11.4386 0.704 -0.607 -0.368 121 118 113
-326.9545 179.8619 -11.4047 0.878 -0.478 -0.023 111 108 103
-326.6699 180.3830 -11.3547 0.878 -0.478 -0.023 102 99 94
-325.6676 180.2425 -11.2756 0.716 -0.661 -0.226 93 90 85
-325.7552 181.1036 -11.2408 0.696 -0.666 -0.269 87 84 79
-325.6411 181.7794 -11.1977 0.844 -0.499 -0.197 79 76 71
-325.3350 182.2768 -11.1470 0.844 -0.499 -0.197 81 78 73
-327.4746 185.0601 -11.1935 0.731 -0.276 0.625 85 82 77
-327.2832 185.6722 -11.1470 0.731 -0.276 0.625 89 86 81
-327.7884 186.9405 -11.1279 0.735 -0.280 0.617 91 88 83
-328.3029 189.0210 -11.0696 0.778 -0.236 0.582 65 62 57
-327.7631 189.3064 -11.0093 0.655 -0.727 -0.204 74 71 66
-327.5919 191.5428 -10.8845 0.757 -0.052 -0.652 95 92 87
-325.6526 192.8633 -10.6532 0.805 0.085 -0.587 72 69 64
-326.0683 205.4439 -10.0697 0.912 0.324 -0.252 97 94 89
-325.9600 206.1539 -10.0255 0.849 0.282 -0.446 113 110 105
-326.6185 207.6631 -10.0077 0.833 0.196 -0.518 122 119 114
-326.3885 208.2499 -9.9591 0.640 -0.278 -0.717 120 117 112
-325.3709 209.6622 -9.8023 0.917 0.122 0.379 96 93 88
-326.3987 212.4134 -9.7551 0.935 0.143 0.324 89 86 81
-325.1743 211.9406 -9.6733 0.903 0.294 0.313 86 83 78
-324.9387 212.5196 -9.6246 0.898 0.300 0.321 86 83 78
-319.4568 220.6214 -8.7558 0.612 -0.642 -0.461 74 69 63
-317.4208 219.1324 -8.6545 0.682 0.389 0.619 74 69 63
-318.8098 221.5514 -8.6546 0.712 0.460 0.531 75 70 64
-320.1955 223.9788 -8.6539 0.685 0.407 0.604 80 75 69
-323.4069 229.3799 -8.6635 0.973 0.155 0.169 101 96 90
-322.8105 231.2598 -8.5199 0.585 -0.711 -0.390 98 94 87
-322.0392 232.9323 -8.3714 0.833 -0.499 -0.240 59 60 55
-321.5700 233.2374 -8.3161 0.748 -0.514 -0.419 56 57 52
-321.5945 237.5847 -8.1043 0.764 -0.206 -0.612 85 86 81
-321.0757 237.8255 -8.0480 0.764 -0.199 -0.614 72 73 68
-318.2492 254.4814 -6.9859 0.435 -0.639 0.634 45 46 41
-321.4173 265.8939 -6.6959 0.267 -0.937 0.226 81 82 77
-320.4339 265.4917 -6.6314 0.307 -0.914 0.266 81 82 77
-318.7332 264.1170 -6.5532 0.184 -0.922 0.341 81 82 77
-249.9432 -70.3443 -17.4149 0.433 -0.900 -0.044 132 150 150
-361.4737 -51.7038 -26.3343 0.248 -0.719 -0.649 63 55 53
-387.6260 -54.2226 -28.7602 0.178 -0.734 -0.656 63 55 53
-323.8462 -42.2595 -22.5614 0.461 -0.395 -0.794 74 69 66
-352.2620 -11.1590 -23.5548 0.272 -0.825 0.496 88 82 84
-353.5448 -8.8526 -23.5558 0.644 0.093 -0.759 147 141 143
-354.2924 -8.2477 -23.5923 0.066 -0.792 0.607 181 175 177
-359.9148 -5.0382 -23.9318 0.691 0.191 0.697 152 148 147
-359.9619 -4.4510 -23.9074 0.709 0.228 0.667 140 136 135
-356.9814 -4.0732 -23.6265 0.713 0.258 0.652 108 104 103
-357.0111 -3.4922 -23.6010 0.718 0.258 0.647 99 95 94
-356.9643 -2.9160 -23.5689 0.736 0.262 0.624 107 102 99
-354.9857 -1.9105 -23.3458 0.287 -0.957 -0.045 103 98 95
-343.7424 8.3653 -21.8566 -0.025 -0.986 -0.163 71 67 68
-347.4070 9.4012 -22.1291 0.613 -0.788 0.059 71 67 68
-346.4846 9.8561 -22.0258 0.638 -0.768 0.044 71 67 68
-347.7304 10.5957 -22.0996 0.850 -0.520 0.084 76 71 75
-348.4079 11.2652 -22.1268 0.868 -0.493 -0.057 69 64 68
-347.7728 11.7577 -22.0469 0.863 -0.504 -0.044 71 66 70
-348.0933 12.3820 -22.0449 0.697 -0.578 -0.425 70 65 69
-347.8751 12.9318 -21.9990 0.593 -0.634 -0.497 64 59 63
-346.5971 13.9064 -21.8391 0.583 -0.780 -0.228 67 62 66
-349.2050 14.8768 -22.0217 0.713 -0.690 0.123 67 62 66
-351.3700 15.7932 -22.1679 0.754 -0.656 -0.049 70 65 69
-357.4905 20.9951 -22.4545 0.869 0.063 0.491 66 62 63
-357.5497 21.6186 -22.4295 0.869 0.063 0.491 69 65 66
-348.8717 22.5051 -21.6220 0.798 -0.107 0.593 82 76 76
-350.6559 23.4296 -21.7343 0.740 -0.271 0.616 90 84 84
-351.9973 24.2812 -21.8112 0.759 -0.247 0.603 90 84 84
-352.6697 25.0137 -21.8348 0.758 -0.277 0.590 90 84 84
-351.8677 25.4683 -21.7421 0.757 -0.239 0.608 88 82 82
-350.2168 25.7550 -21.5828 0.769 -0.349 0.535 86 77 78
-354.2470 27.1500 -21.8701 0.769 -0.439 0.465 86 77 78
-351.0424 28.3426 -21.5299 0.474 -0.875 -0.097 76 67 68
-350.5455 29.4576 -21.4320 0.379 -0.876 0.300 77 68 69
-344.1245 29.3043 -20.8738 0.782 -0.575 0.241 68 60 58
-346.7504 31.0695 -21.0195 0.399 -0.916 -0.047 88 80 78
-345.7996 32.0638 -20.8874 0.301 -0.795 0.526 78 70 68
-337.7289 31.4223 -20.2077 0.475 -0.783 0.401 72 64 62
-344.5650 35.9999 -20.5876 0.828 0.353 -0.437 79 69 68
-344.8482 36.6741 -20.5799 0.828 0.353 -0.437 58 48 47
-344.9544 37.3069 -20.5585 0.375 -0.825 0.422 61 51 50
-336.7628 38.8198 -19.7635 0.844 0.360 0.397 87 81 81
-336.9817 39.4694 -19.7512 0.856 0.220 0.467 81 75 75
-340.2929 41.5495 -19.9419 0.811 0.223 0.541 117 111 111
-339.5454 41.9492 -19.8567 0.899 -0.251 0.358 131 125 125
-338.2784 42.2032 -19.7328 0.609 -0.589 0.531 52 46 50
