ply
format ascii 1.0
element vertex 846
property float x
property float y
property float z
property float nx
property float ny
property float nz
property uchar diffuse_red
property uchar diffuse_green
property uchar diffuse_blue
end_header
-319.3657 211.5822 -26.2031 0.913 -0.190 -0.361 66 51 58
-336.9565 233.0757 -28.1954 0.993 -0.029 -0.111 50 35 42
-228.3284 271.3983 -12.2344 0.609 0.187 0.771 45 40 44
-373.0102 41.4012 -37.8706 0.871 -0.170 0.461 91 82 99
-363.3733 42.7388 -36.4854 -0.165 -0.985 -0.042 85 81 96
-369.8909 46.7360 -37.3261 0.556 0.113 0.823 70 66 81
-348.9117 47.5710 -34.3514 0.499 -0.860 0.108 68 57 74
-370.3343 57.7130 -37.1734 0.222 -0.973 0.067 66 62 77
-369.6501 58.5299 -37.0609 -0.098 -0.993 -0.062 67 65 79
-362.0952 57.2328 -36.0210 -0.055 -0.783 -0.620 68 64 79
-373.5254 66.0712 -37.4594 0.657 -0.696 0.290 70 59 75
-349.5418 72.1174 -33.9589 0.946 -0.287 -0.148 54 46 61
-344.8220 86.9868 -33.0017 0.945 0.122 0.304 88 79 98
-346.7115 90.2209 -33.2048 0.736 -0.222 0.639 64 55 72
-343.3908 89.8689 -32.7434 0.746 -0.231 0.625 71 60 77
-343.2520 90.3994 -32.7134 0.746 -0.231 0.625 91 80 97
-342.2076 91.6997 -32.5407 0.998 0.056 -0.021 109 98 114
-344.0323 97.4826 -32.6846 0.888 0.039 -0.458 94 80 105
-330.8246 91.4909 -30.9396 0.609 -0.766 0.206 89 75 100
-330.7497 95.0366 -30.8595 0.784 0.119 0.609 110 98 120
-332.9641 97.4048 -31.1253 0.349 -0.931 -0.105 147 135 157
-334.1294 98.6316 -31.2656 0.238 -0.971 -0.039 141 129 151
-332.1339 98.2001 -30.9927 0.226 -0.974 -0.038 134 122 144
-333.0995 99.9525 -31.0945 0.891 0.237 0.387 123 112 127
-344.9008 108.2192 -32.5965 0.929 0.060 -0.365 89 79 90
-331.3268 106.6083 -30.7140 0.971 -0.120 -0.207 92 74 88
-333.0742 110.2295 -30.8894 0.893 0.210 -0.399 102 84 98
-317.2791 120.0764 -28.4690 0.159 -0.865 0.476 119 110 115
-324.2630 126.8903 -29.3201 0.837 -0.390 -0.383 94 83 87
-322.6168 126.4978 -29.0957 0.930 0.060 -0.362 95 83 87
-332.6372 137.1209 -30.3004 0.759 -0.322 -0.565 73 60 67
-330.2271 157.2715 -29.5654 0.245 -0.862 -0.445 71 54 64
-285.7931 133.4917 -23.7659 0.491 -0.823 -0.284 102 83 89
-321.3876 193.4570 -27.6093 0.857 -0.225 -0.464 71 55 65
-322.1786 200.5092 -27.5825 0.283 -0.657 -0.699 70 54 65
-328.5491 213.6504 -28.2231 0.983 0.142 0.119 79 63 73
-322.6877 208.6018 -27.4956 0.679 -0.467 0.566 71 55 65
-323.0242 210.0621 -27.5144 0.451 -0.645 0.617 71 55 65
-317.2358 207.1967 -26.7544 0.666 -0.472 0.578 69 54 61
-267.2623 193.0807 -19.9843 0.546 -0.631 0.551 77 60 70
-374.5430 40.8263 -38.6508 0.784 0.240 0.573 74 65 82
-378.0695 44.0140 -39.0970 0.843 -0.025 -0.538 62 58 73
-374.6142 44.5967 -38.5937 0.530 -0.180 -0.829 74 70 85
-347.2261 46.6340 -34.6508 0.565 -0.753 -0.337 79 66 84
-371.4279 57.5286 -37.9086 0.891 -0.420 -0.172 79 75 90
-374.2083 59.9158 -38.2626 0.040 -0.990 -0.136 74 70 85
-369.8967 64.3531 -37.5685 0.767 -0.554 0.323 59 50 67
-340.1103 68.5046 -33.2458 0.847 -0.527 0.069 56 48 61
-360.5771 77.4953 -36.0048 0.976 0.202 -0.078 65 54 68
-336.6612 81.6172 -32.5200 0.911 0.180 -0.372 72 63 80
-344.0331 93.8094 -33.3540 0.997 0.082 0.006 104 90 113
-344.4531 95.8548 -33.3775 0.988 0.139 0.061 107 93 118
-325.1853 91.0129 -30.7155 0.376 -0.089 0.923 97 85 105
-341.1845 102.3621 -32.7952 0.450 -0.880 -0.155 119 107 129
-338.4922 101.5822 -32.4250 0.401 -0.913 -0.078 119 107 129
-329.2941 104.8496 -31.0548 0.990 -0.077 -0.115 89 69 81
-331.7118 106.8601 -31.3638 0.980 -0.108 -0.170 85 66 78
-333.3232 110.4091 -31.5303 0.892 0.211 -0.401 100 80 92
-348.2475 122.6032 -33.4416 0.326 -0.924 -0.198 110 97 114
-348.0396 123.2021 -33.4013 0.274 -0.908 -0.318 110 97 114
-327.7118 124.9082 -30.4714 0.862 -0.229 -0.452 83 73 81
-333.7547 139.5112 -31.0729 0.757 -0.423 -0.499 96 80 88
-318.6107 149.7702 -28.7298 0.808 -0.395 -0.438 70 53 63
-329.3860 162.7509 -30.0352 0.343 -0.807 -0.480 78 58 67
-286.0572 134.5290 -24.3582 0.497 -0.822 -0.279 83 64 70
-310.7050 178.1570 -27.0959 0.578 -0.442 -0.686 64 48 58
-312.6828 182.9773 -27.2920 0.614 -0.786 0.073 69 53 63
-321.0004 196.2789 -28.2412 0.981 0.193 0.017 69 53 64
-320.0575 202.7090 -27.9920 0.985 0.174 0.017 105 89 99
-328.4602 213.6821 -28.9948 0.983 0.142 0.119 94 78 88
-322.6274 223.4804 -27.9881 0.248 -0.911 -0.330 78 62 73
-202.1917 161.5156 -11.9145 0.671 0.344 0.657 57 53 52
-214.6460 186.9593 -13.2372 0.521 0.173 0.836 58 54 55
-154.8080 77.4697 -6.6547 0.433 -0.795 -0.424 36 32 31
-326.6407 22.2346 -32.5921 -0.171 -0.343 0.923 60 54 68
-362.4667 36.6791 -37.5286 0.728 -0.323 -0.605 66 57 74
-377.3329 42.8803 -39.5737 0.882 -0.033 0.471 64 57 73
-351.0993 47.7286 -35.7112 0.622 -0.729 -0.285 87 74 92
-365.3030 54.7043 -37.6483 0.963 -0.255 0.091 101 97 112
-338.3964 83.5418 -33.3036 0.939 0.202 -0.279 76 67 84
-341.8334 86.2498 -33.7559 0.967 0.156 0.199 85 77 92
-344.5098 88.0583 -34.1130 0.245 -0.451 0.858 74 66 81
-344.9686 88.8605 -34.1663 0.326 -0.450 0.831 68 60 75
-343.7715 88.9001 -33.9930 0.702 -0.243 0.670 64 53 67
-341.9928 88.6651 -33.7402 0.607 -0.261 0.750 59 48 62
-342.8644 90.2593 -33.8403 0.686 -0.255 0.681 62 51 65
-343.3020 91.6643 -33.8809 0.983 0.141 -0.119 72 61 75
-341.7277 92.1155 -33.6465 0.996 0.093 0.008 81 70 86
-332.6478 98.5275 -32.2336 0.353 -0.930 -0.098 101 89 109
-326.1827 96.9307 -31.3266 0.616 0.223 0.756 114 97 108
-348.9667 115.2751 -34.3190 0.993 0.066 -0.101 73 54 65
-332.6976 117.5336 -31.9356 0.399 -0.680 -0.615 105 93 106
-331.6386 117.5773 -31.7821 0.386 -0.686 -0.617 102 90 102
-323.1449 125.5128 -30.4294 -0.160 -0.947 0.277 101 91 99
-322.8247 127.4645 -30.3519 0.962 0.055 -0.269 89 79 87
-334.2613 136.8136 -31.8516 0.772 -0.403 -0.492 82 71 79
-334.7092 139.4551 -31.8738 0.755 -0.426 -0.498 96 79 87
-334.9855 140.4335 -31.8980 0.825 -0.357 -0.439 101 84 92
-317.5347 147.3509 -29.2694 -0.567 -0.813 0.132 71 54 62
-322.7281 156.5150 -29.8715 0.422 -0.718 -0.554 74 54 63
-309.2364 172.1570 -27.6739 0.893 -0.325 0.312 81 64 74
-310.5184 175.2377 -27.8094 0.860 -0.307 -0.407 83 66 76
-313.0963 184.4668 -28.0331 0.435 -0.888 0.150 81 65 75
-323.2241 203.9522 -29.1813 0.218 -0.676 -0.704 66 50 61
-321.4722 204.2985 -28.9230 0.844 -0.292 -0.449 70 54 64
-328.2529 213.5898 -29.7520 0.983 0.144 0.114 84 68 78
-323.2826 224.3547 -28.8621 0.132 -0.979 -0.157 78 62 73
-324.5495 236.7545 -28.8458 -0.038 -0.574 0.818 75 59 69
-319.8938 234.9965 -28.2024 0.151 -0.504 0.850 69 53 63
-373.2312 40.5040 -39.5712 0.759 0.179 0.625 70 62 79
-372.4424 41.2435 -39.4456 0.833 0.212 0.512 69 60 77
-372.9938 43.7114 -39.4908 0.479 -0.245 -0.843 67 63 78
-369.8843 43.4151 -39.0414 -0.138 -0.990 -0.036 70 66 81
-381.1256 50.6321 -40.5783 0.279 -0.295 -0.914 91 82 99
-349.5328 47.2828 -36.0170 0.693 -0.650 -0.311 87 75 92
-391.8516 69.2173 -41.8778 -0.209 -0.881 -0.424 64 56 69
-343.0174 87.3939 -34.4937 0.237 -0.451 0.861 73 65 80
-341.7954 88.0049 -34.3067 0.642 -0.371 0.671 65 54 68
-326.1742 84.6615 -32.0754 0.982 0.177 -0.064 84 73 89
-341.9247 95.8900 -34.2130 0.980 -0.066 0.185 84 70 96
-346.6868 105.9647 -34.7639 0.961 0.173 0.217 109 97 117
-346.0748 106.9576 -34.6604 0.849 -0.022 0.528 111 99 114
-346.7217 109.3004 -34.7214 0.931 0.257 0.260 111 90 99
-351.2040 113.7849 -35.3113 0.992 -0.122 0.041 88 67 76
-331.6682 104.3221 -32.5963 0.965 0.105 0.238 86 65 74
-332.1179 107.1579 -32.6214 0.971 -0.157 -0.183 80 56 69
-332.5542 116.7962 -32.5474 0.075 -0.945 -0.319 118 104 117
-332.4732 117.4374 -32.5264 0.478 -0.642 -0.599 101 88 98
-333.0481 132.9854 -32.3883 0.903 -0.243 -0.355 92 82 90
-334.5688 137.0802 -32.5517 0.772 -0.403 -0.492 77 66 74
-334.5473 138.6172 -32.5266 0.717 -0.470 -0.516 80 65 73
-334.1655 139.1307 -32.4636 0.717 -0.470 -0.516 81 64 72
-334.6881 140.2812 -32.5234 0.654 -0.475 -0.589 84 64 73
-332.0602 148.0011 -32.0298 0.846 0.070 -0.528 84 66 74
-332.0871 149.6644 -32.0100 0.665 -0.542 -0.514 84 65 73
-342.4597 163.6023 -33.3242 -0.577 -0.794 0.193 75 56 57
-316.1282 146.3032 -29.7297 -0.567 -0.813 0.132 56 39 47
-308.6666 142.7314 -28.6921 -0.390 -0.918 0.073 76 59 67
-306.1577 141.4922 -28.3437 -0.405 -0.910 0.089 76 59 67
-310.4598 173.4077 -28.5157 0.922 -0.377 -0.087 103 86 96
-312.3876 176.1727 -28.7575 0.874 -0.386 -0.294 113 96 106
-325.0141 197.3801 -30.2968 0.758 -0.285 -0.587 85 69 79
-325.6103 199.0227 -30.3603 0.748 -0.292 -0.596 86 70 81
-326.8896 201.3603 -30.5136 0.754 -0.301 -0.584 86 70 81
-325.5496 202.1463 -30.3068 0.989 0.132 0.060 86 70 81
-322.5958 204.5020 -29.8423 0.290 -0.665 -0.688 67 52 61
-321.3740 204.3156 -29.6667 0.292 -0.661 -0.691 64 48 57
-323.2728 224.4832 -29.6557 0.132 -0.979 -0.157 74 59 67
-247.6823 274.6115 -17.9119 0.918 0.390 0.067 45 40 44
-251.5073 292.9305 -18.2083 0.085 -0.677 0.731 42 36 40
-253.4631 300.7352 -18.3822 0.967 -0.141 -0.211 41 34 41
-316.2347 19.4504 -31.9777 0.821 -0.571 -0.016 69 67 81
-309.0782 18.7051 -30.9312 -0.130 -0.964 0.231 74 72 86
-378.6725 44.1377 -40.8802 0.359 -0.379 -0.853 74 70 85
-370.8859 46.4952 -39.7020 0.428 -0.172 0.887 101 97 112
-390.7845 53.6857 -42.5476 0.410 -0.257 0.875 82 75 91
-349.8623 47.3739 -36.5896 0.678 -0.668 -0.306 73 62 79
-378.7762 60.2456 -40.6941 0.900 -0.383 -0.206 69 65 80
-345.8717 71.2790 -35.7021 0.870 -0.492 0.036 68 58 69
-321.4890 73.3329 -32.0794 0.537 -0.015 0.844 65 56 73
-343.8448 88.9744 -35.1819 0.594 -0.345 0.727 63 53 64
-343.0909 89.2173 -35.0677 0.606 -0.330 0.724 59 49 60
-345.6605 94.6651 -35.3787 0.986 0.147 0.080 71 59 79
-349.2519 97.0261 -35.8790 0.994 0.109 -0.007 76 62 86
-350.9593 106.9167 -36.0072 0.855 -0.003 0.518 116 104 124
-350.3772 107.2764 -35.9169 0.842 -0.014 0.539 117 105 125
-347.8123 106.5888 -35.5471 0.891 -0.042 0.451 117 106 123
-328.8062 105.9586 -32.7511 0.980 0.002 -0.200 86 62 75
-332.9137 117.7473 -33.2098 0.478 -0.642 -0.599 118 105 115
-331.7988 117.7580 -33.0451 0.483 -0.643 -0.595 107 96 104
-331.7694 118.4343 -33.0324 0.478 -0.642 -0.599 107 96 102
-324.1943 117.8460 -31.9222 0.942 -0.057 -0.331 96 85 92
-334.4914 149.8778 -33.0410 0.532 -0.632 -0.563 90 69 78
-307.9754 142.2422 -29.2247 -0.405 -0.910 0.091 102 85 91
-298.4982 159.5677 -27.6100 0.857 -0.033 0.514 65 50 57
-327.2356 198.6409 -31.3611 0.617 -0.268 -0.739 76 60 70
-328.1380 207.0564 -31.3891 0.262 -0.645 -0.717 80 62 74
-326.5663 206.5401 -31.1637 0.257 -0.632 -0.731 73 55 67
-326.0351 208.1842 -31.0648 0.240 -0.671 -0.701 62 48 54
-324.1811 207.3570 -30.8016 0.253 -0.659 -0.708 61 48 53
-321.9828 206.1571 -30.4923 0.948 0.260 0.182 61 49 54
-324.5067 224.8196 -30.6314 0.429 -0.470 0.772 61 47 51
-323.2630 224.6118 -30.4505 0.132 -0.979 -0.157 64 52 55
-253.6095 292.3593 -19.3284 -0.043 -0.772 0.634 38 33 37
-252.7932 292.4132 -19.2073 -0.043 -0.772 0.634 37 32 36
-252.3922 293.3421 -19.1365 0.163 -0.808 0.566 34 29 35
-251.7792 293.8233 -19.0401 0.171 -0.817 0.551 36 29 36
-299.2277 17.0444 -29.8884 -0.164 -0.407 0.899 75 73 87
-382.1869 45.9518 -41.9524 -0.176 -0.981 -0.079 95 91 106
-355.0329 41.0644 -37.9546 -0.092 -0.994 -0.058 105 101 116
-352.4504 40.8545 -37.5717 0.879 -0.472 0.066 103 99 114
-387.5685 53.3440 -42.6759 -0.187 -0.372 0.909 78 71 87
-374.6756 60.0584 -40.6809 0.660 -0.749 -0.065 62 58 73
-330.4521 64.8313 -34.0336 0.724 -0.682 -0.109 57 49 62
-336.9168 67.8284 -34.9658 0.767 -0.460 0.447 63 52 66
-325.8995 72.6584 -33.2707 0.632 0.016 0.775 69 58 75
-332.3976 77.0514 -34.1929 0.595 0.049 0.802 64 55 72
-366.0727 95.4464 -39.0186 0.886 0.256 -0.388 55 46 63
-343.3469 88.7639 -35.7005 0.661 -0.292 0.691 51 40 54
-325.8851 87.9800 -33.1044 0.388 -0.595 0.703 80 66 91
-323.8587 89.8522 -32.7821 0.559 -0.633 -0.535 81 69 89
-333.8987 110.8854 -34.0542 0.998 0.016 -0.063 98 76 88
-333.7393 116.2151 -33.9734 0.920 0.280 0.273 122 108 121
-335.4448 117.9366 -34.2093 0.919 0.302 0.252 129 115 128
-333.3565 118.0588 -33.8965 0.478 -0.642 -0.599 107 94 104
-332.7823 118.4031 -33.8072 0.478 -0.642 -0.599 93 82 90
-332.2089 118.7472 -33.7180 0.478 -0.642 -0.599 91 80 88
-335.7028 134.8872 -34.0662 0.878 -0.231 -0.420 99 89 98
-337.8683 137.1275 -34.3652 0.698 0.049 0.715 100 90 99
-337.9399 138.7337 -34.3586 0.792 0.050 0.609 74 64 73
-321.4766 128.1487 -32.0165 0.210 -0.974 0.088 74 64 73
-317.1822 128.0703 -31.3768 0.949 0.021 -0.316 84 63 72
-332.8738 147.0983 -33.5134 0.696 -0.113 -0.709 96 75 84
-313.3065 137.1736 -30.7012 0.765 -0.288 -0.576 86 67 71
-306.2253 140.1220 -29.6134 -0.513 -0.835 0.198 100 83 89
-329.2976 207.2624 -32.3353 0.840 -0.309 -0.446 90 72 84
-323.0780 223.3601 -31.2351 0.383 -0.482 0.788 73 59 62
-322.0146 223.3478 -31.0766 0.417 -0.514 0.750 77 65 67
-322.7140 225.3221 -31.1598 0.873 0.074 0.481 83 71 73
-323.2336 227.1062 -31.2182 0.638 -0.599 -0.484 88 76 78
-322.6545 227.6490 -31.1260 0.638 -0.599 -0.484 80 68 70
-322.0754 228.1917 -31.0338 0.638 -0.599 -0.484 75 63 65
-320.9364 239.2202 -30.7458 0.850 0.072 -0.521 72 60 64
-251.3160 289.6057 -19.8217 0.139 -0.840 0.524 32 27 31
-252.8979 300.1638 -19.9445 0.969 -0.149 -0.199 30 23 30
-251.7356 299.4817 -19.7784 0.957 0.274 0.093 29 22 29
-253.1050 304.3132 -19.9309 0.957 0.274 0.093 29 22 29
-348.4207 41.1370 -37.4809 -0.196 -0.365 0.910 90 88 102
-365.2621 53.6958 -39.9082 -0.082 -0.804 -0.589 66 60 74
-349.7159 62.2954 -37.4872 0.751 -0.507 0.424 64 55 72
-337.2902 76.9940 -35.4823 -0.272 -0.933 -0.236 71 60 77
-342.7082 86.7248 -36.2124 0.966 0.092 0.240 55 46 63
-325.9947 90.9650 -33.6543 0.755 -0.563 -0.336 80 68 90
-329.4564 95.1301 -34.1391 0.983 -0.121 0.138 84 72 94
-353.9123 108.5197 -37.7072 0.879 0.070 0.471 86 74 96
-332.5035 109.4515 -34.4707 0.983 -0.115 -0.142 92 72 83
-333.3756 110.6189 -34.5918 0.998 0.005 -0.060 93 73 84
-335.7951 116.1080 -34.9076 0.927 0.247 0.282 97 83 96
-331.3030 114.1077 -34.2481 0.908 0.182 0.378 93 80 90
-332.6505 119.0616 -34.4070 0.478 -0.642 -0.599 76 65 73
-331.5054 120.4550 -34.2219 0.690 -0.295 -0.661 80 69 75
-323.1569 119.3456 -32.9730 0.935 -0.161 -0.317 59 46 56
-323.0417 119.9674 -32.9500 0.935 -0.161 -0.317 63 50 60
-321.7193 128.3680 -32.6756 0.254 -0.963 0.093 61 51 59
-339.9584 149.0620 -35.2410 0.801 -0.571 -0.182 83 62 71
-318.6762 138.9785 -32.1220 -0.463 -0.763 0.451 100 79 88
-337.5877 158.2865 -34.8012 0.829 0.077 0.553 87 68 72
-325.7310 152.4529 -33.0654 -0.556 -0.819 0.142 88 69 73
-313.5569 144.4643 -31.3011 -0.559 -0.818 0.137 89 72 78
-310.6073 173.8302 -30.5940 0.920 -0.381 -0.094 61 46 53
-332.2799 203.8506 -33.5939 0.439 -0.718 -0.539 76 60 70
-328.3550 208.6160 -32.9595 0.940 -0.280 -0.193 85 67 79
-326.3148 207.6155 -32.6608 0.882 -0.367 -0.296 80 63 74
-322.2776 224.9698 -31.8970 0.873 0.074 0.481 80 68 70
-324.4138 228.5896 -32.1868 0.647 -0.542 -0.536 85 73 75
-323.8575 229.1657 -32.0978 0.647 -0.542 -0.536 77 65 67
-323.4760 229.9427 -32.0333 0.590 -0.603 -0.536 72 60 62
-320.4641 237.5467 -31.5113 0.238 -0.866 -0.439 65 53 57
-231.3651 227.5537 -18.1655 0.770 -0.347 0.536 33 28 32
-229.5775 225.4143 -17.9151 0.616 0.101 0.781 31 26 30
-228.5795 224.8068 -17.7700 0.590 0.101 0.801 29 24 28
-245.7121 271.4029 -19.9372 0.916 0.389 0.104 26 21 25
-253.2751 295.8432 -20.8594 0.899 -0.158 -0.409 25 20 24
-252.2202 295.3950 -20.7043 0.915 -0.128 -0.382 26 19 26
-253.5920 303.8412 -20.8357 0.989 0.069 0.129 26 19 26
-253.0307 304.4826 -20.7454 0.984 0.142 0.104 26 19 26
-376.9809 50.0169 -42.2844 -0.189 -0.365 0.912 73 69 84
-357.6384 80.9750 -39.1150 -0.323 -0.867 0.379 59 48 64
-349.8715 78.9398 -37.9457 -0.220 -0.893 0.392 72 61 78
-327.8715 73.5296 -34.6311 0.074 -0.721 -0.689 58 47 64
-325.8842 73.2023 -34.3305 0.072 -0.727 -0.683 55 44 61
-312.5092 76.0677 -32.2714 0.485 -0.172 0.857 53 42 58
-310.7592 76.2829 -32.0031 0.428 -0.305 0.851 54 43 57
-312.3963 77.5889 -32.2433 0.430 -0.295 0.853 54 43 57
-322.5209 86.3561 -33.7239 0.406 -0.656 0.636 99 85 110
-322.9883 87.1579 -33.7894 0.925 0.221 0.309 99 85 111
-323.4615 87.9671 -33.8557 0.926 0.221 0.306 92 78 104
-322.9256 88.2721 -33.7719 0.936 0.230 0.267 86 72 97
-349.7817 105.0707 -37.7453 0.977 -0.198 0.085 84 72 93
-333.7439 99.2479 -35.3424 0.953 0.074 0.293 87 74 94
-332.9411 99.4466 -35.2186 0.951 0.055 0.304 87 74 94
-331.8248 109.0962 -34.9795 0.999 0.014 -0.039 89 67 79
-330.9715 109.9250 -34.8435 0.973 -0.130 -0.190 88 66 76
-334.4413 114.6552 -35.3386 0.929 0.254 0.269 58 44 57
-330.0376 113.3882 -34.6764 0.937 0.218 0.273 65 51 64
-333.7844 116.3218 -35.2266 0.922 0.268 0.280 81 67 80
-334.1430 118.6218 -35.2648 -0.015 -0.988 -0.154 81 68 78
-323.1800 120.8022 -33.5782 0.808 -0.258 -0.529 88 74 87
-338.6206 136.1959 -35.8217 0.767 -0.012 0.642 70 60 69
-340.1732 139.5903 -36.0341 0.860 -0.464 -0.214 82 72 81
-318.0139 148.0728 -32.5959 -0.156 -0.986 -0.063 89 72 78
-317.8752 148.7792 -32.5697 -0.161 -0.986 -0.046 91 74 80
-337.0946 177.0109 -35.2974 -0.287 -0.958 -0.015 77 57 66
-336.6991 177.6241 -35.2328 -0.402 -0.915 0.014 76 56 65
-333.8096 206.5665 -34.5855 0.529 -0.702 -0.478 76 60 70
-329.3107 207.5129 -33.8931 0.914 -0.318 -0.254 96 78 90
-329.2979 208.5998 -33.8833 0.891 -0.349 -0.290 92 74 86
-328.4522 208.8362 -33.7528 0.940 -0.280 -0.193 87 69 81
-327.8075 209.2775 -33.6513 0.947 -0.254 -0.195 83 66 77
-328.0917 210.6818 -33.6846 0.943 -0.271 -0.193 77 64 69
-322.1066 224.9173 -32.6706 0.867 0.059 0.495 67 55 57
-324.4787 228.8070 -33.0044 0.588 -0.622 -0.516 70 58 60
-324.5649 230.1182 -33.0082 0.604 -0.611 -0.511 63 51 53
-323.7632 230.4180 -32.8838 0.590 -0.603 -0.536 59 47 49
-178.1257 79.2307 -11.7658 0.913 0.402 0.065 58 48 56
-250.1422 279.1570 -21.3141 0.945 0.327 0.019 23 18 22
-247.8482 276.1039 -20.9863 0.914 0.383 0.135 22 17 21
-253.2123 301.4933 -21.6225 0.833 -0.218 -0.508 25 18 25
-336.7099 35.6027 -36.7344 0.832 0.043 0.552 78 76 90
-349.2591 40.0279 -38.6440 0.971 -0.236 -0.036 89 87 101
-325.5915 53.5504 -34.9254 0.984 0.173 -0.044 50 42 57
-327.2845 54.5900 -35.1806 0.966 0.173 0.192 50 42 57
-356.5194 81.6875 -39.5393 0.515 -0.838 -0.180 65 56 73
-359.6045 83.5436 -40.0046 0.496 -0.846 -0.193 67 58 75
-325.4421 84.9784 -34.7340 0.750 0.001 0.662 59 46 65
-311.4146 82.4902 -32.5862 0.825 -0.231 0.516 102 89 111
-346.1224 109.8079 -37.7869 0.300 -0.625 0.721 69 49 58
-331.8956 109.8342 -35.5950 0.974 -0.137 -0.181 96 74 87
-330.5863 109.7370 -35.3938 0.985 -0.090 -0.148 96 74 86
-333.0933 111.8661 -35.7686 1.000 -0.019 0.006 95 76 88
-331.3383 114.2067 -35.4857 0.975 0.160 0.154 76 62 75
-334.3922 116.7278 -35.9427 0.925 0.265 0.272 81 67 80
-327.4084 125.0412 -34.8222 0.966 0.068 -0.251 80 67 77
-323.6212 129.0488 -34.2173 0.504 -0.857 0.110 83 73 84
-320.0914 130.2792 -33.6669 0.968 -0.025 -0.251 96 74 84
-316.8210 137.7083 -33.1233 -0.354 -0.794 0.494 85 64 73
-318.5161 139.7580 -33.3734 0.539 -0.666 -0.516 80 59 68
-336.8364 157.8472 -36.0989 0.816 -0.011 0.577 72 53 57
-355.1034 177.6228 -38.8071 0.208 -0.836 0.508 83 66 72
-331.9730 170.8724 -35.2799 0.727 -0.319 -0.608 71 52 58
-338.7775 178.5346 -36.2871 -0.279 -0.960 -0.036 70 50 59
-334.2325 206.0108 -35.4397 0.261 -0.789 -0.557 69 53 63
-332.3569 206.3259 -35.1490 0.337 -0.743 -0.578 81 63 75
-329.9441 208.2769 -34.7669 0.915 -0.263 -0.306 78 60 72
-329.8594 209.2944 -34.7484 0.921 -0.255 -0.295 78 60 72
-329.4302 209.9625 -34.6787 0.915 -0.263 -0.306 78 60 72
-328.6315 210.2502 -34.5541 0.940 -0.258 -0.221 78 61 72
-327.6782 219.4618 -34.3579 0.035 -0.735 -0.677 67 50 56
-326.0379 220.0062 -34.1023 0.205 -0.847 -0.491 81 62 68
-322.6288 229.2615 -33.5275 0.611 -0.619 -0.494 56 44 46
-249.4720 255.7749 -22.1151 0.591 -0.717 0.370 30 29 27
-249.9554 258.2172 -22.1764 0.579 -0.762 0.290 30 28 29
-253.7453 301.1266 -22.5304 0.807 -0.218 -0.549 25 18 25
-253.7857 303.0613 -22.5263 0.801 -0.223 -0.555 24 17 24
-221.6213 242.3819 -17.8962 -0.090 -0.555 0.827 42 37 41
-357.4758 82.0948 -40.2873 0.444 -0.836 -0.323 64 58 72
-361.4249 84.3110 -40.8942 0.519 -0.696 -0.497 67 61 75
-362.3229 85.2783 -41.0306 0.582 -0.772 -0.257 73 65 80
-323.3489 74.7527 -35.0001 0.723 0.094 0.684 59 51 64
-313.1854 78.0056 -33.4061 0.428 -0.175 0.887 61 51 62
-312.2742 78.6292 -33.2620 0.072 -0.622 0.780 63 52 69
-320.2213 83.0270 -34.4836 -0.346 -0.789 0.508 74 62 82
-323.8282 87.6236 -35.0288 0.938 0.042 -0.345 105 93 113
-330.9193 97.8122 -36.0964 0.857 -0.472 0.206 87 76 91
-348.3031 108.3323 -38.7655 0.874 -0.473 -0.107 85 73 87
-348.3060 109.6771 -38.7611 0.876 -0.469 -0.110 77 61 68
-345.7057 109.6134 -38.3565 0.315 -0.602 0.734 67 50 58
-332.3210 110.7826 -36.2684 0.996 -0.051 -0.069 85 65 76
-322.7734 128.5171 -34.7186 0.549 -0.833 0.068 76 66 75
-322.0053 129.4567 -34.5956 0.857 -0.264 -0.444 89 77 87
-318.1825 128.9870 -34.0021 0.917 -0.351 -0.190 96 74 86
-318.6596 130.0601 -34.0726 0.915 -0.357 -0.190 90 68 77
-328.0119 144.5551 -35.4769 -0.533 -0.706 0.467 94 73 82
-336.8127 161.3902 -36.7871 0.477 -0.669 -0.570 69 52 58
-321.4063 159.3930 -34.3955 0.760 -0.312 -0.570 78 59 65
-332.9809 169.9638 -36.1599 0.770 -0.279 -0.573 69 50 56
-332.8997 170.8156 -36.1442 0.695 -0.299 -0.654 66 47 53
-318.1284 168.1099 -33.8541 0.447 -0.868 -0.216 78 61 71
-331.7576 209.1357 -35.8296 0.920 -0.258 -0.296 76 58 70
-331.1048 209.5790 -35.7264 0.917 -0.262 -0.300 74 56 68
-207.0131 86.7130 -16.8445 0.500 -0.363 0.786 69 57 61
-326.3025 220.4281 -34.9400 0.205 -0.847 -0.491 81 62 68
-326.0795 232.1409 -34.8635 0.676 -0.292 0.676 56 44 46
-244.2811 272.5883 -21.9835 0.086 -0.718 0.691 21 16 20
-243.1311 271.8323 -21.8072 0.075 -0.717 0.693 21 16 20
-245.9074 288.0825 -22.1814 -0.122 -0.583 0.803 37 30 38
-252.9856 307.2694 -23.2150 0.841 -0.209 -0.499 40 33 41
-228.7228 255.3636 -19.6227 -0.172 -0.561 0.810 41 34 41
-226.4305 255.0493 -19.2669 -0.176 -0.561 0.809 47 45 48
-362.9530 45.8205 -41.8169 0.865 -0.383 -0.325 70 68 82
-362.7563 46.2380 -41.7852 0.865 -0.383 -0.325 52 50 64
-357.4882 80.9538 -40.8946 -0.359 -0.833 0.422 51 44 60
-342.4988 75.4004 -38.5461 0.565 -0.824 -0.041 55 48 64
-345.5938 77.2204 -39.0298 0.599 -0.797 0.074 74 68 82
-357.7420 82.8018 -40.9312 0.939 -0.313 -0.140 77 71 85
-357.3217 83.2126 -40.8644 0.865 -0.399 -0.303 82 76 90
-329.6976 92.9527 -36.5009 0.646 -0.492 -0.584 72 64 77
-331.7020 94.5792 -36.8133 0.398 -0.741 -0.541 72 64 75
-350.0644 111.3386 -39.6725 0.648 0.141 0.749 63 50 55
-333.2860 111.3808 -37.0327 1.000 -0.008 0.029 85 68 75
-324.4310 121.7556 -35.6210 0.935 -0.047 -0.351 97 85 95
-319.6760 125.7143 -34.8659 0.885 -0.405 0.230 70 59 65
-322.2333 145.8907 -35.2323 0.911 -0.381 -0.157 75 58 64
-335.1790 173.7528 -37.2196 0.760 -0.312 -0.569 59 40 46
-273.0718 284.3415 -27.2513 0.450 0.289 0.845 38 34 35
-246.8155 276.5060 -23.1343 0.928 0.272 0.254 20 18 21
-245.0158 274.4185 -22.8548 0.072 -0.779 0.623 22 17 21
-244.2946 274.5761 -22.7411 0.072 -0.779 0.623 22 17 21
-379.9584 53.8222 -45.0683 0.866 -0.124 0.485 67 63 78
-345.7564 77.3006 -39.6314 0.592 -0.801 0.088 66 62 76
-358.1354 83.5657 -41.5994 0.917 -0.354 -0.182 77 71 85
-326.3152 90.6648 -36.5409 0.942 -0.138 -0.307 87 79 92
-333.0088 102.7562 -37.6052 0.889 -0.309 0.337 53 42 46
-314.5236 98.6546 -34.6665 0.833 -0.167 0.527 69 54 57
-319.3792 125.5613 -35.4388 0.886 -0.400 0.236 72 62 64
-322.2899 128.2874 -35.9015 0.828 -0.527 0.194 74 63 67
-321.1738 131.2042 -35.7241 0.857 -0.303 -0.416 91 73 79
-320.9487 131.7910 -35.6884 0.857 -0.303 -0.416 90 74 79
-339.5630 149.9175 -38.6478 0.877 -0.377 -0.297 82 65 71
-339.9233 151.8545 -38.7051 0.924 -0.207 -0.323 84 65 71
-320.2661 142.0536 -35.5800 0.914 0.207 0.348 81 65 68
-337.4944 162.0743 -38.3191 0.410 -0.670 -0.619 82 65 72
-322.9361 151.4301 -36.0046 0.781 -0.529 -0.331 77 61 68
-331.1904 168.6260 -37.3170 -0.524 -0.851 0.023 64 45 51
-334.9252 173.6224 -37.9108 -0.397 -0.916 -0.057 60 41 47
-332.9583 186.3744 -37.5983 0.469 -0.216 0.857 66 50 60
-331.9296 208.4431 -37.4351 0.926 -0.242 -0.290 66 51 62
-245.1589 271.6833 -23.6417 0.886 0.377 0.270 25 23 28
-251.1642 285.8752 -24.5965 0.896 0.372 0.243 24 22 27
-222.8645 255.5774 -20.0972 0.293 -0.656 -0.696 43 41 44
-372.0940 31.2053 -44.3549 0.938 -0.172 -0.302 75 73 87
-362.5123 39.2748 -42.8306 0.051 -0.996 0.080 74 71 89
-344.3694 43.1220 -39.9235 0.410 -0.874 0.262 90 86 101
-369.5054 54.9200 -43.9820 -0.238 -0.605 0.760 68 62 74
-376.6629 57.5184 -45.1364 -0.201 -0.562 0.803 65 59 71
-345.2586 77.1091 -40.1277 0.566 -0.817 0.112 56 50 64
-357.8235 83.4506 -42.1573 0.920 -0.348 -0.181 64 58 72
-348.5915 109.9276 -40.7224 0.643 0.138 0.753 57 46 50
-347.6676 110.1038 -40.5743 0.867 -0.078 0.492 51 40 44
-238.7058 59.1751 -22.9812 0.960 -0.246 -0.132 75 64 70
-322.7541 129.3956 -36.6077 0.789 -0.191 0.583 71 59 61
-324.9692 131.6762 -36.9676 0.877 0.012 0.480 71 59 61
-322.2141 131.2452 -36.5243 0.840 -0.411 -0.355 81 68 73
-328.3720 138.6636 -37.5267 0.980 -0.048 -0.194 80 67 71
-328.3339 139.4178 -37.5220 0.980 -0.048 -0.194 78 66 70
-339.3895 150.6880 -39.3181 0.929 -0.318 -0.188 78 62 65
-359.8078 171.1878 -42.6346 0.542 -0.834 -0.098 79 63 66
-305.3997 135.3186 -33.8310 0.957 -0.109 -0.270 71 60 62
-322.7329 150.5078 -36.6424 0.737 -0.558 -0.381 74 58 65
-339.3029 165.3662 -39.3307 0.458 -0.675 -0.579 79 59 70
-329.3250 181.2126 -37.7567 0.515 -0.378 0.770 57 41 52
-307.2442 237.3693 -34.3117 0.548 -0.598 0.585 55 48 47
-307.9182 240.7987 -34.4262 0.733 -0.680 0.013 51 44 43
-253.3076 287.1579 -25.7386 0.928 0.349 0.134 23 21 26
-222.4652 263.2909 -20.7417 0.561 0.234 0.794 39 37 38
-225.7815 273.0132 -21.2919 0.558 0.237 0.795 40 38 39
-228.0810 282.2010 -21.6779 0.584 0.226 0.780 33 31 32
-286.0422 15.8193 -30.8745 0.558 -0.740 -0.375 69 67 80
-347.8674 41.4003 -40.9984 0.974 -0.226 -0.028 83 81 94
-342.2671 42.5469 -40.0938 0.404 -0.783 0.473 108 104 119
-333.1685 71.0958 -38.7203 0.051 -0.978 -0.203 43 36 52
-357.7518 83.4354 -42.7537 0.918 -0.349 -0.187 52 46 60
-360.7392 85.8719 -43.2472 0.695 -0.643 -0.322 51 45 59
-358.5038 87.9246 -42.8919 0.785 0.097 0.612 53 47 61
-367.5576 92.4673 -44.3773 0.868 0.268 0.419 58 47 61
-327.9167 91.5271 -37.9418 0.808 -0.546 -0.222 81 73 86
-336.7270 112.1362 -39.4456 0.417 -0.384 0.824 62 47 50
-319.8869 114.8142 -36.7228 0.720 -0.105 0.686 70 61 64
-317.5099 120.1423 -36.3563 -0.151 -0.988 0.012 78 68 76
-312.0666 117.1987 -35.4625 0.774 -0.343 0.533 78 67 73
-322.7043 128.6763 -37.2299 0.789 -0.192 0.584 65 53 55
-322.5640 129.3163 -37.2095 0.789 -0.192 0.584 65 53 55
-323.9824 131.0430 -37.4458 0.889 0.001 0.458 65 53 55
-325.8882 133.1233 -37.7626 0.845 -0.186 -0.502 66 54 56
-323.1150 131.9321 -37.3083 0.634 -0.583 -0.508 68 56 60
-323.4710 132.9345 -37.3697 0.852 -0.253 -0.459 68 56 60
-328.1896 137.0377 -38.1501 0.972 -0.074 -0.222 68 56 60
-328.5774 138.0891 -38.2168 0.969 -0.079 -0.235 69 57 61
-320.3344 136.7672 -36.8745 0.932 -0.349 0.099 78 62 65
-321.7908 144.1369 -37.1374 0.578 -0.562 -0.592 69 57 61
-324.9113 148.1500 -37.6582 0.470 -0.525 -0.710 58 46 50
-324.7763 149.6922 -37.6418 0.482 -0.653 -0.584 59 47 51
-322.8091 151.4694 -37.3291 0.780 -0.524 -0.341 74 54 66
-338.9189 166.0378 -39.9955 0.463 -0.662 -0.589 86 66 78
-324.6284 162.3945 -37.6636 0.826 -0.264 -0.498 72 55 63
-325.7978 166.0552 -37.8666 0.462 -0.688 0.560 63 46 54
-322.7071 164.3257 -37.3588 0.404 -0.373 0.835 63 46 54
-308.8346 188.3251 -35.1944 0.485 -0.758 -0.437 61 51 59
-315.2703 205.6046 -36.3009 0.319 -0.834 -0.451 58 46 53
-304.6424 234.2160 -34.6795 0.658 -0.654 0.373 41 36 33
-256.3211 293.6903 -27.0532 0.898 0.317 0.304 40 38 43
-214.5856 254.4948 -20.1400 0.665 0.249 0.704 33 31 32
-341.9241 42.4503 -40.5466 0.404 -0.783 0.473 110 106 121
-332.5425 40.7441 -38.9997 0.942 -0.309 0.128 104 100 115
-332.6452 41.1969 -39.0190 0.877 -0.254 -0.407 84 80 95
-384.0859 96.3678 -47.7483 0.694 -0.008 0.720 52 46 60
-401.9802 108.8834 -50.7488 0.066 -0.901 0.428 57 47 58
-331.7173 94.0852 -39.1525 0.834 -0.507 0.219 60 53 63
-331.3509 94.5034 -39.0947 0.833 -0.508 0.220 61 54 61
-353.2407 111.1283 -42.7723 0.657 -0.108 0.746 57 50 56
-349.3168 109.7060 -42.1215 0.616 0.135 0.776 48 37 42
-270.7682 81.6276 -29.0954 0.729 -0.629 -0.271 70 61 64
-317.3811 120.1034 -36.9433 0.729 -0.314 0.609 77 67 75
-318.3456 121.4482 -37.1086 0.642 -0.184 0.744 78 67 73
-317.3071 124.2913 -36.9537 0.975 -0.143 0.168 64 52 54
-320.3152 127.8110 -37.4658 0.974 -0.069 0.216 60 48 50
-363.2706 161.0990 -44.6862 0.934 -0.347 -0.089 58 46 50
-321.3126 141.4511 -37.7029 0.916 0.233 0.327 68 52 55
-322.3005 149.4778 -37.9082 0.573 -0.757 -0.315 48 36 40
-320.5294 150.5596 -37.6238 0.926 -0.191 -0.326 79 59 71
-335.5215 171.5788 -40.1945 -0.474 -0.880 -0.028 72 55 63
-324.3415 164.0083 -38.3212 0.537 -0.721 0.438 63 46 54
-325.3573 165.7632 -38.4972 0.462 -0.702 0.542 63 46 54
-321.9980 163.8027 -37.9360 0.404 -0.373 0.835 63 46 54
-325.8394 171.6577 -38.6080 0.588 -0.531 0.610 66 51 58
-319.5984 204.8683 -37.7645 0.614 -0.748 -0.254 59 50 55
-316.0410 204.3698 -37.1787 0.232 -0.838 -0.494 56 47 52
-315.4793 205.9543 -37.0952 0.319 -0.834 -0.451 58 46 52
-301.8520 230.8180 -34.9959 0.680 -0.576 0.453 44 39 36
-307.7626 240.9367 -36.0193 0.733 -0.680 0.013 41 36 33
-229.3883 145.6112 -22.6586 0.230 -0.802 -0.551 47 33 32
-295.7619 266.9376 -34.1928 -0.076 -0.877 0.474 51 46 53
-360.9783 51.4637 -44.2752 -0.159 -0.940 -0.300 69 65 80
-358.5755 51.2563 -43.8759 -0.107 -0.952 -0.285 65 61 76
-359.7367 52.0770 -44.0740 0.932 -0.262 -0.250 57 53 67
-332.3612 48.0869 -39.5133 0.450 -0.676 -0.584 51 47 61
-327.2706 88.9009 -38.9644 0.936 -0.035 -0.349 90 82 97
-343.7200 101.5166 -41.7784 0.918 -0.373 0.137 56 49 57
-349.1649 111.0146 -42.7482 0.791 -0.192 0.581 46 35 39
-333.9975 114.7007 -40.2638 0.404 -0.801 -0.442 57 46 52
-314.9732 111.1204 -37.0885 0.952 -0.038 0.305 63 54 57
-322.0625 118.3465 -38.3141 0.270 -0.125 0.955 62 53 58
-318.3758 120.1131 -37.7165 -0.135 -0.991 -0.004 70 60 68
-319.2814 121.4166 -37.8758 0.583 -0.768 0.266 69 59 67
-321.1238 123.3562 -38.1948 0.721 -0.657 0.222 70 61 66
-330.2506 132.4658 -39.7714 0.210 -0.818 0.536 67 55 57
-318.2297 124.9744 -37.7273 0.984 -0.180 -0.004 60 48 50
-327.1700 138.7549 -39.3066 0.858 -0.442 -0.262 62 51 55
-318.6760 137.9745 -37.8948 0.080 -0.698 0.712 67 51 54
-321.6022 141.7312 -38.4063 0.583 -0.068 0.810 64 48 51
-321.1927 142.2149 -38.3420 0.645 -0.027 0.764 63 48 51
-320.8263 142.7319 -38.2851 0.682 -0.005 0.731 64 49 52
-328.6807 151.1884 -39.6462 0.760 0.320 0.566 56 44 48
-322.1755 151.1068 -38.5687 0.800 -0.472 -0.371 73 53 65
-332.0012 169.6345 -40.3288 -0.571 -0.819 0.064 62 45 53
-322.7889 163.6657 -38.7607 0.874 -0.472 0.117 59 42 50
-320.2139 162.3628 -38.3250 0.916 -0.296 0.271 60 43 51
-320.8584 163.8006 -38.4421 0.898 -0.430 0.088 62 45 53
-322.6625 166.2457 -38.7583 0.449 -0.452 0.771 66 51 58
-322.3629 166.8907 -38.7134 0.445 -0.446 0.777 65 50 57
-321.1710 207.7466 -38.8102 0.345 -0.827 -0.443 58 49 54
-327.4248 215.4976 -39.9013 0.797 -0.600 -0.074 55 46 51
-315.7639 206.3858 -37.9053 0.312 -0.837 -0.449 58 46 53
-312.6254 234.4795 -37.5879 0.521 -0.573 0.633 44 33 39
-268.7018 189.6786 -29.9938 0.835 -0.515 -0.192 60 55 52
-280.3283 206.8456 -32.0422 0.836 -0.377 0.398 56 51 48
-295.2910 266.4421 -34.9483 -0.075 -0.878 0.473 57 51 61
-294.1105 269.0805 -34.7719 0.047 -0.869 0.492 64 58 68
-282.5238 270.2944 -32.8624 0.351 0.242 0.905 83 73 84
-373.3603 53.4927 -46.9211 0.949 -0.293 -0.119 74 70 85
-368.6591 53.6646 -46.1366 -0.142 -0.900 -0.411 63 59 74
-366.0940 53.9228 -45.7100 -0.111 -0.900 -0.421 57 53 68
-371.0441 63.6975 -46.6256 0.491 -0.529 -0.692 68 65 72
-350.3285 96.5768 -43.4579 0.698 -0.226 -0.679 74 63 77
-345.3576 102.3893 -42.6791 0.406 -0.850 -0.334 49 42 50
-332.5788 111.1887 -40.6217 0.441 -0.611 -0.658 54 39 42
-332.9825 112.7746 -40.7035 0.525 -0.577 -0.626 56 44 48
-335.6789 115.0498 -41.1748 0.522 -0.659 -0.541 58 45 52
-334.3019 116.3004 -40.9558 0.768 -0.618 -0.169 58 47 53
-314.3482 110.7668 -37.5697 0.949 -0.035 0.312 59 50 53
-317.9482 114.3851 -38.2042 0.732 -0.214 0.647 59 50 53
-323.3967 122.7763 -39.1907 0.757 -0.224 0.614 65 55 63
-318.2922 120.1043 -38.3132 -0.135 -0.991 -0.004 65 55 63
-323.3518 124.1772 -39.1958 0.514 -0.844 0.152 65 55 63
-331.9073 132.1327 -40.6979 0.329 -0.873 0.360 65 53 57
-333.7107 134.1156 -41.0173 0.128 -0.849 0.512 65 53 55
-324.2994 135.2083 -39.4536 0.848 -0.320 0.423 55 43 47
-320.6486 139.5053 -38.8818 -0.124 -0.508 0.853 70 54 57
-321.9254 142.8321 -39.1253 0.695 -0.005 0.719 68 53 56
-321.9147 143.6226 -39.1306 0.695 -0.005 0.719 68 53 56
-325.8380 147.4207 -39.8207 0.759 0.322 0.565 66 54 58
-306.9969 139.9083 -36.6029 0.593 -0.703 -0.393 72 52 64
-318.8162 154.3486 -38.7091 0.643 -0.259 0.720 87 67 79
-323.6444 163.5801 -39.5994 0.863 -0.495 0.103 51 34 42
-316.7835 159.5179 -38.4157 0.897 -0.429 0.105 52 35 43
-340.2120 215.1418 -42.8336 0.398 -0.450 0.799 50 41 46
-334.2697 213.6607 -41.8267 -0.075 -0.885 -0.459 48 38 46
-323.2680 204.5748 -39.9054 0.944 -0.316 0.094 48 38 46
-295.1558 209.7467 -35.2516 0.884 -0.282 0.372 56 44 48
-299.4091 216.0573 -36.0196 0.892 -0.343 0.294 51 40 46
-303.4020 222.1066 -36.7416 0.785 -0.445 0.430 51 40 46
-294.1238 217.7033 -35.1507 0.682 -0.694 -0.230 51 40 45
-301.1142 227.7304 -36.4097 0.581 -0.728 -0.363 76 67 67
-298.5829 225.7416 -35.9686 0.279 -0.896 -0.344 76 71 68
-287.4604 237.2602 -34.2126 0.777 -0.379 -0.502 69 56 65
-293.6425 254.1970 -35.3987 0.464 0.227 0.856 65 58 66
-366.8723 53.1502 -46.4038 -0.184 -0.966 -0.182 68 64 79
-371.3639 55.9621 -47.1926 0.650 -0.419 -0.634 73 71 85
-354.5298 52.4803 -44.3126 0.409 -0.876 -0.255 72 70 84
-355.6203 54.2673 -44.5160 -0.014 -0.989 0.148 78 76 90
-342.9125 91.2041 -42.7693 0.966 -0.139 0.216 61 51 62
-402.8042 122.6595 -53.2218 0.801 -0.592 0.089 80 70 81
-405.2861 124.6360 -53.6622 0.716 -0.679 0.164 89 79 90
-340.4483 96.7438 -42.4131 -0.146 -0.822 -0.551 86 75 89
-333.0638 93.6355 -41.1326 -0.125 -0.822 -0.556 75 64 79
-330.5396 92.9594 -40.6991 -0.125 -0.822 -0.556 65 54 70
-341.3160 99.0642 -42.5847 -0.155 -0.856 -0.493 54 44 55
-375.1197 122.1840 -48.5421 -0.265 -0.951 -0.159 40 33 40
-372.9777 122.5246 -48.1841 0.236 -0.967 -0.095 45 35 39
-322.1435 109.6909 -39.4622 0.968 -0.246 -0.055 62 51 57
-322.7806 110.7381 -39.5811 0.967 -0.245 -0.073 62 51 57
-327.2557 126.8288 -40.5105 0.394 -0.918 -0.043 60 49 55
-332.4983 132.5845 -41.4579 0.224 -0.857 0.465 65 53 57
-332.4201 133.2910 -41.4523 0.111 -0.852 0.511 65 53 55
-332.9328 134.4038 -41.5509 0.128 -0.843 0.522 65 53 55
-317.6747 135.0480 -38.9816 0.995 -0.094 -0.026 71 55 58
-318.2131 138.5255 -39.1100 -0.124 -0.508 0.853 73 57 60
-313.4003 135.6804 -38.2667 -0.129 -0.522 0.843 72 56 59
-329.1172 152.5011 -41.1022 0.737 0.325 0.592 62 47 54
-312.9715 157.2025 -38.4268 0.928 -0.327 0.177 53 36 44
-315.8122 160.5110 -38.9421 0.928 -0.298 0.224 53 38 45
-318.3528 163.5873 -39.4044 0.954 -0.277 0.117 53 38 45
-322.1191 203.5072 -40.4715 0.926 -0.372 0.060 48 38 46
-318.4032 208.3706 -39.8966 0.471 -0.751 -0.464 55 44 50
-291.5968 192.6661 -35.2008 0.829 -0.234 0.508 59 43 53
-296.7650 201.8094 -36.1722 0.454 -0.871 0.190 57 41 51
-293.9030 199.5637 -35.6647 0.466 -0.874 -0.139 57 42 50
-287.5976 194.3081 -34.5432 0.567 -0.812 -0.139 62 50 54
-287.7092 201.9561 -34.6447 0.936 -0.056 0.347 52 41 47
-300.5125 221.0891 -37.0132 0.782 -0.524 0.337 53 42 48
-287.2502 234.5599 -34.9194 0.793 -0.428 -0.435 89 76 85
-287.1145 236.9531 -34.9223 0.799 -0.420 -0.431 89 76 85
-298.2599 255.4665 -37.0042 0.115 -0.136 0.984 81 70 80
-298.4671 257.1629 -37.0575 0.119 -0.143 0.983 75 68 76
-298.9761 259.3058 -37.1666 0.112 -0.131 0.985 75 68 76
-189.6096 245.9422 -18.5558 0.733 -0.621 -0.276 26 24 27
-375.5096 54.0916 -48.4595 0.594 -0.142 0.792 67 63 78
-381.3997 56.2682 -49.4912 0.837 -0.546 0.041 69 65 80
-379.4363 56.2311 -49.1560 -0.167 -0.909 -0.382 72 68 83
-367.9444 53.4557 -47.1616 -0.188 -0.962 -0.195 74 70 85
-361.1733 52.9805 -46.0012 0.992 0.107 0.063 97 95 109
-339.6750 48.0499 -42.2736 0.388 -0.808 -0.444 95 93 107
-335.2132 48.5143 -41.5187 0.591 -0.708 -0.387 78 76 90
-341.7574 51.4482 -42.6714 0.103 -0.969 -0.225 76 74 88
-354.9756 56.0381 -44.9830 0.670 -0.742 -0.013 75 73 87
-356.6409 57.0563 -45.2798 0.696 -0.718 0.004 73 70 80
-343.5723 91.5390 -43.4863 0.948 -0.317 0.033 70 58 70
-345.1997 92.9223 -43.7812 0.967 -0.255 -0.006 74 62 74
-348.3634 95.0529 -44.3475 0.948 -0.319 0.009 79 67 79
-324.0107 117.6451 -40.4801 0.287 -0.914 -0.286 47 38 41
-328.1158 122.3809 -41.2398 0.588 -0.709 -0.389 48 37 41
-326.9279 123.0417 -41.0456 0.618 -0.683 -0.390 48 35 42
-305.2816 110.2524 -37.1936 0.787 -0.587 0.189 50 39 45
-321.3921 122.2554 -40.0918 0.546 -0.834 0.082 55 44 50
-327.2381 126.8662 -41.1467 0.394 -0.918 -0.043 55 44 50
-326.7779 127.2913 -41.0736 0.690 -0.353 0.632 56 45 49
-308.3506 140.3364 -38.0961 0.985 0.038 -0.168 56 36 48
-322.1837 157.2628 -40.6681 0.401 -0.572 0.716 74 57 67
-322.1125 158.0679 -40.6661 0.402 -0.561 0.724 66 49 59
-323.9011 162.1801 -41.0229 0.341 -0.581 0.739 48 33 40
-329.6917 167.9388 -42.0828 -0.552 -0.834 0.016 48 33 40
-319.7909 161.3611 -40.3118 0.839 -0.543 0.044 50 35 42
-312.6998 156.1909 -39.0376 -0.543 -0.838 0.056 50 35 42
-311.6711 156.1660 -38.8619 0.742 -0.566 0.360 52 37 44
-313.2777 158.4075 -39.1640 0.752 -0.570 0.331 53 38 45
-308.7979 204.6506 -38.9832 0.457 -0.492 0.741 71 51 60
-292.4916 193.8141 -36.0664 0.863 -0.327 0.385 66 50 60
-296.1024 200.0902 -36.7611 0.515 -0.835 0.194 65 49 59
-288.4404 193.3237 -35.3695 0.564 -0.814 -0.139 65 49 58
-286.3412 203.7177 -35.1426 -0.148 -0.881 0.450 74 63 69
-282.6056 202.3775 -34.4887 -0.232 -0.888 0.397 74 63 69
-283.3172 210.0249 -34.7065 0.916 -0.387 0.107 75 70 67
-279.6353 206.3917 -34.0329 -0.042 -0.775 -0.631 75 70 67
-289.9865 232.1368 -36.1224 0.711 -0.691 -0.125 89 77 76
-288.4123 233.7908 -35.8748 0.221 -0.807 -0.548 62 49 56
-286.3831 233.5249 -35.5255 0.717 -0.679 -0.155 47 34 43
-286.1006 242.2707 -35.5876 0.278 0.103 0.955 28 23 30
-288.0846 261.9522 -36.1740 -0.058 -0.125 0.991 100 93 101
-287.9268 263.1671 -36.1624 0.398 0.228 0.889 100 95 102
-289.3158 266.7958 -36.4449 0.399 0.228 0.888 101 94 103
-290.3667 269.9275 -36.6636 0.372 0.213 0.903 107 99 109
-274.4122 257.7011 -33.7892 0.331 0.135 0.934 141 134 141
-282.1587 276.5680 -35.3479 0.359 0.251 0.899 125 118 125
-253.3581 294.4034 -30.6622 0.048 -0.075 0.996 42 40 43
-252.9667 295.3752 -30.6077 0.048 -0.075 0.996 48 46 49
-251.9701 295.0583 -30.4338 0.084 -0.045 0.995 48 43 47
-190.6447 242.2808 -19.3124 0.398 -0.883 -0.250 33 28 32
-189.3548 247.3576 -19.1565 0.684 -0.646 -0.338 27 22 26
-189.0287 248.1825 -19.1113 0.684 -0.646 -0.339 25 20 24
-185.4077 238.5201 -18.3721 0.582 -0.578 -0.572 25 20 24
-349.9496 47.8287 -44.5567 -0.064 -0.859 -0.508 74 70 85
-366.5359 53.0499 -47.4873 -0.190 -0.967 -0.172 78 74 89
-336.1005 48.7861 -42.1863 0.545 -0.673 -0.501 84 82 96
-337.0470 49.5318 -42.3600 0.568 -0.646 -0.511 79 77 91
-327.8622 85.2424 -41.2935 -0.064 -0.648 0.759 79 67 77
-348.2066 100.0548 -45.0093 -0.182 -0.869 -0.460 84 73 80
-346.4332 101.7323 -44.7282 -0.154 -0.854 -0.497 46 37 43
-328.2968 123.9795 -41.9266 0.606 -0.691 -0.393 43 30 37
-320.6588 120.4057 -40.5602 0.705 -0.519 -0.483 46 34 40
-323.7881 123.8938 -41.1492 0.765 -0.480 0.428 55 43 49
-327.7900 127.2838 -41.8870 0.639 -0.731 0.240 54 42 49
-327.3419 127.7193 -41.8161 0.678 -0.653 0.339 55 43 47
-320.3018 137.8714 -40.7505 -0.137 -0.928 0.348 65 48 54
-322.8263 158.7334 -41.4857 0.300 -0.397 0.867 62 47 54
-322.7512 161.2959 -41.5097 0.328 -0.585 0.742 50 35 42
-318.0777 159.1130 -40.6737 0.582 -0.395 0.711 50 35 42
-313.9927 175.4359 -40.2057 -0.087 -0.273 0.958 50 41 44
-313.2121 175.6482 -40.0744 -0.087 -0.273 0.958 49 40 43
-312.4337 175.8599 -39.9434 -0.087 -0.273 0.958 47 38 42
-312.5230 176.8966 -39.9738 -0.079 -0.265 0.961 48 39 42
-311.5638 176.9343 -39.8092 -0.079 -0.266 0.961 48 39 42
-311.0617 177.4078 -39.7296 -0.024 -0.242 0.970 49 40 44
-298.3990 169.7683 -37.4395 0.021 -0.565 0.825 54 45 49
-295.7918 168.1090 -36.9668 0.457 -0.257 0.852 54 45 49
-295.1613 168.3969 -36.8624 0.461 -0.232 0.856 54 45 49
-294.6350 169.7066 -36.7907 0.461 -0.232 0.856 43 34 39
-283.5910 165.6959 -34.8316 0.532 0.224 0.817 47 38 43
-287.3989 171.5283 -35.5712 0.613 0.262 0.745 47 38 43
-306.3969 202.1215 -39.2827 0.483 -0.459 0.745 74 56 65
-290.3740 195.7072 -36.4319 0.757 0.357 0.548 82 68 76
-287.0551 204.7416 -35.9907 0.092 -0.834 0.543 95 84 90
-286.0718 233.2666 -36.2325 0.255 -0.771 -0.583 102 91 96
-285.2005 252.0590 -36.3534 0.456 0.267 0.849 116 110 114
-286.9970 257.6131 -36.7427 -0.068 -0.136 0.988 135 128 132
-287.5446 267.2191 -36.9754 0.372 0.224 0.900 143 137 141
-289.1834 271.3061 -37.3165 0.372 0.224 0.900 143 137 141
-279.2432 273.4747 -35.6365 0.357 0.248 0.901 125 121 123
-258.5181 298.3033 -32.4264 0.223 0.170 0.960 18 16 19
-368.2989 53.5535 -48.3734 -0.190 -0.967 -0.172 85 81 95
-348.5476 49.7538 -44.8789 0.916 -0.212 0.341 101 99 112
-393.2551 73.1888 -53.0295 -0.093 -0.911 -0.403 54 51 58
-328.6338 86.7841 -42.0183 0.998 -0.012 -0.068 88 76 86
-354.3075 106.4522 -46.7996 0.166 -0.649 -0.743 39 33 37
-326.3439 132.3079 -42.3587 -0.054 -0.593 0.803 47 32 37
-320.1409 138.5899 -41.3825 0.988 -0.075 -0.138 58 43 50
-309.6492 139.1503 -39.5680 0.951 -0.059 -0.304 45 30 38
-320.4002 153.3956 -41.6677 0.929 0.071 -0.364 60 45 51
-307.0645 157.4653 -39.4159 0.099 -0.961 0.260 55 40 45
-307.0516 158.3173 -39.4274 0.903 -0.379 -0.204 48 33 40
-306.8316 165.1712 -39.5004 0.057 -0.327 0.943 52 35 50
-307.9723 175.4770 -39.8658 -0.040 -0.266 0.963 62 52 60
-297.6679 168.2280 -37.9572 0.026 -0.562 0.827 62 52 62
-297.5709 169.0484 -37.9537 0.021 -0.565 0.825 64 54 62
-289.5174 178.6513 -36.7097 0.580 0.267 0.769 58 47 55
-290.1740 194.5459 -37.0816 0.860 -0.429 0.277 83 73 79
-290.5356 201.4048 -37.2557 0.503 -0.740 -0.446 63 57 63
-286.4341 205.2267 -36.6048 0.057 -0.847 0.528 75 62 71
-292.6899 234.8923 -38.1733 0.370 -0.694 -0.618 118 113 110
-292.1033 236.6635 -38.1001 0.551 -0.747 -0.371 137 131 129
-275.7741 230.2028 -35.1571 -0.031 -0.120 0.992 139 138 151
-281.3512 245.0794 -36.3678 0.436 0.261 0.861 138 130 128
-281.3837 256.3031 -36.5555 0.340 0.240 0.909 127 133 123
-284.0242 261.8987 -37.1052 0.372 0.224 0.900 127 133 123
-284.9828 269.3724 -37.3930 0.230 -0.278 0.933 117 122 112
-257.1405 275.2271 -32.6488 -0.107 -0.313 0.944 43 39 39
-190.4221 242.3253 -20.5190 0.398 -0.881 -0.257 23 18 24
-186.1204 239.7234 -19.7291 0.714 -0.539 -0.447 26 20 24
-333.5692 47.5641 -42.7475 -0.015 -0.658 -0.753 71 69 83
-341.1898 51.2747 -44.1516 0.185 -0.566 -0.803 71 69 83
-391.0257 73.0414 -53.2883 -0.084 -0.942 -0.326 53 50 57
-326.8865 83.1189 -42.2160 -0.171 -0.650 0.740 75 63 73
-330.3304 89.3845 -42.9332 0.213 -0.110 0.971 92 81 89
-338.2759 95.1366 -44.4310 -0.192 -0.289 0.938 85 74 82
-335.0887 94.1499 -43.8540 -0.043 -0.194 0.980 76 65 73
-329.6113 124.2049 -43.4348 0.613 -0.691 -0.383 42 30 34
-321.9517 127.8368 -42.1563 0.171 -0.811 0.560 48 33 38
-322.3045 128.8166 -42.2359 0.112 -0.783 0.611 47 32 37
-321.5415 129.0271 -42.1058 0.112 -0.783 0.611 47 32 37
-322.3387 132.5738 -42.3096 0.158 -0.770 0.618 49 37 41
-320.9814 133.8770 -42.0949 0.753 -0.020 -0.657 52 40 44
-320.7118 135.9740 -42.0854 0.753 -0.027 -0.658 52 40 44
-318.1265 137.9274 -41.6670 0.781 -0.621 -0.068 54 39 46
-307.6260 133.0628 -39.7369 0.718 -0.692 0.075 50 34 44
-310.0202 140.2875 -40.2872 0.949 -0.087 -0.304 50 34 44
-308.9843 141.8266 -40.1332 0.958 -0.274 -0.090 53 38 42
-315.0792 149.1547 -41.3348 0.975 0.177 -0.135 60 45 50
-308.3267 156.9352 -40.2902 0.081 -0.984 0.160 64 49 54
-306.6278 156.3024 -39.9807 0.084 -0.979 0.185 67 52 57
-290.9053 149.7371 -37.1036 0.251 -0.282 0.926 61 43 56
-290.1455 149.8625 -36.9726 0.232 -0.425 0.875 60 44 56
-307.0662 170.9553 -40.3218 -0.081 -0.257 0.963 47 37 45
-306.9317 174.5677 -40.3633 -0.041 -0.268 0.962 58 48 58
-296.8460 167.5165 -38.4665 0.026 -0.562 0.827 60 50 61
-296.1350 167.7280 -38.3456 0.026 -0.562 0.827 70 60 71
-292.1145 167.3686 -37.6337 0.318 -0.266 0.910 87 78 80
-290.8244 166.9779 -37.4003 -0.143 -0.697 0.703 89 80 81
-284.5115 164.1477 -36.2416 0.188 -0.947 0.262 98 89 90
-282.1660 163.5103 -35.8185 0.262 -0.922 0.286 98 89 90
-288.0162 196.3810 -37.4376 0.461 -0.532 0.710 59 54 60
-288.8564 198.4504 -37.6224 0.729 -0.640 -0.242 61 56 62
-293.9569 211.2743 -38.7485 0.992 0.056 -0.115 68 57 65
-288.1333 205.2421 -37.6179 0.063 -0.839 0.541 78 65 74
-279.0866 211.8519 -36.1497 0.526 -0.569 -0.632 95 91 88
-283.7123 219.2185 -37.0942 0.574 -0.591 -0.567 98 94 91
-280.8141 217.7089 -36.5584 0.366 -0.679 0.636 102 98 95
-292.9940 235.4802 -39.0160 0.370 -0.694 -0.618 106 102 99
-292.0968 235.5417 -38.8596 0.369 -0.696 -0.616 107 103 100
-292.3883 237.2322 -38.9413 0.595 -0.730 -0.338 126 122 119
-283.5139 273.3214 -38.0348 0.972 0.188 -0.142 54 57 46
-271.1690 288.8149 -36.1480 0.060 -0.227 0.972 44 45 37
-186.3163 240.7168 -20.3924 0.682 -0.525 -0.509 26 20 24
-145.5487 357.7980 -15.3500 0.813 0.053 0.580 23 24 26
-339.6556 53.1392 -44.4441 0.226 -0.460 0.859 68 65 72
-328.1536 87.1729 -43.0821 0.996 -0.047 -0.078 94 82 92
-330.0838 89.2862 -43.4659 0.209 -0.110 0.972 89 78 86
-330.4641 90.0639 -43.5487 0.202 -0.144 0.969 86 75 83
-360.5326 143.4818 -49.9342 0.555 -0.715 -0.424 43 32 36
-292.0656 101.1171 -36.9668 0.891 -0.157 0.427 45 28 36
-307.0071 114.2207 -39.8733 0.611 -0.338 0.716 40 28 32
-307.4002 115.1579 -39.9615 0.411 -0.729 0.548 42 30 34
-319.8487 127.1713 -42.4047 0.488 -0.603 0.631 48 33 38
-315.0592 139.5659 -41.8023 -0.360 -0.912 0.196 54 38 48
-305.0314 134.8980 -39.9335 -0.354 -0.904 0.238 57 41 51
-299.1298 133.2646 -38.8558 0.779 -0.225 0.586 53 38 44
-298.9641 133.8836 -38.8388 0.779 -0.225 0.586 53 38 42
-300.3463 141.1610 -39.2280 0.428 -0.896 0.120 57 46 54
-306.2740 148.5303 -40.4241 -0.170 -0.240 0.956 59 48 56
-306.3480 149.4154 -40.4548 -0.171 -0.242 0.955 60 49 57
-310.5162 158.0657 -41.3646 0.334 -0.887 0.318 62 47 52
-292.6761 143.3091 -37.9120 0.869 -0.380 -0.316 59 44 49
-282.6349 141.4323 -36.0963 -0.039 -0.063 0.997 79 62 70
-305.2733 163.9100 -40.5520 0.976 -0.209 0.056 78 61 69
-304.8953 166.2541 -40.5315 0.972 -0.233 0.033 85 75 83
-282.4388 161.2239 -36.4542 0.246 -0.941 0.232 70 61 62
-281.6530 161.2989 -36.3165 0.236 -0.946 0.224 70 61 62
-281.9529 163.3872 -36.4111 0.262 -0.922 0.286 70 61 62
-289.2216 181.4850 -38.0576 0.238 -0.536 0.810 59 47 59
-274.5399 172.7852 -35.2845 -0.211 -0.976 -0.047 66 57 62
-287.8076 196.2646 -38.1003 0.520 -0.506 0.689 58 53 59
-289.0607 202.0904 -38.4379 0.977 0.102 0.188 80 75 81
-289.1822 203.3381 -38.4841 0.977 0.102 0.188 81 74 81
-288.7538 203.9217 -38.4198 0.969 -0.241 -0.055 119 108 116
-286.8271 203.7722 -38.0756 0.056 -0.835 0.548 134 121 130
-287.6161 205.8616 -38.2568 0.044 -0.848 0.528 139 126 135
-284.8086 219.6454 -38.0330 0.581 -0.550 -0.600 87 83 80
-283.1653 222.2722 -37.7941 0.559 -0.561 -0.610 96 92 89
-284.2277 273.1868 -38.9924 0.926 -0.277 -0.257 66 69 58
-277.9763 278.3376 -37.9873 -0.023 -0.784 0.620 54 60 46
-187.3654 238.9876 -21.1576 0.936 -0.341 -0.087 21 15 19
-187.1586 240.1328 -21.1437 0.914 -0.391 -0.102 21 15 19
-186.8617 241.0036 -21.1084 0.808 -0.586 -0.069 21 15 19
-186.5319 241.7759 -21.0653 0.820 -0.568 -0.067 23 17 21
-184.8559 238.2422 -20.6983 0.609 -0.604 -0.514 23 17 21
-145.3769 357.6448 -16.0747 0.824 0.059 0.563 23 24 26
-373.0661 56.4522 -51.0176 0.957 -0.214 -0.195 64 60 74
-302.4592 57.7936 -38.4236 0.364 -0.340 0.867 53 42 50
-325.2687 84.0822 -43.0707 0.843 -0.395 -0.366 60 48 58
-327.8833 87.6430 -43.6152 0.959 -0.103 0.264 76 65 73
-354.4274 105.9305 -48.7567 0.142 -0.323 0.936 41 31 39
-326.7209 123.8598 -44.1916 0.182 -0.943 -0.278 58 41 47
-306.2170 111.7427 -40.2636 0.537 -0.842 -0.050 54 39 44
-307.8988 114.1923 -40.6173 0.750 -0.475 0.461 54 39 44
-308.8355 116.1724 -40.8276 0.363 -0.763 0.534 55 40 45
-307.7723 116.1329 -40.6367 0.347 -0.818 0.459 55 40 45
-320.9427 127.2458 -43.2319 0.337 -0.927 0.164 55 40 45
-319.8849 127.2481 -43.0428 0.605 -0.261 0.752 55 40 45
