ply
format ascii 1.0
element vertex 859
property float x
property float y
property float z
property float nx
property float ny
property float nz
property uchar diffuse_red
property uchar diffuse_green
property uchar diffuse_blue
end_header
372.8220 144.5679 -0.2142 -0.838 0.494 -0.231 45 48 53
405.1968 148.6566 -1.5826 -0.884 -0.465 -0.052 48 52 56
406.4225 148.3968 -1.6858 -0.997 -0.031 -0.072 50 53 60
407.4984 148.0670 -1.7890 -0.843 0.521 0.132 38 41 50
414.5159 143.7899 -2.7261 -0.873 -0.343 -0.346 52 54 67
400.2224 124.0647 -4.3449 -0.369 0.484 0.794 51 54 62
393.6521 120.9157 -4.3549 -0.554 0.421 0.718 59 62 69
390.4714 119.0182 -4.4060 -0.588 -0.757 0.283 69 72 79
390.5971 115.3380 -4.8698 -0.550 0.191 0.813 46 49 56
392.3791 108.4848 -5.8231 -0.381 -0.749 0.542 56 55 61
397.0997 109.2568 -6.0008 -0.394 -0.753 0.528 53 52 60
375.8204 101.0032 -5.7919 -0.953 -0.302 -0.011 91 89 100
357.4624 88.5809 -6.2693 -0.833 -0.441 -0.335 88 87 101
358.1068 85.4673 -6.6928 -0.863 0.504 0.023 97 99 112
358.3284 84.2092 -6.8617 -0.905 0.265 0.334 67 71 80
329.4655 64.4438 -7.6414 -0.146 0.673 0.725 28 20 39
380.1426 36.8868 -13.9956 -0.010 0.292 0.956 74 77 86
367.9421 18.4872 -15.5712 -0.942 0.323 0.088 97 97 109
363.9498 15.7361 -15.6812 -0.859 0.474 0.192 86 86 98
363.3138 13.7777 -15.8873 -0.455 -0.406 0.792 98 98 108
373.2785 4.0028 -17.6771 -0.919 0.189 -0.347 50 52 65
366.4856 2.7777 -17.4355 -0.864 -0.086 -0.496 39 41 53
381.7160 -14.4807 -20.4587 -0.841 0.502 -0.202 112 119 138
288.7059 -22.7296 -16.0936 -0.929 0.047 -0.366 151 160 177
197.3457 -23.8674 -10.9419 -0.294 0.838 0.460 169 180 200
192.9642 -22.9565 -10.5751 -0.814 0.175 0.554 166 174 193
193.2522 -23.2804 -10.6319 -0.490 -0.869 -0.073 160 169 186
194.1926 -23.7820 -10.7486 -0.677 -0.733 0.057 147 154 170
176.9691 -30.8550 -10.6282 -0.577 -0.795 -0.187 137 144 160
176.5845 -31.1178 -10.6385 -0.458 -0.887 -0.064 149 156 172
406.7755 214.0036 5.6713 -0.543 0.819 -0.185 42 43 48
395.0891 181.5277 2.3514 -0.365 -0.660 0.657 55 59 70
410.5670 184.3669 1.7721 -0.579 0.750 0.320 72 76 87
401.6924 178.8215 1.6190 -0.741 0.669 0.059 67 71 80
429.7664 190.3371 1.3568 -0.662 -0.214 0.719 49 54 60
402.6378 172.1763 0.7389 -0.172 -0.097 0.980 56 60 69
405.5676 172.0731 0.5499 -0.432 -0.488 0.759 55 58 67
406.8228 171.1033 0.3543 -0.778 0.330 0.535 65 68 77
379.4603 148.5928 -0.7883 -0.885 0.326 -0.332 60 63 70
404.7100 149.4224 -2.2043 -0.999 0.024 -0.044 52 53 57
406.2347 148.5039 -2.4098 -0.999 0.026 -0.037 53 56 65
407.3983 146.6227 -2.7128 -0.745 -0.655 -0.123 42 45 52
407.9198 146.0490 -2.8153 -0.745 -0.655 -0.123 53 56 65
407.6491 145.1398 -2.9116 -0.946 0.085 -0.314 59 62 71
417.8095 146.1391 -3.3990 -0.959 -0.128 -0.252 64 66 78
418.0361 145.4139 -3.5024 -0.958 -0.141 -0.250 54 56 68
396.0641 125.7551 -4.6160 -0.758 -0.340 0.556 46 46 58
399.6076 117.8667 -5.8063 -0.795 0.101 0.598 41 41 49
365.7101 93.8488 -6.7426 -0.982 0.187 0.028 40 38 51
359.1814 89.2123 -6.9242 -0.847 -0.398 -0.352 77 76 90
319.7655 67.4109 -7.2539 -0.444 0.894 0.052 66 69 73
347.5983 69.9686 -8.6113 -0.222 0.818 0.531 122 108 122
291.4424 38.9754 -9.0727 -0.684 -0.727 0.059 67 66 74
373.0341 36.2711 -14.3154 -0.283 0.616 0.735 112 115 124
351.1815 32.2282 -13.5018 -0.830 0.523 -0.193 84 87 96
362.4071 16.4026 -16.1374 -0.785 0.605 0.133 79 79 91
362.3883 15.7566 -16.2163 -0.854 0.458 0.249 81 81 93
362.4028 13.8223 -16.4568 -0.488 -0.443 0.752 70 70 80
344.7826 -7.6132 -18.0522 -0.961 0.211 -0.178 43 42 58
348.0859 -19.8438 -19.7660 -0.412 0.568 0.712 143 151 170
193.9886 -23.2292 -10.9163 -0.886 0.353 0.301 164 175 193
193.4396 -23.3307 -10.8959 -0.492 -0.868 -0.070 162 171 188
194.1181 -23.7621 -10.9901 -0.675 -0.733 0.080 155 164 179
195.3066 -26.3454 -11.3816 -0.481 -0.871 -0.103 187 198 212
391.9644 200.1904 4.1246 -0.473 -0.238 0.849 35 36 41
398.3413 198.5689 3.5262 -0.509 -0.404 0.760 48 49 53
388.6226 181.2228 1.9867 -0.227 -0.627 0.745 43 48 54
428.3250 188.9537 0.4667 -0.628 -0.204 0.751 67 71 80
429.7644 188.8426 0.3632 -0.659 -0.167 0.733 51 55 64
407.9731 147.8515 -3.3483 -0.977 -0.213 0.028 54 57 66
408.3877 146.4340 -3.5495 -0.788 -0.597 -0.149 48 51 60
408.8603 145.8359 -3.6529 -0.788 -0.597 -0.149 57 60 69
413.6638 146.2400 -3.9026 -0.988 -0.075 -0.135 59 62 71
406.9852 139.4982 -4.3200 -0.310 0.271 0.911 75 75 87
397.6543 121.9298 -5.9112 -0.859 0.502 0.101 123 126 133
399.7248 118.8356 -6.4231 -0.869 0.178 0.462 111 114 121
401.7791 118.7798 -6.5581 -0.878 0.110 0.467 103 103 111
353.2785 94.7777 -6.5022 -0.731 0.014 0.682 74 72 83
356.4610 84.5954 -7.9603 -0.784 0.579 -0.224 46 48 60
336.4693 66.2561 -8.9820 -0.812 0.541 -0.218 132 109 147
346.3521 33.7062 -13.6248 -0.310 0.635 0.708 105 108 117
362.8129 16.4838 -16.7819 -0.785 0.608 0.119 74 74 86
364.0233 12.6294 -17.3342 -0.465 -0.346 0.815 49 49 59
361.9361 8.0902 -17.7655 -0.837 0.068 0.543 49 48 62
351.5392 6.2037 -17.3504 -0.936 -0.037 -0.349 74 73 87
376.3564 -3.3017 -20.0741 -0.086 0.028 0.996 45 47 59
375.3612 -15.2612 -21.4915 -0.829 -0.206 -0.519 131 138 157
347.9622 -19.7958 -20.3435 -0.623 0.728 0.287 150 158 177
197.4701 -23.8996 -11.4649 -0.272 0.825 0.495 167 180 199
194.0030 -23.2329 -11.1662 -0.816 0.442 0.373 164 175 193
193.0574 -23.2281 -11.1066 -0.611 -0.790 0.049 161 170 187
193.9702 -23.7222 -11.2247 -0.674 -0.737 0.060 156 165 180
195.4335 -26.3842 -11.6452 -0.481 -0.871 -0.103 187 197 212
400.1148 181.5730 0.5706 -0.524 -0.646 0.555 35 39 50
425.3760 189.3467 -0.1009 -0.708 0.078 0.702 66 70 79
394.1303 167.4634 -0.7858 -0.239 -0.424 0.874 45 49 60
405.9258 150.3344 -3.6636 -0.459 0.542 0.704 55 55 63
395.6028 125.9158 -6.0132 -0.747 -0.286 0.600 55 55 67
398.9130 124.8529 -6.3583 -0.649 -0.237 0.723 126 126 137
366.1230 94.2410 -8.0217 -0.986 0.164 -0.039 65 63 74
360.4174 91.1693 -8.0326 -0.914 0.359 -0.187 107 106 120
362.0731 88.9757 -8.4105 -0.702 0.662 -0.264 32 31 45
350.2570 81.6966 -8.5464 -0.867 0.494 0.063 35 37 47
348.8877 80.6807 -8.5835 -0.862 0.506 -0.033 31 35 45
444.4204 29.2757 -21.1043 0.022 0.356 0.934 135 142 152
366.3189 17.3233 -17.5358 -0.779 0.611 0.140 67 67 79
357.8092 14.4798 -17.3374 -0.261 -0.513 0.818 94 94 104
358.6193 13.8639 -17.4658 -0.261 -0.513 0.818 69 69 79
357.3584 13.1998 -17.4664 -0.212 -0.377 0.902 47 47 57
349.6218 8.7248 -17.5195 -0.888 0.049 -0.457 50 49 63
351.5454 5.0252 -18.1007 -0.366 -0.562 0.741 71 71 84
367.3715 -1.6277 -19.9448 -0.809 0.564 -0.164 65 67 79
380.8469 -4.0863 -21.1189 -0.162 -0.986 0.042 65 67 79
193.0274 -23.2201 -11.3505 -0.611 -0.790 0.049 159 171 187
193.3546 -23.5558 -11.4131 -0.618 -0.785 0.043 157 166 181
195.3571 -26.3640 -11.8893 -0.479 -0.870 -0.113 187 198 213
411.2097 237.5945 5.9960 -0.745 0.660 0.095 36 39 44
395.4772 202.0401 2.6614 -0.588 0.808 0.042 43 48 51
385.0625 178.8831 0.5008 -0.890 -0.452 0.055 65 70 76
398.6595 177.0549 -0.6333 -0.525 0.670 0.524 57 61 72
392.5080 167.6086 -1.3875 -0.525 -0.430 0.734 37 44 52
396.7572 168.2268 -1.5951 -0.409 -0.330 0.851 46 50 59
376.9246 149.3986 -2.5925 -0.872 0.488 -0.044 49 52 59
404.6523 138.9151 -5.7385 -0.290 0.252 0.923 62 62 70
395.3799 123.7159 -6.9938 -0.379 0.122 0.917 124 124 134
397.0455 120.5108 -7.5004 -0.773 0.124 0.622 124 123 135
404.6847 121.6756 -7.8672 -0.317 0.654 0.687 104 103 115
384.2768 106.4511 -8.3815 -0.616 0.680 0.399 40 37 46
363.8601 95.7215 -8.3408 -0.434 0.280 0.856 68 66 77
362.2581 91.8509 -8.7112 -0.898 0.366 -0.244 29 29 41
361.9685 91.0912 -8.7856 -0.898 0.366 -0.244 38 38 50
355.4524 85.2156 -9.0750 -0.762 0.586 -0.276 111 113 126
340.6083 66.8037 -10.3542 -0.734 0.617 -0.285 188 37 39
331.3921 62.9186 -10.2177 -0.729 -0.463 -0.503 214 12 6
310.1975 47.9442 -10.6486 -0.645 0.119 0.755 86 80 93
369.3358 18.1634 -18.2739 -0.687 -0.556 0.468 50 50 62
368.0184 17.4533 -18.2734 -0.971 0.215 0.105 71 71 83
356.9115 14.5216 -17.8929 -0.976 0.162 0.142 69 71 83
357.0783 13.8920 -17.9817 -0.871 0.474 0.128 63 66 75
354.9537 11.9544 -18.0788 -0.883 0.347 0.315 42 45 54
373.8402 10.2664 -19.5490 0.055 -0.359 0.932 42 42 52
351.1122 5.0850 -18.6694 -0.368 -0.560 0.743 74 73 87
193.0945 -22.9906 -11.5737 -0.787 0.501 0.361 164 175 192
195.6366 -26.4472 -12.1700 -0.478 -0.872 -0.107 187 198 215
404.5045 211.1050 2.4165 -0.865 0.488 -0.115 32 37 40
389.8588 184.1057 0.1020 -0.530 0.755 0.387 44 49 55
388.6652 182.6572 0.0060 -0.874 -0.485 -0.030 54 59 65
388.9919 182.0745 -0.0883 -0.874 -0.485 -0.030 64 69 75
384.2174 177.8631 -0.2774 -0.929 -0.350 0.118 75 79 88
404.2234 183.4447 -0.9713 -0.570 -0.695 0.438 55 59 69
416.5103 171.8505 -3.2479 -0.396 0.061 0.916 23 26 35
397.2455 136.8595 -6.2279 -0.768 -0.266 0.582 61 61 69
397.6698 135.4906 -6.4258 -0.885 -0.074 0.460 62 62 70
394.4602 120.5073 -8.0499 -0.414 0.183 0.892 89 87 100
404.3227 122.4945 -8.4861 -0.345 0.590 0.730 89 87 100
355.9622 96.0361 -8.4059 -0.737 -0.149 0.659 71 70 78
368.3009 94.4839 -9.4491 -0.959 -0.278 -0.062 109 107 118
388.4430 92.4839 -11.0863 -0.264 0.844 0.466 135 141 143
345.1231 76.7362 -10.0348 -0.883 -0.190 -0.429 135 136 140
369.7861 79.7587 -11.3655 -0.869 0.147 -0.472 64 68 68
345.8037 63.7063 -11.6869 -0.835 -0.509 -0.211 82 98 102
363.6592 21.2760 -18.1465 -0.859 0.512 -0.006 53 60 70
366.4111 18.7805 -18.6439 -0.629 -0.680 0.378 107 107 119
368.8770 18.2170 -18.8836 -0.687 -0.556 0.468 73 73 85
367.9654 17.5216 -18.9063 -0.971 0.215 0.105 54 54 66
356.8626 13.9516 -18.5794 -0.914 0.370 0.165 41 41 51
349.6960 5.1523 -19.1684 -0.899 -0.087 -0.429 74 73 87
189.4076 -20.5684 -11.2685 -0.297 -0.953 -0.058 168 181 198
193.1668 -23.0096 -11.8288 -0.789 0.500 0.357 164 176 192
191.8984 -22.9169 -11.7298 -0.793 -0.492 0.360 159 168 184
178.1338 -25.6384 -11.1145 -0.377 -0.925 -0.036 195 203 223
389.8045 183.5207 -0.6897 -0.875 -0.483 -0.027 75 78 87
384.5572 179.0217 -0.8690 -0.989 -0.061 -0.134 110 114 123
389.9721 166.7113 -2.7693 -0.454 -0.256 0.854 39 43 52
390.3120 165.3543 -2.9605 -0.407 -0.348 0.845 40 43 52
417.1609 172.3806 -4.0102 -0.401 0.073 0.913 38 41 50
400.2299 140.5928 -6.7134 -0.207 -0.473 0.856 57 60 69
404.3849 140.7442 -6.9909 -0.338 0.191 0.922 61 61 69
391.9538 133.3575 -7.0134 -0.742 0.368 0.560 61 61 69
391.4078 132.3809 -7.0946 -0.742 0.368 0.560 61 61 69
395.5358 129.4478 -7.7497 -0.953 0.285 -0.106 124 124 134
394.2427 127.4256 -7.9062 -0.826 0.528 0.195 49 49 59
390.3012 124.4176 -7.9953 -0.514 0.319 0.796 85 85 95
389.5466 123.3842 -8.0686 -0.514 0.319 0.796 78 78 88
355.4340 95.9996 -9.0053 -0.737 -0.149 0.659 89 88 96
367.9543 95.8917 -9.9111 -0.327 -0.793 0.515 117 116 124
377.4536 98.1024 -10.3164 -0.997 -0.083 0.006 141 140 148
373.3434 96.1460 -10.2640 -0.985 0.170 0.030 145 143 154
369.7803 94.3739 -10.2280 -0.960 -0.264 -0.093 160 160 170
371.4718 93.4889 -10.4575 -0.487 0.565 0.666 133 133 143
373.8195 93.4813 -10.6257 -0.537 0.597 0.597 106 106 116
358.1045 78.2750 -11.3760 -0.896 0.338 -0.287 82 70 82
336.7953 63.7127 -11.6482 -0.716 -0.495 -0.492 94 87 98
360.5825 14.1080 -19.4457 -0.956 0.286 0.064 64 64 74
355.5748 9.5695 -19.6470 -0.644 0.462 0.610 63 62 76
347.8376 5.8332 -19.5550 -0.077 -0.676 0.733 87 86 100
350.6944 5.2011 -19.8364 -0.077 -0.676 0.733 75 74 88
189.6618 -20.6314 -11.5346 -0.297 -0.953 -0.058 174 187 204
178.3480 -25.7149 -11.3534 -0.380 -0.924 -0.042 198 206 226
176.8320 -30.6487 -11.8522 -0.532 -0.847 -0.005 142 154 168
416.4067 172.2234 -4.7578 -0.473 -0.378 0.796 86 89 98
414.1373 166.1812 -5.3332 -0.917 -0.265 -0.299 60 63 70
400.0856 150.0871 -6.2769 -0.045 -0.264 0.963 71 71 81
399.1935 139.5652 -7.5038 -0.781 -0.472 0.410 65 68 77
401.2297 139.6270 -7.6459 -0.888 -0.428 0.169 51 51 59
387.0213 131.5353 -7.5952 -0.883 -0.107 0.458 54 54 62
388.6047 130.6763 -7.8171 -0.776 -0.072 0.626 59 59 67
390.7511 124.7528 -8.7025 -0.531 0.309 0.789 72 72 82
388.3456 123.0974 -8.7290 -0.514 0.319 0.796 65 65 75
397.2407 119.5397 -9.8200 -0.390 0.585 0.711 108 106 119
353.2640 95.4333 -9.5478 -0.692 0.114 0.712 74 73 81
378.3590 92.0997 -11.8023 -0.810 -0.127 -0.573 109 102 110
382.4952 91.8320 -12.1393 -0.904 0.313 -0.291 95 81 90
383.0101 91.2534 -12.2483 -0.253 0.838 0.484 86 74 81
351.0312 77.2296 -11.6197 -0.788 -0.540 -0.294 85 76 84
345.1947 63.7846 -12.8420 -0.838 -0.522 -0.158 103 87 95
342.1772 61.2854 -12.9272 -0.216 0.380 0.900 69 66 80
334.7121 57.9458 -12.7885 -0.934 -0.233 -0.271 112 100 123
333.0512 57.0192 -12.7802 -0.647 -0.693 -0.318 133 128 148
316.5147 48.7618 -12.5787 -0.477 0.228 0.849 68 62 76
300.7278 34.1193 -13.2166 -0.669 -0.200 0.716 121 124 131
368.1768 9.7413 -21.1701 -0.977 0.178 0.120 73 71 83
347.9126 5.2777 -20.2285 -0.723 0.059 0.689 77 75 86
386.2218 -3.3664 -24.1070 -0.152 -0.988 -0.037 76 73 82
391.4926 -5.6706 -24.7775 -0.127 -0.991 0.049 55 51 60
297.2405 -23.8015 -20.0748 -0.025 -0.328 0.944 59 65 90
189.9177 -20.6949 -11.8024 -0.297 -0.953 -0.058 179 192 209
178.6615 -25.8246 -11.6049 -0.382 -0.923 -0.040 200 208 229
176.7540 -30.6275 -12.0546 -0.528 -0.849 0.007 141 153 167
176.7688 -30.8415 -12.0820 -0.503 -0.864 -0.022 146 158 172
389.2834 211.6069 1.3446 -0.454 -0.876 0.161 44 49 53
393.4990 212.8064 1.1723 -0.417 -0.895 0.158 50 55 59
416.4281 222.7386 0.6534 -0.606 0.795 0.043 97 102 105
405.2297 174.1752 -4.4549 -0.484 -0.868 0.110 48 51 58
414.3970 171.4495 -5.4838 -0.398 -0.515 0.760 85 85 95
400.5706 153.6344 -6.6215 -0.296 -0.512 0.806 65 65 75
386.1327 131.3462 -8.2615 -0.869 -0.222 0.443 45 45 53
387.0897 130.2403 -8.4696 -0.781 -0.374 0.500 44 44 52
399.1890 132.7568 -9.0777 -0.929 0.369 0.025 58 58 66
389.7145 120.7776 -9.8292 -0.804 0.040 0.593 100 98 109
345.8813 91.2657 -10.1281 -0.633 0.308 0.711 47 46 54
364.1848 90.2372 -11.6410 -0.915 -0.196 -0.351 77 77 85
362.7217 88.4584 -11.7483 -0.823 -0.188 -0.536 37 38 43
384.4595 91.7910 -12.9865 -0.262 0.852 0.453 57 32 54
342.9648 64.6560 -13.1711 -0.919 -0.180 -0.352 82 77 90
341.7107 61.9083 -13.4131 -0.136 0.345 0.929 63 54 64
328.9641 46.3625 -14.3542 -0.777 0.592 0.215 42 39 48
324.2038 42.7563 -14.4358 -0.731 0.039 -0.681 124 123 131
314.1075 35.2767 -14.5883 -0.849 -0.129 -0.513 149 150 155
370.3114 39.9791 -18.2699 -0.917 0.311 -0.249 70 71 76
363.2090 31.2872 -18.7979 -0.888 0.341 -0.309 54 53 66
367.5853 24.3440 -19.9811 -0.761 0.647 -0.055 114 115 124
363.6071 22.1447 -19.9495 -0.822 0.532 -0.206 95 96 106
399.5508 17.4169 -23.2526 -0.161 -0.499 0.851 40 38 49
347.9068 4.7219 -20.8970 -0.742 0.257 0.619 80 75 83
346.1885 4.1301 -20.8394 -0.739 0.053 0.672 80 76 82
343.9460 -4.8576 -21.7719 -0.854 0.013 -0.521 54 51 61
306.1325 -23.5283 -21.1971 -0.194 -0.979 -0.054 95 106 128
280.8983 -23.2483 -19.2509 -0.519 -0.842 0.146 44 46 61
176.5751 -30.7749 -12.2701 -0.495 -0.869 -0.026 149 161 175
392.8771 217.3925 1.0424 -0.216 0.123 0.969 57 60 65
391.9672 215.9917 0.9418 -0.157 -0.709 0.687 56 59 64
390.0909 212.3829 0.6461 -0.446 -0.878 0.172 53 58 62
386.9044 171.0603 -4.1667 -0.700 -0.488 0.521 53 54 59
394.6270 172.8381 -4.5514 -0.498 -0.847 0.186 71 72 77
389.1581 166.1332 -4.9460 -0.233 -0.905 0.357 69 69 77
411.1643 170.8894 -6.0802 -0.347 -0.445 0.826 59 59 69
409.6396 164.4511 -6.7498 -0.468 0.632 0.618 51 51 59
399.1047 156.2916 -6.9274 -0.432 0.577 0.693 64 65 70
391.1124 150.2689 -7.0417 -0.361 0.622 0.695 68 68 76
385.7530 147.0564 -7.0170 -0.372 0.618 0.693 69 69 77
392.9161 148.0276 -7.4569 -0.312 -0.607 0.731 68 68 76
386.8615 138.5478 -8.1457 -0.709 0.602 -0.367 61 64 73
402.4076 138.9042 -9.3148 -0.907 -0.411 0.088 45 45 53
385.7796 131.3736 -8.9401 -0.869 -0.222 0.443 45 45 53
386.3992 130.8790 -9.0490 -0.963 0.044 0.266 45 45 53
389.0051 119.1842 -10.6847 -0.804 0.040 0.593 52 50 63
394.4142 119.6221 -11.0530 -0.362 0.591 0.721 52 50 63
351.5149 95.7862 -10.6260 -0.598 0.145 0.788 65 64 70
363.2603 90.7757 -12.1560 -0.146 -0.248 0.958 74 74 82
383.3204 94.5102 -13.2634 -0.411 0.163 0.897 63 63 71
347.3976 76.5223 -12.6644 -0.795 -0.529 -0.297 73 67 70
342.5165 65.2839 -13.6601 -0.760 0.538 0.364 76 76 84
353.3674 54.1404 -15.8715 -0.967 -0.146 0.209 62 56 70
376.0656 45.5515 -18.6942 -0.694 -0.194 -0.694 24 23 31
365.9811 30.9412 -19.6971 -0.779 0.303 -0.549 41 37 51
366.0084 21.0257 -20.9137 -0.868 0.365 -0.336 76 74 85
345.2014 6.6213 -21.0549 -0.748 -0.661 0.058 70 68 73
346.3130 5.4007 -21.2911 -0.629 -0.048 0.776 78 73 79
345.2169 4.8020 -21.2790 -0.632 -0.028 0.775 82 76 81
345.2074 3.5903 -21.4266 -0.725 0.053 0.687 76 69 73
345.1012 2.9864 -21.4923 -0.725 0.053 0.687 71 62 66
330.5734 -13.8538 -22.4217 -0.406 0.843 0.353 82 89 115
191.6779 -20.6458 -12.4184 -0.729 -0.316 -0.607 179 192 210
191.7463 -22.8762 -12.6969 -0.717 -0.568 0.404 158 167 182
175.9965 -24.7359 -11.6960 -0.380 -0.922 -0.071 193 201 225
176.6655 -30.8197 -12.4934 -0.495 -0.869 -0.026 146 158 172
418.9501 245.4954 1.6463 -0.218 0.173 0.960 77 81 84
404.2894 227.7772 0.6558 -0.148 0.158 0.976 92 96 99
388.8436 212.5827 0.0370 -0.459 -0.874 0.161 72 77 81
406.3347 215.1309 -1.0551 -0.320 0.266 0.909 98 103 106
407.0439 213.9334 -1.2585 -0.383 0.332 0.862 90 95 98
410.7560 212.9460 -1.6772 -0.629 0.754 0.188 65 70 73
389.9337 175.9657 -4.5292 -0.304 -0.764 0.569 42 43 47
394.1694 173.5857 -5.1602 -0.273 -0.859 0.434 82 83 88
408.1759 173.6776 -6.2731 -0.370 -0.428 0.824 58 56 67
407.4032 166.8161 -7.0503 -0.370 -0.038 0.928 54 53 61
405.1488 161.7118 -7.4937 -0.400 0.188 0.897 57 56 62
399.3854 156.6180 -7.6542 -0.426 0.557 0.713 43 42 48
382.3078 145.6645 -7.6233 -0.372 0.618 0.693 67 66 74
387.9149 146.7183 -7.9444 -0.422 0.281 0.862 61 60 68
393.8902 148.6528 -8.1874 -0.435 -0.547 0.715 61 60 68
387.5580 138.2714 -8.9489 -0.719 0.604 -0.343 50 53 62
389.9363 122.6861 -11.0460 -0.632 0.762 -0.140 48 48 58
375.7547 105.9677 -11.9527 -0.831 0.451 0.326 60 58 63
351.8633 70.6822 -14.3510 -0.801 0.362 -0.476 61 49 58
351.3611 69.9210 -14.4038 -0.803 0.361 -0.474 50 47 59
351.8869 69.3972 -14.5101 -0.805 0.350 -0.479 41 50 65
347.0796 67.0321 -14.4135 -0.967 -0.233 -0.104 44 56 74
345.3929 61.6286 -14.9391 -0.856 0.497 -0.142 44 43 52
313.3066 51.7505 -13.5721 -0.958 -0.254 -0.135 53 49 64
355.7851 55.3025 -16.5469 -0.989 0.122 -0.083 76 70 84
318.4287 45.9922 -14.6875 0.016 0.050 0.999 75 72 83
379.1122 46.0421 -19.5517 -0.738 -0.153 -0.657 157 156 164
369.6932 27.9740 -21.0057 -0.767 0.455 -0.453 90 86 100
367.3549 25.8113 -21.0825 -0.767 0.446 -0.460 88 86 97
369.3433 25.2707 -21.3083 -0.766 0.430 -0.478 82 80 91
367.7428 24.5056 -21.2734 -0.763 0.644 -0.052 76 74 85
367.5895 23.8317 -21.3435 -0.858 0.410 -0.309 67 65 76
384.7783 14.9895 -23.8045 -0.852 0.473 -0.223 52 48 62
343.0854 4.8760 -21.6953 -0.695 -0.142 0.705 83 78 84
343.1305 4.2739 -21.7726 -0.695 -0.142 0.705 81 75 79
388.7036 -8.1950 -26.9553 -0.688 0.520 -0.506 52 55 71
321.5909 -26.1177 -23.7611 -0.195 -0.979 -0.060 92 100 123
197.1372 -22.5187 -13.3325 -0.404 -0.813 0.419 186 199 215
191.8555 -22.9055 -12.9559 -0.699 -0.584 0.413 158 167 182
176.2926 -24.8389 -11.9433 -0.380 -0.922 -0.071 192 200 224
177.0094 -30.5453 -12.6988 -0.525 -0.851 0.017 136 148 162
176.6187 -30.8107 -12.6999 -0.491 -0.871 -0.016 143 155 169
400.2650 280.5048 6.6583 -0.944 -0.329 0.038 52 60 63
411.4832 276.2927 5.2182 -0.767 0.629 0.128 78 83 86
407.3200 272.0687 5.0458 -0.250 -0.244 0.937 71 76 79
408.9397 272.5267 4.9681 -0.248 -0.236 0.940 63 68 71
385.7613 216.2085 0.0021 -0.448 -0.729 0.517 97 101 104
385.7407 215.4176 -0.0928 -0.427 -0.738 0.523 101 105 108
386.5762 203.5612 -1.6098 -0.424 0.496 0.758 57 62 65
407.6951 210.4642 -2.5092 -0.562 0.827 0.030 56 61 64
388.4714 193.8962 -2.9466 -0.578 0.795 -0.185 42 47 51
417.3918 189.4525 -5.8756 -0.916 -0.083 -0.393 61 62 66
407.0079 170.0611 -7.3872 -0.345 -0.111 0.932 67 65 76
405.5972 166.1416 -7.7495 -0.377 -0.037 0.925 53 50 59
379.6640 144.6358 -8.2364 -0.374 0.619 0.691 63 62 70
383.1589 144.7473 -8.5111 -0.593 -0.752 0.289 52 51 57
313.9576 81.5219 -10.5234 -0.303 -0.662 0.685 58 57 65
382.7433 90.9976 -15.0416 -0.131 0.543 0.830 69 90 103
356.7028 71.9245 -15.2225 -0.759 0.424 -0.495 56 52 70
353.9942 70.6407 -15.1558 -0.780 0.260 -0.569 54 53 70
353.8580 69.9589 -15.2279 -0.788 0.244 -0.566 48 53 74
364.2753 70.3195 -16.0434 -0.979 0.160 0.129 35 30 45
363.9406 69.5720 -16.1070 -0.927 0.182 0.327 37 35 42
356.6111 66.6527 -15.8588 -0.939 -0.212 -0.271 35 31 40
364.8169 67.0653 -16.4855 -0.924 -0.102 -0.369 47 46 52
374.3759 68.3753 -17.1142 -0.980 0.039 0.194 51 48 57
348.0941 62.2855 -15.6895 -0.851 0.523 -0.047 52 48 60
363.4985 50.0851 -18.4506 -0.651 0.413 -0.637 140 137 146
381.8757 43.6764 -20.7496 -0.733 -0.364 -0.575 31 32 37
367.8233 25.9190 -21.7590 -0.767 0.446 -0.460 69 67 78
377.4684 20.3573 -23.2341 -0.836 0.530 -0.139 46 43 54
348.2404 8.5743 -22.2616 -0.884 -0.461 0.073 42 39 47
348.5527 7.9599 -22.3624 -0.884 -0.461 0.073 36 33 40
342.3717 5.5377 -22.1483 -0.683 -0.110 0.722 78 76 81
342.0595 4.9397 -22.1956 -0.689 -0.107 0.717 82 80 85
342.5712 4.3343 -22.3117 -0.695 -0.142 0.705 80 75 81
386.9974 1.7423 -26.2939 -0.827 -0.059 0.559 63 57 61
401.2125 -13.8694 -29.3735 -0.203 -0.975 -0.088 153 158 178
263.3843 -16.0189 -18.2639 -0.156 -0.985 -0.075 162 170 191
282.5226 -22.5304 -20.6383 -0.937 0.168 0.306 78 81 98
240.5862 -19.9746 -16.8659 -0.663 -0.727 -0.178 37 41 60
193.1782 -24.5050 -13.5076 -0.361 -0.931 -0.060 161 169 180
176.3556 -30.7168 -12.8783 -0.483 -0.874 -0.050 144 156 170
409.9762 274.5198 4.3343 -0.342 -0.653 0.676 78 83 86
390.2921 222.7122 -0.3156 -0.775 0.626 -0.089 96 100 103
386.3072 203.6239 -2.3059 -0.438 0.475 0.763 47 50 55
396.4498 208.5225 -2.5682 -0.388 0.367 0.845 73 76 81
411.5539 196.4558 -5.3201 -0.299 0.348 0.888 49 53 64
389.1507 170.5747 -6.5776 -0.277 -0.865 0.419 76 77 82
405.9604 163.3052 -8.8891 -0.472 0.624 0.623 58 56 61
405.4163 162.2421 -8.9726 -0.486 0.637 0.598 70 67 74
406.6489 161.2182 -9.2020 -0.382 0.109 0.918 56 53 60
398.4363 153.4292 -9.4558 -0.707 -0.642 0.297 58 57 63
388.8358 144.4713 -9.7345 -0.367 -0.450 0.814 61 60 66
400.6845 135.6109 -11.8195 -0.642 0.434 0.633 50 49 57
388.8824 123.3716 -12.3118 -0.357 0.593 0.722 70 70 80
386.0189 121.5523 -12.2909 -0.353 0.588 0.727 55 55 65
399.7796 97.3825 -16.4051 -0.931 -0.365 -0.010 61 67 88
391.9201 83.9924 -17.3720 0.075 -0.133 0.988 56 49 61
367.4364 67.0466 -17.3633 -0.990 -0.112 0.081 42 39 46
390.9839 38.3437 -22.8600 -0.908 0.153 -0.390 75 73 86
373.8308 30.4775 -22.3653 -0.751 0.158 0.641 46 42 56
372.7612 29.7132 -22.3679 -0.763 0.184 0.620 43 39 53
383.2900 28.4110 -23.4192 -0.058 0.004 0.998 79 75 89
381.9050 26.9147 -23.4843 -0.160 0.059 0.985 82 80 91
371.2863 25.5475 -22.7509 -0.227 0.085 0.970 76 74 85
349.4758 8.6399 -22.9642 -0.575 0.502 0.646 45 42 49
348.9034 8.0196 -22.9914 -0.575 0.502 0.646 39 36 43
341.7610 4.9969 -22.7546 -0.697 -0.115 0.708 101 96 102
342.1049 4.3937 -22.8573 -0.698 -0.136 0.703 96 91 97
380.6927 1.9150 -26.4305 -0.877 0.384 -0.289 75 69 73
288.6171 -22.9359 -21.6565 -0.756 0.216 0.618 81 86 106
285.3359 -22.9230 -21.3768 -0.465 0.410 0.784 85 86 106
191.7325 -22.8725 -13.4363 -0.708 -0.448 0.545 158 168 179
173.1251 -29.2568 -12.6377 -0.439 -0.899 -0.005 137 149 163
176.4978 -30.7819 -13.1096 -0.483 -0.874 -0.050 144 156 170
413.9440 278.9053 3.7302 -0.755 0.644 0.121 84 89 93
393.3389 205.9925 -3.3564 -0.188 -0.948 0.255 83 86 91
363.5057 160.7551 -6.2694 -0.339 -0.016 0.941 86 87 91
395.6690 172.6564 -7.6190 -0.472 -0.538 0.698 58 59 64
404.5515 162.8334 -9.5883 -0.419 0.666 0.617 69 67 72
383.1956 150.3573 -9.2492 -0.677 -0.683 0.272 57 54 61
398.5947 155.2644 -9.9917 -0.590 -0.739 0.324 45 42 49
385.4693 143.1577 -10.3239 -0.448 -0.406 0.796 61 60 66
400.0388 137.0928 -12.3304 -0.977 -0.191 0.095 54 53 61
400.1714 136.3647 -12.4306 -0.977 -0.191 0.095 61 60 68
399.9078 135.4776 -12.5157 -0.642 0.434 0.633 51 50 58
399.4857 134.5290 -12.5945 -0.590 0.326 0.739 42 41 49
383.7786 120.8775 -12.8901 -0.351 0.592 0.726 61 60 68
399.6953 121.3950 -14.2122 -0.906 -0.418 -0.067 136 134 145
384.0848 112.8776 -13.8911 -0.268 0.650 0.711 60 58 63
336.2365 89.4551 -12.5796 -0.590 0.807 -0.006 68 65 72
335.3957 84.2652 -13.1385 -0.613 -0.210 0.762 58 59 67
377.2115 95.4385 -15.4167 -0.181 0.070 0.981 55 58 64
378.0952 94.2687 -15.6361 -0.174 0.092 0.980 57 59 69
399.7357 97.5147 -17.1240 -0.931 -0.365 -0.010 64 67 77
360.9675 74.4900 -16.5543 -0.064 0.249 0.966 66 67 78
344.4846 61.7496 -16.6715 -0.819 -0.573 0.009 60 57 66
357.7659 55.9484 -18.5338 -0.847 0.421 -0.323 43 37 51
376.7162 53.6798 -20.4592 -0.478 -0.783 -0.398 52 49 58
373.3117 30.5190 -22.9836 -0.751 0.158 0.641 35 31 45
341.1672 5.6555 -23.2142 -0.555 0.489 0.673 109 104 111
340.6574 5.0608 -23.2423 -0.673 -0.112 0.731 99 94 100
340.5682 4.4641 -23.3072 -0.681 -0.105 0.725 86 81 87
390.2733 1.8090 -27.9561 -0.753 0.539 -0.378 78 72 76
386.7432 -10.0312 -29.0909 -0.799 0.391 -0.456 82 85 104
284.4729 -24.1529 -21.9107 -0.497 -0.769 -0.402 44 47 68
191.8724 -22.9101 -13.7009 -0.755 -0.418 0.505 158 168 179
175.0976 -30.2415 -13.1339 -0.450 -0.890 -0.076 145 157 171
392.0649 195.9723 -5.2057 -0.570 0.817 0.089 52 53 58
398.7582 190.4072 -6.4801 -0.591 0.087 0.802 48 51 60
393.6526 172.5894 -8.1910 -0.474 -0.761 0.442 67 68 73
395.1875 172.6135 -8.3251 -0.506 -0.745 0.435 58 59 64
383.9693 164.4641 -8.3145 -0.249 0.204 0.947 53 54 59
385.0172 158.9497 -9.0787 -0.300 -0.092 0.949 83 81 92
388.7124 160.0214 -9.2783 -0.259 -0.066 0.964 83 81 92
394.7887 161.4673 -9.6450 -0.162 0.122 0.979 80 78 89
382.7671 151.0899 -9.8336 -0.696 -0.655 0.294 57 54 61
381.8947 149.9302 -9.8968 -0.682 -0.672 0.289 56 53 60
397.6154 151.8730 -11.0641 -0.731 -0.681 0.042 62 61 67
391.8313 141.5761 -11.7999 -0.930 0.300 -0.211 74 73 81
398.5103 134.3169 -13.2790 -0.590 0.326 0.739 32 31 39
399.5673 120.7394 -15.0246 -0.268 0.649 0.712 144 141 152
366.5750 105.5564 -13.9252 -0.272 0.652 0.708 61 55 56
373.8738 105.9251 -14.5320 -0.695 0.151 0.703 52 48 48
372.5234 81.5644 -17.3740 -0.004 0.198 0.980 92 80 87
388.4118 84.1260 -18.4811 -0.035 0.318 0.947 93 87 96
363.5455 77.2535 -17.0966 -0.035 0.318 0.947 100 86 96
354.9556 58.1536 -18.6524 -0.655 0.571 -0.496 66 64 77
337.3140 48.8158 -18.2128 -0.238 -0.229 0.944 60 57 66
373.0558 42.8901 -22.1246 0.045 0.120 0.992 89 90 95
350.1049 8.1413 -24.3012 -0.515 0.328 0.792 61 58 65
344.0467 6.9069 -23.9104 -0.503 0.392 0.771 83 80 87
337.9450 3.9537 -23.7248 -0.357 0.528 0.770 66 60 64
371.3266 -0.4708 -27.2433 -0.293 0.840 0.456 69 62 69
289.4113 -23.0091 -22.6703 -0.827 0.513 -0.232 93 100 124
285.6918 -24.3207 -22.4977 -0.495 -0.764 -0.413 56 63 88
198.5136 -23.9089 -14.6638 -0.583 0.665 0.467 172 183 203
191.7376 -22.8739 -13.9329 -0.763 -0.409 0.501 159 169 180
175.3339 -30.3436 -13.3766 -0.454 -0.887 -0.081 149 158 175
382.9842 202.9625 -4.2665 -0.503 0.583 0.638 57 58 63
381.9530 201.5315 -4.3459 -0.762 0.472 0.443 59 60 65
416.6990 196.7280 -8.1103 -0.400 -0.319 0.859 77 78 83
420.8737 197.3692 -8.4146 -0.414 0.536 0.736 83 84 88
397.3914 171.6101 -9.3927 -0.574 0.813 -0.103 52 53 58
388.2747 161.5310 -9.7820 -0.873 0.170 -0.457 71 69 80
387.3767 156.5110 -10.3094 -0.181 0.113 0.977 70 67 74
397.1833 157.3472 -11.1057 -0.559 -0.700 0.445 67 64 71
402.1049 155.6988 -11.7564 -0.589 -0.770 0.245 66 65 71
397.0350 130.0341 -14.4088 -0.502 0.155 0.851 73 72 80
373.8727 113.1987 -14.3326 -0.741 0.050 0.670 100 97 106
374.9698 111.4451 -14.6460 -0.848 0.400 0.348 144 141 149
370.6249 109.2060 -14.5201 -0.781 0.447 0.437 144 139 144
367.7532 107.5011 -14.4643 -0.770 0.508 0.387 75 70 73
365.8875 106.1583 -14.4565 -0.698 0.509 0.504 61 55 54
363.2619 104.5638 -14.4098 -0.741 0.458 0.491 56 50 50
344.6672 73.3391 -16.4991 -0.143 -0.276 0.951 93 70 82
349.1739 69.9675 -17.3211 -0.167 -0.280 0.945 94 87 86
389.4507 76.4004 -20.2274 -0.507 0.862 -0.002 89 85 90
369.5767 69.8947 -19.1979 -0.715 0.596 -0.364 88 85 92
348.2249 64.0024 -17.9586 -0.723 -0.298 0.623 61 58 65
356.3501 58.5141 -19.3689 -0.657 0.567 -0.497 26 22 36
365.4818 57.5079 -20.3272 -0.778 0.218 -0.589 45 39 51
358.1559 45.7340 -21.0862 -0.251 0.163 0.954 56 55 63
371.6789 40.7661 -22.9275 -0.001 -0.144 0.990 87 88 93
374.9567 34.2521 -24.0186 -0.601 -0.240 -0.763 118 116 129
362.4695 23.2537 -24.2110 -0.176 0.557 0.812 38 36 47
358.6345 22.3899 -23.9647 -0.170 0.558 0.812 66 64 75
338.0321 4.5980 -24.2391 -0.458 0.472 0.753 54 49 53
360.7758 1.1481 -26.7402 -0.375 0.116 0.920 62 56 60
364.0548 -6.7170 -27.9955 -0.074 -0.953 0.294 47 50 69
289.3504 -22.9796 -23.1310 -0.830 0.509 -0.229 93 103 128
284.6954 -22.7696 -22.6793 -0.512 -0.712 -0.481 98 105 131
191.7887 -22.8877 -14.1878 -0.726 -0.650 0.223 160 170 181
177.5597 -24.8570 -13.1242 -0.476 -0.851 -0.221 192 204 229
404.3907 234.3860 -3.1874 -0.660 0.745 -0.096 73 77 80
393.1027 197.8510 -6.5585 -0.597 0.802 0.029 62 61 66
400.7597 188.7924 -8.3753 -0.577 0.193 0.793 80 81 86
400.2835 187.7201 -8.4606 -0.577 0.193 0.793 70 71 76
414.7437 193.3469 -9.1350 -0.341 0.568 0.749 69 70 75
401.4185 173.1061 -10.3392 -0.569 0.819 -0.067 52 53 58
392.6062 165.4519 -10.4405 -0.871 0.360 -0.334 33 31 42
390.6039 163.6675 -10.4690 -0.850 0.172 -0.498 42 40 51
392.9233 164.0574 -10.6394 -0.869 0.120 -0.480 54 52 63
391.6607 160.3316 -10.9727 -0.863 0.105 -0.494 80 78 89
380.6272 154.1704 -10.6846 -0.877 0.462 0.135 82 81 89
384.0056 143.0496 -12.3500 -0.852 -0.268 0.450 59 58 64
382.9071 141.8132 -12.3969 -0.196 -0.137 0.971 59 58 64
384.0807 141.5856 -12.5346 -0.200 -0.195 0.960 59 58 64
398.7200 133.1956 -14.9254 -0.967 -0.145 0.211 64 63 71
407.8123 127.1930 -16.5063 -0.954 0.176 0.242 76 73 82
393.4079 119.6388 -16.0709 -0.778 0.451 0.437 78 75 84
373.4255 111.0510 -15.2374 -0.873 0.371 0.316 69 66 75
369.0512 108.8025 -15.0997 -0.765 0.509 0.395 52 47 53
367.4623 107.5467 -15.1029 -0.770 0.508 0.387 63 57 60
358.7682 103.8385 -14.7368 -0.915 0.202 0.348 55 49 49
372.7558 106.5521 -15.7201 -0.691 -0.440 0.573 77 71 71
347.2303 94.6630 -14.7669 -0.883 0.460 -0.097 46 60 56
342.2602 72.8501 -16.9455 -0.144 -0.268 0.953 87 77 84
357.3946 58.8109 -20.0678 -0.658 0.574 -0.487 42 36 48
384.4489 53.7715 -23.2172 -0.750 -0.458 0.478 45 42 51
392.0659 52.7310 -24.0580 -0.726 -0.319 0.610 39 36 45
363.5086 38.5878 -23.0937 -0.130 -0.472 0.872 64 63 69
326.4370 16.7032 -22.2692 -0.872 0.483 0.075 51 48 59
351.1757 8.2639 -25.6135 -0.712 -0.181 0.678 75 73 78
340.2973 6.4245 -24.8159 -0.496 0.407 0.767 67 64 70
369.9424 1.6731 -28.1734 -0.287 -0.429 0.856 85 80 84
343.8715 0.9600 -25.8139 -0.894 0.305 0.327 84 79 85
337.9092 -4.2125 -25.8817 -0.963 -0.205 -0.172 53 50 61
372.1084 -15.7116 -30.4847 -0.211 -0.909 0.359 94 102 125
191.2699 -22.7484 -14.3713 -0.853 -0.011 -0.521 160 170 181
177.8534 -24.9578 -13.3804 -0.480 -0.849 -0.221 191 203 227
401.2522 197.3744 -8.1454 -0.376 -0.786 0.491 50 51 55
400.0043 186.9845 -9.2835 -0.564 -0.442 0.698 65 65 73
414.3659 194.2070 -9.7891 -0.511 -0.523 0.682 66 66 74
376.2558 171.4271 -8.8851 -0.275 0.446 0.852 66 66 74
361.3649 158.2530 -9.0492 -0.552 -0.789 0.269 54 54 62
375.4952 150.3857 -11.3597 -0.277 0.073 0.958 77 74 81
385.6360 150.7530 -12.2897 -0.355 -0.223 0.908 116 113 120
391.3036 152.6424 -12.6055 -0.393 -0.871 0.295 84 81 88
393.4521 152.8703 -12.7844 -0.358 -0.876 0.322 60 57 64
399.9859 155.1129 -13.1407 -0.548 -0.756 0.358 86 85 91
383.7842 141.6348 -13.2158 -0.195 -0.178 0.964 63 62 68
395.6102 133.6864 -15.3146 -0.590 0.326 0.739 69 68 76
379.0411 122.6647 -15.0569 -0.457 0.167 0.874 65 64 72
379.1359 121.9706 -15.1500 -0.455 0.186 0.871 65 64 72
378.2663 120.9091 -15.1950 -0.460 0.187 0.868 59 58 66
378.1706 117.2367 -15.6304 -0.807 -0.034 0.589 88 85 94
377.4522 113.3514 -16.0318 -0.857 0.385 0.343 93 90 99
374.1323 111.4526 -15.9427 -0.895 -0.142 -0.423 94 91 101
374.2824 110.7905 -16.0373 -0.895 -0.142 -0.423 84 79 86
374.7529 110.2397 -16.1492 -0.893 -0.146 -0.426 64 59 62
372.2436 106.5255 -16.3578 -0.691 -0.440 0.573 64 58 58
347.8434 91.1079 -15.8798 -0.973 0.228 -0.045 56 61 63
380.0712 87.4647 -19.4179 -0.766 0.618 0.179 76 79 70
375.4972 85.5337 -19.2121 -0.732 0.659 0.171 67 66 67
386.4401 76.7060 -21.3326 0.057 -0.136 0.989 89 84 91
355.9721 57.9952 -20.6702 -0.709 0.705 0.017 65 55 66
353.1012 56.1739 -20.6149 -0.123 0.646 0.753 52 44 55
328.9315 51.2558 -18.8878 -0.729 -0.529 -0.435 45 38 48
335.8401 48.8475 -19.8433 -0.668 -0.375 -0.643 57 54 63
339.3008 39.6404 -21.2906 -0.891 -0.312 0.331 103 102 107
375.9291 35.8974 -25.2636 -0.584 -0.539 -0.608 65 64 71
355.4487 14.6999 -25.8622 -0.845 0.424 -0.326 62 59 66
352.0051 -0.4266 -27.3628 -0.797 0.604 -0.004 80 75 81
365.6755 -6.6956 -29.4355 -0.243 -0.954 0.173 23 28 48
178.0575 -25.0293 -13.6261 -0.485 -0.855 -0.186 193 205 229
402.2082 198.1738 -8.9085 -0.372 -0.782 0.501 44 45 49
409.9199 199.4154 -9.5170 -0.651 -0.251 0.716 79 80 85
408.9985 198.0510 -9.5913 -0.658 0.243 0.713 79 80 85
420.9622 198.9863 -10.6551 -0.517 -0.827 0.222 61 61 69
373.9668 170.3632 -9.4927 -0.314 0.564 0.764 62 62 70
353.8965 157.1757 -9.1128 -0.374 0.642 0.670 52 52 60
401.0338 171.7305 -11.9901 -0.636 0.745 -0.201 151 151 159
397.3219 168.2493 -12.0458 -0.649 0.723 -0.237 105 105 113
395.3747 166.4770 -12.0685 -0.813 0.028 -0.582 66 66 74
385.4887 153.9003 -12.6166 -0.705 -0.235 -0.668 71 68 75
375.3322 116.3468 -16.1578 -0.664 0.212 0.717 48 45 54
377.9612 112.2374 -16.9133 -0.712 0.436 0.551 59 57 63
371.6132 106.4585 -16.9875 -0.672 -0.366 0.644 67 61 61
367.9095 102.4051 -17.1132 -0.508 0.760 0.405 54 45 48
347.6805 93.1289 -16.2448 -0.961 -0.035 0.273 50 48 51
385.4237 64.9714 -23.3620 -0.103 0.657 0.747 78 70 83
370.8817 54.6467 -23.1797 -0.861 -0.285 -0.422 55 52 61
362.8136 42.0042 -23.9146 -0.964 0.148 0.219 110 108 113
363.5724 38.1052 -24.4606 -0.004 -0.198 0.980 108 106 111
414.5608 31.9260 -30.2236 -0.015 0.353 0.936 82 76 86
349.5896 22.1095 -25.0191 -0.143 0.569 0.810 66 63 70
363.4460 9.7442 -27.8771 -0.669 -0.743 -0.007 51 49 52
367.8354 8.4553 -28.4648 -0.986 0.010 0.169 51 49 52
339.0687 5.9425 -25.9387 -0.753 0.379 0.537 20 18 21
353.0062 -1.0282 -28.1526 -0.688 0.677 0.262 55 50 57
353.4647 -1.6692 -28.2752 -0.803 0.588 0.095 46 41 48
371.2534 -6.9153 -30.6594 -0.313 -0.031 0.949 17 22 42
360.7730 -19.2067 -31.1145 -0.182 -0.983 -0.033 161 171 196
282.1006 -22.3309 -23.7530 -0.287 -0.951 -0.118 99 109 136
178.3073 -25.1158 -13.8794 -0.485 -0.855 -0.186 194 206 228
389.6891 267.3904 -0.0614 -0.859 -0.122 0.498 43 50 58
411.7558 252.3045 -4.1037 -0.656 0.688 -0.310 75 77 74
389.3385 206.4507 -7.3831 -0.562 0.827 0.017 64 65 70
388.2646 194.0352 -8.7739 -0.609 0.793 -0.018 61 60 65
383.0521 189.3471 -8.8152 -0.713 0.694 -0.099 61 60 65
410.5058 197.4970 -10.5946 -0.944 -0.238 -0.230 72 73 78
385.0079 175.9314 -10.6317 -0.966 -0.252 -0.050 55 55 65
363.1595 161.7269 -10.1475 -0.608 -0.774 0.176 52 52 60
388.7216 160.2470 -12.8990 -0.309 0.158 0.938 62 62 70
387.5781 158.9158 -12.9447 -0.305 0.148 0.941 79 77 88
387.4586 149.7040 -14.0447 -0.508 -0.665 0.547 70 69 75
383.0912 141.6887 -14.5728 -0.823 -0.460 0.332 74 72 79
391.0173 143.6675 -15.1317 -0.881 -0.160 0.446 70 69 77
374.8860 117.0583 -16.7205 -0.682 0.221 0.698 74 72 80
368.7134 102.8140 -17.8188 -0.536 0.762 0.365 65 56 59
346.1922 69.7126 -19.5482 -0.853 0.376 0.363 78 76 81
356.8430 71.5488 -20.3986 -0.011 -0.116 0.993 77 77 80
346.8066 41.3771 -23.0309 -0.476 -0.408 0.779 104 98 105
369.9017 43.6496 -25.0811 0.085 -0.719 0.690 98 96 101
369.1975 41.5219 -25.2671 -0.739 0.199 0.643 97 95 100
374.5414 36.6280 -26.3958 -0.041 -0.400 0.915 103 103 105
343.1014 7.7992 -26.7117 -0.689 -0.714 0.126 62 60 63
337.8365 7.1925 -26.2550 -0.812 -0.104 0.574 68 66 69
360.0976 3.3189 -28.9633 -0.218 -0.657 0.722 72 70 72
364.9704 -1.3340 -30.0155 -0.619 0.737 0.273 56 51 58
367.4288 -7.3370 -30.9876 -0.126 -0.970 0.209 64 69 91
283.5753 -22.5262 -24.3813 -0.302 -0.948 -0.104 104 114 141
178.3125 -24.9063 -14.0737 -0.500 -0.856 -0.131 194 207 226
178.3789 -25.1439 -14.1091 -0.473 -0.877 -0.088 195 207 229
388.9743 264.6589 -1.0713 -0.678 -0.683 0.274 48 55 63
395.4261 209.8098 -8.3474 -0.570 0.817 0.091 69 70 75
389.3345 193.3470 -9.7049 -0.648 0.758 0.073 63 62 67
378.8822 172.7532 -11.1115 -0.939 -0.246 -0.239 53 53 61
380.3072 171.2808 -11.4357 -0.292 0.433 0.853 52 52 60
403.6620 173.5012 -13.5721 -0.653 0.719 -0.237 158 158 166
400.2786 170.1663 -13.6259 -0.724 0.666 -0.177 117 117 125
389.3898 160.7764 -13.6369 -0.279 0.082 0.957 60 60 68
403.9681 164.7822 -14.6547 -0.880 0.019 -0.475 51 48 55
385.9781 155.2795 -13.9484 -0.836 -0.271 -0.477 48 45 52
390.6821 156.7819 -14.2515 -0.540 0.425 0.727 48 45 52
381.0602 146.9260 -14.4492 -0.639 -0.651 0.409 65 65 68
391.7792 141.8785 -16.1610 -0.153 0.101 0.983 72 71 78
377.2049 123.8990 -16.8282 -0.849 0.527 -0.033 69 71 79
349.0558 100.3702 -16.7670 -0.185 -0.482 0.856 61 55 56
348.6440 74.2613 -19.8720 -0.693 0.679 -0.242 54 49 55
345.5238 72.8465 -19.7214 -0.668 0.716 -0.204 60 55 61
333.5923 62.6187 -19.7261 -0.172 -0.683 0.710 65 60 66
383.3209 66.9658 -24.3210 -0.164 -0.874 0.457 72 63 80
382.0796 66.0029 -24.3093 -0.168 0.701 0.693 81 72 89
375.7522 64.0692 -23.8911 -0.168 0.701 0.693 72 63 80
372.6041 62.7690 -23.7237 -0.175 0.704 0.688 63 55 69
375.1541 36.0860 -27.2028 -0.013 -0.395 0.919 91 91 93
354.3337 23.1546 -26.6185 -0.179 0.431 0.885 71 68 75
346.3540 22.0709 -25.9277 -0.172 0.552 0.816 61 58 65
385.2813 20.6900 -30.1013 -0.709 0.537 -0.457 51 48 57
370.8483 18.7018 -28.8553 -0.696 0.578 -0.426 69 66 75
376.6681 15.4897 -29.8415 -0.681 -0.703 0.204 63 61 66
377.4232 14.8213 -29.9998 -0.680 -0.706 0.200 57 55 60
379.0298 13.4770 -30.3273 -0.136 0.595 0.792 79 77 82
335.7015 9.6112 -26.3332 -0.581 -0.187 0.793 66 64 67
358.0021 9.1779 -28.6810 -0.266 -0.862 0.432 66 64 67
337.7966 7.8438 -26.7619 -0.789 0.326 0.521 84 82 85
370.5582 1.2268 -30.9320 -0.795 0.288 0.534 50 48 51
342.0905 1.2094 -28.0037 -0.909 0.415 0.048 33 31 34
340.8220 0.6385 -27.9419 -0.895 0.445 0.036 23 21 24
370.7596 -6.1220 -31.8386 -0.869 0.415 -0.270 95 96 113
178.4743 -24.9635 -14.3168 -0.500 -0.856 -0.131 194 206 228
373.3304 184.6846 -9.8050 -0.560 0.827 0.059 63 62 67
396.4984 195.4852 -10.9427 -0.589 -0.713 0.380 59 60 64
375.1939 171.6593 -11.5689 -0.557 -0.172 0.813 54 54 62
374.1461 170.3368 -11.6179 -0.494 -0.074 0.866 53 53 61
410.8357 184.0228 -13.8311 -0.967 0.000 -0.254 53 52 60
398.1827 168.5148 -14.3664 -0.873 0.012 -0.488 108 108 116
399.4406 168.3550 -14.5180 -0.874 0.098 -0.476 121 121 129
399.9301 164.6153 -15.0197 -0.889 0.077 -0.452 71 71 79
398.0151 161.2999 -15.2172 -0.887 -0.161 -0.432 66 63 70
399.4700 160.4158 -15.4767 -0.300 0.502 0.811 71 68 75
382.6997 150.1251 -14.9508 -0.297 0.510 0.807 57 54 61
378.0861 147.2091 -14.8163 -0.304 0.510 0.804 58 55 62
386.5444 148.8969 -15.5032 -0.557 -0.829 0.054 69 69 69
379.8942 139.8879 -15.8879 -0.571 0.425 0.703 76 67 73
339.0907 100.8477 -16.2937 -0.811 0.568 0.139 57 71 80
339.7054 100.4355 -16.4080 -0.868 0.495 -0.044 57 65 75
347.2090 99.8680 -17.2658 -0.187 -0.479 0.857 62 56 56
347.8106 99.4240 -17.3826 -0.187 -0.479 0.857 61 56 55
353.3316 74.8907 -20.9166 -0.744 0.669 0.006 72 67 73
355.0576 74.6577 -21.1263 -0.745 0.667 -0.010 101 99 104
336.1686 60.2257 -20.8759 -0.647 -0.739 0.187 55 49 59
338.5470 58.8683 -21.2895 -0.559 -0.745 0.363 79 71 86
357.1014 55.9816 -23.5894 -0.016 -0.362 0.932 55 48 56
370.2563 55.5407 -25.0267 -0.527 -0.603 0.599 63 58 65
352.2439 37.1239 -25.3482 -0.675 0.475 0.565 59 57 62
354.8945 31.6107 -26.2907 0.080 -0.158 0.984 83 77 86
357.0965 29.2118 -26.8112 -0.812 0.367 -0.454 70 64 74
386.7003 27.2612 -30.1610 -0.453 -0.890 -0.049 67 64 71
373.2815 18.8712 -29.7589 -0.715 0.587 -0.379 95 92 101
365.3725 15.9056 -29.2837 -0.897 -0.062 -0.437 67 64 71
371.1066 14.7293 -30.0287 -0.551 -0.753 0.360 48 46 51
370.7807 14.0465 -30.0765 -0.562 -0.064 0.825 61 59 64
369.2672 8.6532 -30.5665 -0.596 -0.785 0.169 76 74 77
366.6561 4.0069 -30.8510 -0.922 -0.059 0.383 80 78 82
355.4806 3.4964 -29.7365 -0.896 -0.215 -0.389 81 79 81
357.2813 2.8330 -30.0059 -0.846 -0.306 -0.437 84 82 85
362.6303 -6.9950 -31.7517 -0.190 -0.982 -0.005 73 78 98
197.8199 -22.4139 -16.2657 -0.976 -0.188 0.113 183 194 212
201.1331 -23.7836 -16.7792 -0.332 -0.935 -0.124 184 195 213
191.3683 -23.7624 -15.7492 -0.819 0.035 0.573 162 170 181
178.4818 -24.9704 -14.5386 -0.500 -0.856 -0.131 194 206 228
366.1011 232.7077 -3.9600 -0.980 -0.161 -0.119 63 71 74
409.2881 233.5277 -8.5047 -0.851 -0.446 -0.277 88 88 88
411.1496 212.8301 -11.1926 -0.618 0.774 0.135 106 105 110
409.6066 211.0358 -11.2423 -0.654 0.754 0.052 69 68 73
407.3252 198.8487 -12.4619 -0.686 -0.368 0.628 77 78 83
391.9718 179.6451 -13.1193 -0.654 0.616 0.438 34 34 42
398.5768 169.7182 -15.0225 -0.514 0.300 0.804 90 90 98
395.8065 167.5174 -14.9892 -0.473 0.197 0.859 92 92 100
396.6007 167.1297 -15.1212 -0.496 0.290 0.818 83 83 91
396.3376 166.2072 -15.2038 -0.785 -0.582 0.210 70 70 78
397.1766 162.6744 -15.7186 -0.791 -0.577 0.203 63 62 68
397.4749 160.4492 -16.0181 -0.811 -0.553 -0.194 100 97 104
396.4577 159.1714 -16.0624 -0.866 -0.062 -0.496 110 107 114
373.7943 143.9185 -15.4590 -0.684 -0.181 0.707 75 75 77
366.9969 111.7740 -18.5917 -0.310 0.830 0.464 26 104 101
347.5315 99.4644 -17.9784 -0.271 -0.523 0.808 66 52 57
349.1587 98.7132 -18.2436 -0.264 -0.510 0.819 64 60 51
361.2249 77.6386 -22.0740 -0.753 0.643 -0.139 71 66 72
351.9123 70.0894 -21.9801 -0.760 0.642 -0.098 84 82 87
348.5474 55.2138 -23.4062 -0.553 -0.441 0.707 100 93 101
350.1826 51.6571 -24.0095 0.081 -0.270 0.959 87 84 93
358.8511 40.5604 -26.2753 -0.009 0.034 0.999 143 141 146
365.9130 30.6615 -28.2243 -0.398 0.421 0.815 81 75 85
356.2487 10.5682 -29.6003 -0.724 -0.484 0.492 38 36 41
375.8225 4.6491 -32.4162 -0.895 -0.323 0.307 71 69 74
363.0271 3.4532 -31.1843 -0.976 -0.182 -0.117 70 68 71
363.1603 2.7982 -31.2773 -0.976 -0.182 -0.117 63 61 64
367.8177 0.7354 -32.0260 -0.850 0.322 0.416 64 59 65
346.9553 -14.1044 -31.5666 -0.531 0.746 0.402 117 125 148
178.6207 -25.0202 -14.7801 -0.505 -0.853 -0.136 196 208 230
173.9775 -29.6799 -14.8409 -0.436 -0.899 -0.030 166 175 192
410.7923 212.0176 -12.0481 -0.652 0.756 0.058 78 78 80
397.2777 201.2399 -11.8576 -0.588 0.167 0.791 79 78 83
408.9967 198.4011 -13.4851 -0.791 -0.254 0.557 75 76 81
397.6720 179.8179 -14.4718 -0.680 -0.708 0.192 36 36 44
404.6199 178.7008 -15.3688 -0.579 0.251 0.776 54 53 61
405.1595 178.1705 -15.4917 -0.577 0.271 0.771 55 54 62
395.6523 166.8567 -15.8056 -0.523 0.299 0.798 55 55 63
396.9318 162.7568 -16.4381 -0.791 -0.577 0.203 64 63 69
397.5040 160.6638 -16.7521 -0.811 -0.553 -0.194 100 97 104
371.3153 142.9456 -16.0028 -0.807 0.158 0.568 78 78 80
381.3184 143.8628 -16.9912 -0.763 -0.645 -0.037 77 78 78
382.3025 143.5593 -17.1356 -0.759 -0.648 -0.063 79 79 79
383.2057 142.4638 -17.3663 -0.561 -0.773 -0.296 86 89 85
345.5395 100.2099 -18.3013 -0.364 -0.888 -0.280 24 127 123
347.1215 100.1113 -18.4868 -0.592 -0.725 -0.352 29 78 77
205.7561 47.0141 -9.3359 0.022 0.120 0.992 166 27 34
345.0456 82.0110 -20.4312 -0.505 -0.859 -0.085 50 56 52
353.3520 73.8151 -22.3269 -0.726 0.684 0.066 69 64 70
355.6809 55.9333 -24.7287 -0.631 -0.457 0.627 79 72 80
351.0072 53.8197 -24.4692 0.068 -0.479 0.875 85 78 86
357.2519 35.2367 -27.3851 -0.861 0.385 0.333 86 86 88
363.0014 33.8230 -28.1861 -0.723 0.625 0.295 97 97 99
366.2323 30.7695 -28.9074 -0.384 0.404 0.831 89 83 93
374.0955 29.3497 -29.9412 -0.805 0.341 -0.486 104 98 108
373.4509 23.8136 -30.5349 -0.172 -0.951 0.257 51 48 55
412.1436 5.1725 -37.0209 -0.317 -0.760 0.567 59 58 57
365.6427 3.4776 -32.1181 -0.958 -0.195 -0.208 59 57 59
367.9864 0.7889 -32.6981 -0.761 0.274 0.589 80 75 81
377.2910 -0.7888 -33.9092 -0.835 0.533 0.138 82 77 84
372.3394 -3.3481 -33.6726 -0.133 0.281 0.951 70 65 72
380.9690 -5.7357 -34.9068 -0.304 0.323 0.896 69 68 80
411.2291 -13.8756 -39.2066 -0.229 -0.972 -0.058 159 165 187
394.0190 -13.5003 -37.2717 -0.579 0.813 0.062 156 162 186
374.9861 -13.5968 -35.1932 -0.826 0.386 0.412 155 163 186
191.2713 -23.7371 -16.2365 -0.821 0.006 0.572 163 171 182
178.5365 -24.9972 -14.9893 -0.502 -0.863 -0.057 197 209 231
176.1383 -30.5348 -15.3906 -0.455 -0.887 0.075 162 171 188
379.1524 189.6293 -11.9815 -0.385 0.498 0.777 66 66 68
376.2041 186.3291 -12.0465 -0.360 0.487 0.796 58 58 60
394.6857 181.5811 -14.6874 -0.662 0.373 0.650 79 79 87
405.6227 183.5387 -15.6789 -0.224 -0.485 0.845 78 77 85
403.1706 177.3425 -16.1466 -0.724 -0.268 0.636 69 67 78
402.3254 172.8589 -16.5891 -0.740 0.644 -0.192 78 78 86
395.9001 168.7689 -16.3589 -0.523 0.299 0.798 61 61 69
384.8169 155.4905 -16.7076 -0.758 -0.607 -0.239 94 91 98
386.8139 154.1670 -17.0901 -0.565 0.807 -0.171 52 49 56
370.9856 143.6954 -16.5705 -0.511 0.858 -0.042 64 62 67
370.8529 142.9100 -16.6497 -0.807 0.158 0.568 66 66 68
380.4680 145.1516 -17.4590 -0.762 -0.630 -0.149 70 70 72
384.3831 142.4167 -18.2257 -0.594 -0.735 -0.326 87 91 80
355.3369 85.0379 -21.8454 -0.560 -0.794 -0.236 53 51 56
354.3987 84.1095 -21.8515 -0.565 -0.784 -0.256 51 56 62
338.2976 77.1058 -20.8857 -0.261 0.733 0.628 63 53 76
354.9673 80.2845 -22.3736 -0.824 -0.092 -0.559 53 47 56
371.7708 84.0418 -23.8071 -0.788 0.224 -0.574 55 53 57
389.9884 86.5933 -25.5437 -0.804 0.568 0.175 64 59 66
389.8468 84.3196 -25.8003 -0.865 0.501 -0.029 57 52 59
349.3822 69.0810 -23.0900 -0.552 0.619 0.558 67 62 68
359.1943 53.3367 -26.0768 -0.622 0.687 -0.376 62 59 66
353.0163 51.0204 -25.6618 -0.564 0.801 -0.200 63 60 69
346.5096 49.3448 -25.1331 -0.489 0.870 -0.056 59 56 65
358.6835 35.4655 -28.1611 -0.996 0.054 0.066 56 56 58
376.0059 28.8830 -30.8919 0.021 0.164 0.986 109 103 113
368.6602 20.2506 -31.1029 -0.108 0.565 0.818 60 57 66
367.2351 15.5036 -31.5120 -0.255 -0.438 0.862 96 91 97
370.5974 1.4595 -33.5719 -0.717 0.224 0.661 59 56 65
356.7065 -2.7320 -32.5169 -0.277 0.326 0.904 68 65 72
390.5308 -13.2197 -37.5657 -0.530 0.848 0.036 154 160 184
191.2162 -23.7226 -16.4795 -0.863 0.093 0.496 165 173 184
178.3344 -24.9358 -15.1807 -0.487 -0.873 -0.031 197 209 231
176.0354 -30.5039 -15.5902 -0.454 -0.888 0.067 160 171 189
408.6979 224.6483 -11.8936 -0.498 0.623 0.603 53 54 58
399.8896 199.2509 -13.9248 -0.690 -0.111 0.716 61 61 63
411.1125 194.2472 -15.8075 -0.238 -0.185 0.953 83 82 88
400.1146 186.4243 -15.4853 -0.957 0.277 -0.089 105 104 110
396.4599 180.3915 -15.7890 -0.949 0.015 0.316 87 88 93
403.6662 182.7020 -16.3371 -0.262 -0.458 0.850 84 83 89
399.3999 176.3758 -16.6059 -0.716 -0.277 0.641 80 79 87
392.5679 164.9243 -17.1945 -0.841 -0.490 -0.232 68 68 76
388.9843 155.4000 -17.9242 -0.568 0.807 -0.163 42 39 46
371.6854 143.4784 -17.3715 -0.821 0.126 0.556 67 67 69
374.9757 144.2801 -17.6520 -0.577 -0.372 0.727 64 64 64
342.3513 117.4254 -17.1328 -0.536 -0.710 0.457 12 87 87
367.5833 119.5051 -19.7707 -0.838 0.248 -0.486 39 55 65
357.1141 86.3374 -22.5417 -0.530 -0.796 -0.291 67 64 75
354.9277 78.4055 -23.2407 -0.578 0.239 0.780 66 61 68
330.2926 51.0382 -23.6968 0.044 0.002 0.999 73 66 74
343.6831 5.7043 -30.6534 -0.881 0.191 0.433 51 45 57
339.3277 3.9285 -30.3675 -0.537 0.269 0.800 49 41 60
191.1730 -23.7115 -16.7244 -0.998 0.027 0.052 165 173 184
178.1943 -24.8947 -15.3810 -0.472 -0.881 0.023 198 210 232
179.1154 -25.4135 -15.5485 -0.467 -0.884 0.020 202 213 235
179.0986 -25.6265 -15.5721 -0.378 -0.925 -0.049 197 208 227
173.6385 -29.3701 -15.3953 -0.454 -0.890 -0.047 156 167 185
176.0623 -30.5237 -15.8107 -0.455 -0.888 0.068 160 171 189
415.1059 243.8014 -11.1507 -0.974 -0.117 -0.193 60 60 60
407.3838 233.2915 -11.5051 -0.799 -0.599 0.051 88 88 88
404.4700 221.2801 -12.6001 -0.489 0.599 0.634 53 54 58
407.0553 218.7975 -13.1984 -0.453 -0.891 0.039 47 52 58
412.0724 221.1912 -13.4980 -0.712 -0.700 -0.049 32 37 43
408.7463 215.6901 -13.7671 -0.752 0.590 -0.294 58 62 71
408.5915 214.7533 -13.8609 -0.287 -0.956 -0.058 54 58 67
377.3936 189.7593 -13.2058 -0.848 0.294 -0.442 58 58 60
379.5290 190.3065 -13.3897 -0.816 0.545 -0.191 56 56 58
411.6101 204.8415 -15.3975 -0.692 -0.389 0.608 70 70 72
398.3098 182.4254 -16.5234 -0.973 0.227 0.036 79 80 84
