ply
format ascii 1.0
element vertex 854
property float x
property float y
property float z
property float nx
property float ny
property float nz
property uchar diffuse_red
property uchar diffuse_green
property uchar diffuse_blue
end_header
367.3201 196.1469 8.8841 0.321 -0.914 -0.249 79 75 100
69.3065 54.8237 3.6515 -0.684 0.089 0.724 96 95 126
-10.8257 199.1411 30.1248 -0.946 0.198 0.255 36 29 36
18.0527 232.9313 33.6562 -0.645 0.082 0.760 117 105 134
-4.1213 125.9491 18.5029 0.140 -0.898 0.418 85 91 131
454.2782 290.5797 17.4830 0.025 -0.229 0.973 86 85 91
428.0113 262.5447 14.6855 0.048 -0.301 0.952 81 79 92
423.5023 259.1204 14.4184 0.014 -0.251 0.968 76 74 87
375.9405 230.8994 12.8139 -0.231 -0.208 0.950 73 71 86
397.9126 237.7347 12.6029 0.069 -0.342 0.937 86 81 103
400.4257 236.9054 12.3314 -0.030 -0.317 0.948 77 73 96
386.2810 224.0929 11.1757 -0.137 -0.941 -0.308 71 68 89
384.3955 221.2601 10.8489 0.285 -0.934 0.217 73 72 87
372.4977 214.7270 10.5284 -0.227 -0.968 -0.110 72 71 85
371.3361 206.8064 9.3790 -0.240 -0.953 -0.184 81 80 94
371.0909 205.7886 9.2368 -0.013 -0.883 -0.470 80 79 95
381.2061 208.4923 9.0716 -0.349 -0.847 -0.401 70 67 88
383.9954 208.8122 8.9607 -0.318 -0.858 0.403 73 69 92
374.8904 203.8702 8.7243 -0.072 -0.996 -0.056 79 75 100
30.6386 47.7872 4.5084 -0.921 -0.390 -0.012 80 78 99
-7.0390 116.6206 16.9411 -0.279 -0.017 0.960 4 252 251
386.7586 306.4698 22.6595 -0.872 -0.175 -0.457 174 173 199
432.8541 265.0298 13.6697 -0.235 -0.388 0.891 79 77 90
416.7610 249.1510 12.2039 0.048 -0.373 0.927 95 90 113
383.1340 230.4775 11.3421 0.105 -0.364 0.925 90 85 108
388.8160 226.2795 10.3721 -0.134 -0.941 -0.312 68 65 83
382.6166 218.5044 9.5558 -0.236 -0.945 -0.225 66 65 79
365.9880 204.3854 8.3885 -0.500 -0.854 -0.146 86 85 101
381.2111 210.3338 8.3986 -0.295 -0.906 -0.303 77 76 94
379.8615 208.8050 8.2457 -0.238 -0.949 -0.207 69 67 88
381.2197 208.4916 8.1185 -0.238 -0.949 -0.207 73 70 91
375.0081 203.9147 7.7883 -0.072 -0.996 -0.056 75 71 96
174.0181 104.4830 4.4851 -0.842 -0.081 0.534 56 54 75
425.5767 306.1137 19.1438 -0.561 -0.449 0.695 89 88 102
420.5124 278.3284 15.2817 -0.295 -0.239 0.925 60 58 69
446.1335 282.5692 14.3831 0.125 -0.337 0.933 65 63 77
373.6051 230.7391 10.9566 -0.235 -0.189 0.953 72 71 85
376.1059 229.0042 10.5467 -0.547 -0.812 -0.206 100 96 122
383.2265 223.6169 9.3127 -0.120 -0.955 -0.272 69 67 82
390.3663 226.0305 9.2469 -0.132 -0.941 -0.313 70 69 83
380.9319 220.5908 8.9964 -0.210 -0.953 -0.217 71 70 83
383.9429 221.0451 8.8842 0.301 -0.911 0.281 69 68 83
373.9561 214.4666 8.4961 -0.143 -0.987 -0.080 68 67 83
373.0446 213.1071 8.3469 0.060 -0.993 -0.104 70 69 85
375.4866 212.3704 8.0902 -0.281 -0.942 -0.183 74 73 89
387.2681 215.8833 7.9113 -0.924 -0.374 0.077 87 86 102
379.7826 211.5398 7.7084 -0.681 -0.732 0.017 88 87 105
381.6299 210.5163 7.4443 -0.295 -0.906 -0.303 68 66 87
379.5552 208.6615 7.2905 -0.617 -0.729 0.296 67 65 86
381.0642 199.3740 5.8078 0.304 -0.933 0.190 50 46 71
393.6249 202.0009 5.4494 -0.879 -0.470 0.078 50 46 69
355.6951 283.9461 18.9468 -0.835 -0.108 -0.540 73 72 87
424.4081 280.4934 14.2338 -0.349 -0.131 0.928 56 53 68
429.4450 266.7377 11.8886 -0.191 -0.318 0.929 63 63 73
418.4562 259.9240 11.5514 -0.224 -0.376 0.899 71 71 81
371.5522 228.7235 9.7987 -0.233 -0.190 0.954 76 72 93
377.6725 230.7831 9.7295 -0.112 -0.335 0.935 74 70 96
385.1404 222.5776 8.0576 -0.298 -0.392 0.870 70 70 82
378.5830 214.7306 7.2964 0.296 -0.868 -0.398 72 71 89
382.4101 214.6059 7.0439 -0.944 -0.311 0.110 73 72 90
375.1626 209.4388 6.7219 -0.556 -0.759 0.338 75 73 94
376.9290 209.3168 6.5958 -0.600 -0.727 0.333 67 65 86
417.9546 284.1580 14.0322 -0.854 -0.318 -0.413 65 62 81
400.6996 254.0415 10.7035 -0.106 -0.297 0.949 66 66 78
377.7049 230.8049 8.7395 0.019 -0.366 0.931 41 37 61
380.4389 231.1623 8.6211 0.012 -0.353 0.936 49 45 71
421.7246 246.2178 8.2468 -0.281 -0.803 -0.525 81 79 94
385.3476 222.6749 7.0732 -0.501 -0.406 0.764 64 63 78
363.8056 211.5756 6.7940 0.247 -0.923 0.295 67 65 85
370.7050 212.9476 6.5641 0.246 -0.949 -0.198 77 75 96
377.8684 212.5229 6.0549 -0.932 -0.336 0.139 66 64 85
372.2344 208.1054 5.7603 -0.594 -0.732 0.334 61 59 81
-11.0479 221.6373 31.1771 -0.853 0.034 0.520 40 36 51
49.1667 195.2665 23.5332 0.313 -0.354 0.881 79 76 109
368.4186 198.3186 3.6453 -0.449 -0.862 -0.237 76 72 97
363.2012 195.1765 3.5236 -0.807 -0.567 0.163 78 74 99
361.3086 192.6343 3.2769 -0.733 -0.579 0.357 61 57 82
361.7689 191.9751 3.1523 -0.733 -0.579 0.357 55 51 76
360.3327 188.8154 2.7873 -0.484 -0.728 -0.486 57 53 76
117.2396 486.7831 60.1842 -0.147 -0.893 0.425 146 148 187
119.0862 488.3020 60.2809 -0.129 -0.915 0.383 147 144 192
354.3473 312.1547 19.8753 -0.093 -0.996 -0.012 91 87 78
383.5386 303.3329 16.7211 -0.028 -0.789 0.614 66 66 77
385.1564 303.0950 16.5821 -0.049 -0.783 0.620 68 68 80
377.9240 292.1712 15.4936 -0.171 -0.901 0.398 76 71 73
378.3288 291.1900 15.3273 -0.199 -0.945 0.259 76 70 71
380.4232 291.2700 15.2027 -0.209 -0.944 0.254 78 72 72
382.7800 291.5074 15.0835 -0.207 -0.944 0.256 83 77 78
384.7919 291.5229 14.9551 -0.220 -0.944 0.246 84 81 84
389.5018 271.5899 11.8058 -0.082 -0.690 0.719 76 73 90
427.1681 259.9142 7.6941 -0.123 -0.356 0.926 95 92 109
375.6526 228.7999 6.6012 -0.115 -0.344 0.932 96 91 113
375.2744 226.6359 6.3171 -0.338 -0.022 0.941 86 83 102
410.3141 239.6428 5.8969 -0.010 -0.999 0.036 59 56 73
403.9691 234.5235 5.5787 -0.069 -0.971 -0.227 57 54 73
362.3260 192.2032 2.2462 -0.727 -0.603 0.328 59 55 80
357.9712 187.8071 1.9019 -0.317 -0.790 -0.525 56 52 75
116.0391 484.3809 58.7951 -0.213 -0.835 0.507 157 157 191
375.9702 323.4843 18.9263 -0.285 -0.958 0.017 71 67 55
379.5771 302.0903 15.6747 -0.911 -0.082 -0.403 66 65 80
329.3827 244.3787 10.8706 0.323 -0.713 0.623 71 71 82
334.4818 246.3369 10.8088 0.319 -0.716 0.621 71 69 82
364.6687 262.9458 11.1491 0.268 -0.777 0.569 71 69 82
419.2305 259.2445 7.0153 -0.103 -0.366 0.925 65 63 77
428.8180 260.7590 6.5938 -0.133 -0.359 0.924 95 93 107
372.6022 225.3268 5.3260 -0.338 -0.022 0.941 74 71 90
373.2721 224.6769 5.1901 -0.311 -0.087 0.946 71 68 85
431.5240 252.0751 5.1917 -0.269 -0.926 -0.264 70 67 84
374.4490 214.6861 3.7052 -0.312 -0.315 0.896 65 61 88
374.0631 213.5670 3.5732 -0.286 -0.328 0.900 78 74 101
369.4400 210.4960 3.4468 -0.334 -0.461 0.822 85 81 108
358.5268 204.5551 3.3327 -0.617 -0.782 0.087 86 82 109
361.1342 188.2856 0.8689 0.314 -0.886 -0.340 54 52 74
18.7817 39.2405 2.5462 -0.012 -0.293 0.956 59 60 81
20.4909 39.6946 2.4970 0.187 -0.692 0.697 55 56 77
373.0937 304.2969 15.2912 0.119 -0.739 0.663 68 65 85
384.8543 278.3149 10.8860 -0.161 -0.923 0.350 62 60 73
397.7921 283.5540 10.7412 -0.048 -0.849 0.526 65 62 79
408.1286 282.3042 9.8700 -0.036 -0.821 0.569 78 76 97
418.9785 283.6216 9.3210 -0.463 -0.240 0.853 69 66 95
416.0316 280.7593 9.1220 0.067 -0.781 0.620 68 67 97
414.3728 278.6344 8.9385 0.231 -0.859 0.457 70 67 95
416.6632 278.7153 8.7952 0.237 -0.889 0.392 71 67 92
421.6790 262.7747 6.2409 -0.060 -0.490 0.870 55 53 67
420.4413 261.0031 6.0782 -0.029 -0.478 0.878 52 50 64
375.8626 231.9135 5.0427 -0.483 -0.087 0.871 95 93 107
378.0270 227.9966 4.3521 -0.323 -0.185 0.928 75 72 91
376.9248 217.7392 3.0007 -0.425 -0.335 0.841 62 59 86
21.1525 39.5832 2.2430 0.174 -0.684 0.709 63 63 87
196.4088 416.0146 41.6390 -0.468 -0.260 0.845 79 73 105
371.0460 324.2487 17.0443 -0.003 -0.968 -0.251 69 64 59
385.2636 280.9724 10.1302 -0.175 -0.882 0.437 59 57 72
406.3222 284.9253 9.2247 -0.055 -0.865 0.499 72 71 89
424.2820 292.8278 9.0741 0.008 -0.900 0.436 76 74 95
376.6583 262.0663 8.1283 -0.448 -0.715 0.537 70 68 92
418.8731 283.5870 8.1783 -0.461 -0.243 0.854 69 66 93
403.3900 272.5313 7.7261 0.067 -0.791 0.608 67 64 91
422.3578 278.2950 7.2127 0.353 -0.905 0.238 68 63 83
386.1581 224.0339 2.2578 -0.366 -0.106 0.925 80 75 105
370.1596 211.7512 1.6727 -0.286 -0.328 0.900 63 60 87
414.8238 223.4100 0.2015 -0.408 -0.397 0.822 78 75 96
369.4444 324.5488 16.0374 0.026 -0.976 -0.217 66 60 61
395.5829 279.9184 8.1663 0.253 -0.895 0.367 70 67 88
416.6465 286.0089 7.5158 -0.696 -0.644 0.318 65 63 85
419.0816 284.9470 7.2015 -0.454 -0.244 0.857 66 64 88
407.1150 272.2863 6.3258 0.359 -0.902 0.239 66 61 83
422.6186 261.0159 3.7147 -0.983 -0.158 -0.091 65 63 77
422.7811 259.9706 3.5618 -0.975 -0.180 -0.133 69 67 81
417.1536 254.8738 3.2660 -0.968 -0.203 -0.149 85 83 97
413.9835 252.1705 3.1221 -0.969 -0.185 -0.162 104 102 116
411.7493 249.9555 2.9787 -0.972 -0.190 -0.136 107 105 119
408.1984 236.5515 1.4130 -0.521 -0.056 0.852 79 75 99
411.5775 221.9563 -0.7991 -0.579 -0.238 0.780 98 93 113
342.5432 180.4401 -1.5847 0.103 -0.989 -0.107 65 63 85
183.6407 395.5018 37.5987 -0.403 -0.377 0.834 81 74 106
382.9933 298.1130 10.3822 -0.472 -0.802 0.366 64 58 84
414.2529 299.6451 8.3582 -0.074 -0.938 0.337 62 59 81
403.8638 287.2148 7.4391 -0.303 -0.949 0.088 87 84 105
414.3104 283.4875 6.1967 -0.443 -0.305 0.843 73 71 93
415.6295 245.4152 1.0190 0.196 -0.548 0.813 84 81 100
406.5074 237.8154 0.6545 -0.281 -0.478 0.832 117 114 132
410.4942 238.6938 0.4876 -0.299 -0.492 0.818 112 109 128
399.0024 214.4328 -1.9326 0.267 -0.686 0.676 85 81 98
111.4850 481.8462 53.1523 -0.499 -0.576 0.648 24 25 42
362.7950 321.2859 13.7703 -0.824 -0.096 0.558 56 52 58
403.9343 310.1918 9.3238 -0.637 -0.594 0.492 67 63 88
404.6260 309.3125 9.1578 -0.637 -0.594 0.492 68 64 89
401.3503 305.9368 8.9510 -0.205 -0.553 0.808 69 67 91
403.5489 306.0162 8.8019 0.386 -0.832 0.399 72 70 94
423.4596 313.1186 8.2924 -0.201 -0.381 0.902 91 87 110
411.4630 298.0058 7.1727 -0.070 -0.949 0.306 78 74 99
406.6061 286.3997 5.9966 -0.303 -0.948 0.095 64 62 85
398.9039 271.2570 4.5613 0.078 -0.789 0.609 106 104 125
407.6925 273.8217 4.2613 0.283 -0.937 0.204 110 105 125
418.5551 275.0861 3.6396 -0.236 -0.831 0.503 57 52 72
408.2532 251.4691 1.2769 -0.290 -0.530 0.797 67 64 81
405.8662 241.6945 0.1628 0.129 -0.466 0.875 63 61 75
112.4582 481.8214 51.9562 -0.326 -0.943 -0.066 33 34 52
121.5633 489.1357 52.2337 0.092 -0.929 -0.358 129 132 167
245.3868 399.9435 31.5074 -0.893 -0.159 0.421 57 48 69
359.7533 309.8162 11.3580 -0.038 -0.973 -0.229 63 59 74
408.1125 296.0295 5.9966 -0.000 -0.932 0.364 76 72 98
411.4032 296.7364 5.8454 0.002 -0.931 0.366 89 85 112
414.2499 289.6419 4.7139 -0.212 -0.748 0.629 78 75 103
406.6453 273.2621 3.1483 0.283 -0.937 0.204 100 95 115
410.8861 257.2420 0.7547 -0.929 -0.269 -0.254 59 57 71
413.0262 255.0126 0.3072 -0.987 -0.159 -0.029 58 55 72
408.4018 247.2177 -0.3636 -0.086 -0.565 0.821 59 56 73
404.7011 244.3006 -0.4692 -0.679 -0.081 0.730 60 58 74
404.0880 241.8778 -0.7385 -0.457 -0.648 0.609 59 57 71
325.6399 159.7267 -5.6142 -0.098 -0.982 0.159 77 72 92
365.8356 312.7922 10.1585 -0.046 -0.966 -0.255 67 64 85
346.6536 288.2263 8.4542 0.259 -0.805 0.533 70 62 88
381.1730 272.8026 3.8865 -0.901 -0.350 -0.255 69 66 96
378.0597 269.8243 3.7390 -0.911 -0.339 -0.235 82 79 110
378.9065 269.1641 3.5909 -0.936 -0.278 -0.217 89 86 115
379.5413 268.3817 3.4430 -0.916 -0.280 -0.286 84 81 110
379.8781 267.4292 3.2958 -0.916 -0.280 -0.286 79 76 103
410.4512 280.1700 2.6304 -0.410 -0.658 0.631 78 76 97
402.6234 274.5639 2.5006 -0.419 -0.523 0.742 76 74 94
405.3961 272.5901 2.0396 0.285 -0.935 0.213 55 50 70
408.3123 273.0342 1.8774 0.128 -0.896 0.425 46 41 62
416.8098 272.9942 1.2340 -0.058 -0.728 0.683 62 57 77
421.3106 273.0766 0.9064 0.126 -0.813 0.568 63 58 78
422.2538 272.4071 0.7499 0.298 -0.792 0.533 64 59 78
423.5495 271.9260 0.5909 0.297 -0.796 0.527 65 61 78
411.5135 258.6970 -0.1986 -0.922 -0.245 -0.300 58 56 70
410.5251 257.0666 -0.3331 -0.926 -0.261 -0.271 60 58 72
394.6941 240.3674 -1.2819 -0.252 -0.562 0.788 62 59 78
391.8452 236.8698 -1.5157 -0.219 -0.581 0.784 47 44 61
397.0011 238.3843 -1.7091 -0.367 -0.760 0.537 47 45 59
362.4418 179.5873 -6.6408 -0.860 -0.259 0.439 75 72 93
345.1325 171.8926 -6.3257 -0.518 -0.153 0.842 75 72 93
445.2228 194.7675 -10.9157 -0.256 -0.934 -0.248 70 68 92
120.0519 489.5759 50.1067 0.100 -0.927 -0.362 141 142 173
121.3648 489.7479 50.0281 0.100 -0.927 -0.362 135 138 170
298.5896 349.8787 18.8379 -0.405 -0.240 0.882 48 39 44
316.3415 364.5694 19.3356 -0.405 -0.201 0.892 48 39 44
315.3104 362.0554 19.0971 -0.405 -0.197 0.893 49 39 45
406.0909 301.2492 4.4883 -0.262 -0.567 0.781 75 69 97
392.9532 267.9910 1.2951 0.072 -0.796 0.601 63 60 78
404.3024 272.0044 0.9345 0.285 -0.935 0.213 61 57 80
411.1681 272.2818 0.4449 -0.274 -0.921 0.276 95 91 114
412.4997 271.8388 0.2873 -0.274 -0.921 0.276 109 105 127
428.4405 275.7443 -0.4377 0.326 -0.846 0.421 65 62 79
397.1449 238.4602 -2.7518 -0.372 -0.763 0.528 54 52 66
333.7912 161.3523 -7.6422 0.234 -0.945 0.230 79 76 97
53.2722 514.0945 57.1933 0.402 -0.872 0.279 101 97 114
55.6859 514.8825 57.1038 0.370 -0.873 0.318 44 39 59
56.9323 515.3996 57.0713 0.370 -0.873 0.318 36 31 51
117.6030 490.1955 49.2243 0.099 -0.927 -0.360 26 25 59
122.4276 492.8717 49.1823 0.102 -0.927 -0.360 135 138 172
310.9892 366.1136 18.7723 -0.778 -0.512 0.365 46 34 44
315.5377 363.9608 18.1512 -0.432 -0.220 0.875 54 42 48
378.4779 317.6270 7.5003 -0.223 -0.945 -0.239 66 60 84
406.2787 329.6227 6.8326 0.110 -0.885 -0.453 67 58 85
401.4575 308.8035 4.6181 -0.517 -0.364 0.775 85 81 106
395.2248 299.6890 3.9688 0.146 -0.759 0.634 84 80 105
397.8871 300.0692 3.8093 0.146 -0.759 0.634 69 65 90
399.3128 299.6747 3.6495 0.377 -0.841 0.387 59 55 80
416.3495 290.9501 1.2412 -0.624 -0.766 -0.158 100 95 127
420.2153 289.4457 0.7538 -0.735 -0.662 0.149 65 61 86
415.7985 276.0283 -0.5716 -0.334 -0.924 -0.185 93 89 115
424.5373 273.6670 -1.5441 0.307 -0.801 0.514 65 62 79
427.1239 273.8691 -1.7199 0.237 -0.819 0.522 59 57 71
403.1515 245.6795 -3.3633 -0.888 -0.251 -0.386 65 62 81
361.8117 186.7709 -7.4778 0.302 -0.926 0.228 69 67 88
370.4580 189.5109 -7.8087 0.302 -0.926 0.228 68 66 87
379.4185 192.3503 -8.1516 0.302 -0.926 0.228 74 72 94
337.3524 166.4730 -8.1020 -0.316 -0.931 -0.183 105 102 123
403.4056 302.2503 2.4827 0.420 -0.853 0.311 78 74 101
386.6313 273.7311 0.3131 -0.158 -0.933 -0.324 72 67 96
359.7799 201.4981 -6.4165 -0.742 -0.378 0.553 100 93 111
361.1330 201.2144 -6.5581 -0.712 -0.382 0.589 93 88 108
359.2255 199.4694 -6.6212 -0.705 -0.391 0.592 88 83 103
356.6146 194.8027 -6.9868 -0.747 -0.443 0.497 83 78 98
35.7331 52.8806 0.9617 -0.702 -0.299 -0.647 104 101 120
361.9692 186.8235 -8.3872 0.302 -0.937 0.176 82 79 100
378.9513 192.1435 -9.0763 0.303 -0.937 0.177 96 92 115
349.2556 174.2752 -8.9207 -0.916 -0.258 0.308 81 77 100
339.4657 169.5930 -8.7214 -0.782 -0.137 0.608 85 82 103
53.2038 511.4384 54.6561 0.405 -0.876 0.261 48 43 63
397.2904 298.5040 1.3508 0.440 -0.846 0.302 102 98 125
383.7486 225.8481 -6.3302 -0.964 -0.068 -0.255 100 90 101
374.3624 220.3666 -6.2385 -0.984 -0.012 -0.179 83 74 89
359.2276 203.9362 -7.0068 -0.273 -0.744 0.610 79 72 90
360.1893 203.4736 -7.1398 -0.273 -0.744 0.610 79 72 90
337.9679 180.8493 -8.0869 -0.790 -0.540 0.292 121 118 136
384.4397 193.5126 -10.2877 0.292 -0.938 0.185 94 90 113
335.2897 166.3910 -9.6168 -0.583 -0.802 -0.134 106 103 124
336.2693 166.0150 -9.7408 -0.573 -0.809 -0.135 106 103 124
307.3651 361.5539 15.0172 -0.313 -0.853 -0.418 78 65 56
392.6958 276.1211 -2.0912 -0.719 -0.376 -0.584 82 76 102
376.0831 265.3773 -2.0136 -0.293 -0.597 0.746 89 83 109
382.5467 238.4430 -5.7411 -0.828 -0.302 0.473 118 115 124
350.3145 187.7721 -9.1347 -0.488 -0.140 0.861 125 124 138
343.6292 182.4269 -9.2248 0.209 -0.962 -0.176 121 117 133
359.5528 185.7924 -10.1231 0.279 -0.960 -0.034 95 90 110
337.6797 168.8517 -10.3530 -0.522 -0.822 -0.227 87 83 106
337.8188 168.1370 -10.4492 -0.529 -0.826 -0.196 96 93 114
233.1273 113.9966 -8.3479 -0.974 -0.185 -0.133 81 77 102
381.8672 229.9335 -7.7087 -0.908 -0.124 -0.400 101 89 103
381.7526 228.8727 -7.8233 -0.907 -0.128 -0.400 100 87 101
363.1334 186.4237 -11.2473 -0.075 -0.738 0.671 93 88 110
349.5199 175.9299 -11.3476 -0.547 -0.232 0.804 66 60 86
115.6679 485.1659 43.0512 0.040 -0.736 0.676 117 115 154
375.2621 333.7278 3.7845 -0.635 -0.771 0.059 79 74 97
397.6718 301.4302 -1.8187 -0.929 -0.345 0.136 87 84 113
375.8617 236.0818 -7.5085 -0.882 -0.457 0.116 119 116 123
376.2687 235.2633 -7.6370 -0.882 -0.457 0.116 122 119 126
377.6052 234.9181 -7.7891 -0.876 -0.465 0.127 118 113 122
378.7758 234.4869 -7.9372 -0.818 -0.546 0.182 115 103 122
385.3153 233.6691 -8.5813 -0.893 -0.370 0.255 104 91 109
114.9768 484.0138 41.8365 0.040 -0.736 0.676 127 125 166
246.4111 327.5909 12.8936 0.115 -0.883 -0.454 87 72 70
401.6329 303.9491 -3.0380 -0.935 -0.305 0.183 90 86 119
391.5325 274.3505 -5.5287 -0.309 -0.755 0.579 65 59 85
401.3022 259.0423 -8.0971 -0.246 -0.861 0.445 42 37 67
373.9194 241.3102 -7.7679 -0.886 -0.249 -0.391 53 49 75
374.6958 239.6279 -8.0248 -0.842 -0.269 0.468 62 59 76
377.2391 236.7955 -8.5628 -0.878 -0.462 0.127 118 115 122
377.6516 235.9761 -8.6908 -0.878 -0.462 0.127 115 112 121
378.0633 235.1584 -8.8186 -0.878 -0.462 0.127 116 111 121
362.6187 187.8769 -12.8563 -0.521 -0.378 0.765 106 102 119
348.6512 175.5495 -13.0603 -0.541 -0.235 0.807 114 110 135
313.0782 390.6303 13.1191 -0.966 0.026 0.258 95 84 68
389.5844 274.4341 -6.4602 -0.309 -0.755 0.579 63 57 83
362.2448 187.7081 -13.7550 -0.534 -0.374 0.758 147 142 162
332.3018 166.6527 -13.5061 -0.980 -0.124 0.153 140 137 158
375.8592 264.2406 -7.4784 -0.719 -0.250 0.649 75 69 95
392.0500 268.8487 -8.3976 -0.134 -0.903 -0.409 86 81 105
111.5923 486.3961 38.9675 0.109 -0.711 0.695 40 38 57
177.9348 402.4803 24.0062 -0.950 -0.308 -0.043 67 46 77
320.0151 365.9921 7.3943 0.077 -0.913 -0.401 125 116 145
356.6740 178.7334 -16.0504 0.313 -0.909 0.274 72 67 90
22.6281 417.3575 38.5688 -0.173 -0.088 0.981 97 86 116
114.2364 484.4059 37.3723 0.108 -0.708 0.698 139 139 175
308.8354 381.8104 8.8903 0.117 -0.223 0.968 45 40 38
310.7393 380.3026 8.5583 0.003 -0.104 0.995 69 66 73
393.1111 269.4942 -10.6314 -0.120 -0.902 -0.415 41 38 63
110.0158 483.5476 36.5247 0.166 -0.778 0.606 32 31 46
324.1915 383.2120 6.4187 0.344 -0.420 0.840 119 122 139
395.8768 269.9081 -11.9497 -0.780 -0.415 0.468 135 139 159
341.1456 198.2493 -14.3763 0.215 -0.837 0.503 116 114 135
320.8733 186.3519 -13.7519 -0.753 -0.260 0.604 131 130 148
328.2561 166.5016 -16.4946 0.280 -0.958 0.069 94 86 109
245.6500 407.2086 14.9541 0.259 -0.762 0.594 68 65 71
305.6241 365.8685 5.1455 0.364 -0.436 0.823 110 116 127
305.1705 349.8126 3.5477 0.286 -0.344 0.894 114 116 106
380.4732 328.0506 -5.6888 -0.833 -0.358 0.421 132 124 145
361.4765 195.9703 -17.4112 -0.130 -0.824 0.551 73 71 95
362.7844 195.6612 -17.5646 -0.130 -0.824 0.551 70 67 94
366.2439 196.2823 -17.8234 -0.217 -0.819 0.531 69 66 94
365.4673 195.0658 -17.8753 -0.943 -0.299 0.146 69 66 92
113.0365 480.0740 33.6096 0.073 -0.843 0.533 134 134 169
69.9529 338.7599 23.5065 -0.929 -0.308 0.203 120 119 150
235.9287 416.3167 15.6105 -0.937 0.047 -0.346 64 50 63
243.2737 402.5933 13.5406 0.017 -0.830 0.558 78 78 81
379.1536 337.1523 -5.8538 -0.881 -0.428 -0.200 142 137 157
372.5818 329.5296 -5.9976 0.034 -0.628 0.777 146 141 161
401.7462 304.3230 -11.2796 -0.899 0.069 0.432 65 61 78
356.4162 202.6071 -17.1995 -0.848 -0.315 -0.426 55 54 70
355.5118 200.4001 -17.3354 -0.820 -0.345 -0.456 50 50 61
357.8994 196.1503 -17.9870 -0.130 -0.824 0.551 59 57 79
359.1975 195.8427 -18.1405 -0.130 -0.824 0.551 61 59 81
357.6858 189.9789 -18.5858 -0.474 -0.239 0.847 105 100 119
365.8217 190.8488 -19.2668 0.255 -0.898 -0.359 114 107 123
46.5862 488.4903 39.6594 0.328 -0.601 0.729 81 73 96
70.1715 339.6031 22.7482 -0.875 -0.387 0.290 118 115 143
233.8804 396.6996 12.6953 0.144 -0.913 0.381 120 121 123
251.9087 404.0023 11.6881 -0.285 -0.809 0.514 91 95 93
242.8806 358.7242 8.0961 -0.800 -0.103 0.591 89 87 74
265.9948 359.1854 5.9287 -0.779 0.158 0.607 93 103 86
238.0226 323.1075 5.0558 -0.081 0.041 0.996 94 104 94
230.8353 314.4706 4.8938 -0.079 0.041 0.996 90 103 95
206.5448 283.7738 4.1981 -0.075 0.039 0.996 68 84 78
405.2594 245.7600 -18.5667 -0.907 -0.159 0.390 108 104 119
404.0400 243.0048 -18.7212 -0.905 -0.160 0.395 101 97 112
368.4646 217.5554 -17.8201 -0.993 0.038 0.113 98 96 117
365.2528 212.2287 -18.0369 -0.964 -0.090 0.251 67 66 85
365.3131 211.3181 -18.1323 -0.964 -0.090 0.251 66 64 85
356.9317 195.7158 -18.8655 -0.130 -0.824 0.551 93 91 113
359.5244 195.0999 -19.1743 -0.130 -0.824 0.551 107 105 127
356.3971 189.4177 -19.4342 -0.479 -0.242 0.844 133 125 144
357.1526 188.0327 -19.6428 0.271 -0.932 -0.240 124 115 134
344.2838 176.0675 -19.5885 0.020 -0.964 -0.265 97 88 105
353.1890 174.8297 -20.5628 -0.856 -0.516 -0.032 85 77 100
44.7771 482.3981 38.1762 0.204 -0.705 0.679 68 58 81
-6.4906 240.1237 19.7588 -0.364 -0.310 0.878 34 30 44
109.5324 481.5331 31.8093 0.078 -0.858 0.508 29 30 51
-2.7437 129.1461 8.6800 -0.208 -0.764 0.611 70 53 71
232.9265 418.7896 13.7781 -0.016 -0.960 -0.281 39 32 39
236.5936 415.6918 13.1231 -0.974 0.112 -0.198 76 70 76
229.9737 399.4395 12.1963 -0.922 -0.166 -0.349 138 132 138
228.3302 395.4710 11.9726 -0.080 -0.784 0.615 126 121 127
247.2817 400.4673 10.6161 0.056 -0.831 0.553 87 90 83
263.4059 359.8661 5.1314 -0.871 0.192 0.453 87 99 85
137.7010 210.7233 2.9288 -0.065 -0.620 0.782 78 82 85
404.4472 283.2604 -15.9507 -0.564 -0.154 0.811 118 116 140
402.6353 277.3739 -16.3432 -0.453 -0.735 -0.504 70 66 91
394.8884 258.0021 -17.4619 -0.616 -0.584 -0.528 55 50 73
387.9879 240.2646 -18.5049 -0.391 -0.920 0.040 83 76 92
392.2105 241.3456 -18.8103 -0.138 -0.948 0.286 99 93 109
396.1772 242.2830 -19.1047 -0.884 -0.136 0.446 114 109 124
415.8584 247.7794 -20.4837 -0.900 -0.109 0.422 122 118 135
371.1395 223.7184 -18.4677 -0.896 0.127 0.425 97 94 111
366.8032 218.6845 -18.5329 -0.955 -0.099 0.280 123 120 139
368.0783 218.3341 -18.6905 -0.959 -0.155 0.236 126 124 145
366.9389 216.8262 -18.7255 -0.955 -0.099 0.280 117 116 134
353.5768 204.0049 -18.6669 -0.931 -0.234 0.279 97 95 116
357.5972 194.2489 -19.9990 -0.155 -0.834 0.529 118 118 142
358.3090 193.6868 -20.1223 -0.845 -0.395 0.361 129 127 151
356.2621 190.2066 -20.2597 -0.880 -0.471 -0.059 131 123 144
354.6674 188.6682 -20.2535 -0.889 -0.424 -0.171 127 120 138
347.6789 175.8237 -20.8156 -0.001 -0.968 -0.253 85 77 98
350.7277 176.2471 -21.0705 -0.459 -0.867 -0.195 71 63 86
352.6055 176.1929 -21.2580 -0.455 -0.871 -0.187 76 68 92
351.8828 175.0978 -21.2936 -0.853 -0.516 -0.081 83 75 98
-3.1091 128.6416 8.3325 -0.219 -0.599 0.770 62 45 63
-3.1329 127.9549 8.2698 -0.067 -0.801 0.595 64 47 65
237.5952 441.8897 14.3223 -0.263 -0.797 0.543 41 34 42
234.1497 416.6763 12.2738 -0.370 -0.522 0.769 123 120 122
229.8059 401.3356 11.2485 -0.932 -0.044 -0.359 98 98 98
228.6765 398.0014 11.0438 -0.913 -0.075 -0.401 109 108 109
227.3661 394.4617 10.8376 -0.088 -0.794 0.602 94 94 94
228.6254 394.2094 10.6898 -0.088 -0.794 0.602 82 87 83
229.8873 393.9567 10.5418 -0.088 -0.794 0.602 89 96 91
230.7577 393.2082 10.3854 -0.081 -0.790 0.607 107 114 109
270.6710 346.9330 2.0790 -0.535 -0.141 0.833 66 75 66
277.6945 328.3536 -0.3708 -0.948 -0.311 0.060 74 85 75
292.3105 340.1675 -0.6894 -0.877 -0.286 0.386 68 79 69
303.5594 344.2980 -1.4045 -0.603 -0.531 0.595 94 106 86
317.5757 355.2260 -1.7481 -0.004 -0.077 0.997 98 110 91
324.2456 359.5685 -1.9928 0.071 -0.122 0.990 109 118 101
387.8990 327.8919 -11.2513 -0.909 -0.345 0.231 131 124 140
392.7121 325.5973 -11.9419 -0.902 -0.401 0.157 116 107 134
393.0871 323.0682 -12.2182 -0.917 -0.291 0.272 93 85 109
394.8114 322.8466 -12.4087 -0.917 -0.309 0.251 80 70 95
402.6156 319.7615 -13.4683 -0.884 -0.427 -0.188 78 68 92
406.1613 320.7093 -13.7272 -0.862 -0.492 -0.125 80 70 94
395.8435 311.2784 -13.6055 -0.905 -0.240 0.350 96 86 110
405.3992 306.7406 -14.9748 -0.751 -0.035 0.659 71 63 86
399.5070 301.7513 -14.8678 -0.895 0.082 0.438 73 65 88
389.8535 278.4263 -16.1270 -0.802 -0.587 0.107 100 98 122
383.7643 262.0879 -17.0752 -0.212 -0.760 -0.615 84 79 102
394.0385 257.5622 -18.5141 -0.600 -0.601 -0.528 102 97 119
388.0445 241.3573 -19.4590 -0.029 -0.910 0.413 74 65 82
389.7665 241.1749 -19.6456 -0.123 -0.948 0.295 90 80 97
391.7192 241.1053 -19.8442 -0.138 -0.948 0.286 112 102 119
370.2631 221.3323 -19.6065 -0.896 0.127 0.425 98 95 112
366.5325 218.5558 -19.5025 -0.955 -0.099 0.280 121 118 139
367.1851 217.9062 -19.6282 -0.967 -0.091 0.240 140 138 159
344.6569 200.7556 -19.0368 -0.960 -0.135 0.246 107 105 126
352.3094 191.0671 -20.7066 0.120 -0.799 0.589 119 117 139
356.5431 189.4591 -21.2752 -0.875 -0.480 -0.069 118 111 129
360.2867 189.3368 -21.6549 0.129 -0.933 -0.335 110 101 118
351.4774 177.3440 -21.9241 -0.028 -0.973 -0.229 98 90 111
353.2583 174.8239 -22.3379 -0.856 -0.516 -0.032 101 93 114
20.2182 261.2173 17.9781 0.425 -0.883 0.198 30 30 41
173.4587 443.2104 19.6008 -0.442 -0.791 0.423 52 37 56
229.6814 439.6530 13.6688 -0.909 -0.302 0.288 51 45 61
232.3338 439.1103 13.3541 -0.032 -0.761 0.648 37 31 43
240.2140 439.3839 12.5944 -0.490 -0.343 0.802 128 128 127
241.3000 434.5641 12.0389 -0.490 -0.337 0.804 150 149 148
229.2706 412.4423 11.1843 -0.401 -0.512 0.760 129 129 127
225.8389 392.7333 9.6970 -0.082 -0.880 0.468 87 92 88
225.7611 390.7915 9.5245 -0.081 -0.774 0.628 80 90 80
230.5760 391.3569 9.0972 -0.148 -0.740 0.657 107 119 107
229.4527 380.9602 8.2442 -0.737 0.053 0.674 68 77 66
217.1679 360.8852 7.6050 -0.748 0.035 0.663 72 75 62
237.4270 376.5112 7.0368 -0.663 -0.726 -0.181 68 71 60
232.6086 365.7605 6.5191 -0.725 -0.643 -0.248 60 66 54
221.1903 349.2857 6.1277 -0.403 -0.700 -0.590 61 67 55
243.4265 358.1969 4.7392 -0.607 -0.629 0.485 56 59 52
243.0838 356.2055 4.5885 -0.165 -0.817 0.552 67 70 63
287.1427 386.6055 3.0201 -0.585 -0.295 0.755 64 71 64
258.1122 336.2213 1.2364 -0.547 -0.151 0.824 60 65 56
292.7244 352.8138 -0.6723 -0.107 -0.843 -0.527 59 65 73
285.2324 344.2625 -0.7195 -0.148 -0.833 -0.532 62 69 74
288.4016 341.1890 -1.3205 -0.986 -0.074 0.152 97 107 103
273.7365 326.2867 -1.2424 -0.962 -0.268 0.057 103 113 108
278.1526 327.4496 -1.5745 -0.675 -0.446 0.588 104 114 111
305.1299 345.8113 -2.5582 -0.584 -0.515 0.627 88 100 81
311.8593 350.2742 -2.8145 -0.019 -0.070 0.997 86 96 77
313.6210 348.7833 -3.1284 -0.009 -0.087 0.996 100 108 93
383.3302 323.3908 -12.4307 -0.825 -0.379 0.419 115 107 127
402.7757 325.4656 -14.1757 -0.891 -0.402 -0.208 83 73 97
387.5712 277.1183 -17.1479 -0.804 -0.586 0.101 98 96 120
383.9998 273.8384 -17.0965 -0.820 -0.557 0.134 91 91 117
388.0375 275.0055 -17.3905 -0.827 -0.559 0.063 88 88 112
394.6036 277.6205 -17.8020 0.038 -0.931 -0.362 93 93 117
398.8365 275.2651 -18.4424 -0.472 -0.758 -0.450 76 74 98
396.1601 258.7186 -19.7114 -0.594 -0.609 -0.525 121 116 136
399.7330 257.2517 -20.2035 -0.127 -0.931 -0.341 84 77 94
389.2255 240.9089 -20.6734 -0.151 -0.952 0.265 101 87 106
408.0946 245.0328 -22.1707 -0.174 -0.879 -0.445 107 97 117
369.0202 216.8620 -20.8921 -0.856 0.102 0.507 102 101 119
365.2334 212.2163 -20.9459 -0.954 -0.076 0.289 105 103 124
368.0400 210.7073 -21.3656 -0.876 -0.213 0.433 101 98 119
365.4433 208.5725 -21.3050 -0.862 -0.209 0.463 97 94 115
361.9676 205.1313 -21.2781 -0.868 -0.185 0.460 78 77 93
346.5728 192.8459 -20.8844 -0.876 -0.182 0.446 91 90 106
356.0926 189.2561 -22.1661 -0.925 -0.301 0.232 121 114 132
354.2089 187.6004 -22.1321 -0.883 -0.464 -0.074 113 106 124
352.0493 174.3276 -23.1488 -0.850 -0.526 0.038 105 97 118
52.2420 505.4614 36.3429 -0.514 -0.625 -0.587 57 48 66
177.4179 450.4535 18.7053 -0.270 -0.769 0.579 50 35 54
176.9398 447.2581 18.4630 -0.222 -0.781 0.583 52 37 56
174.9509 441.4879 18.1390 -0.327 -0.733 0.597 55 40 59
229.4991 437.5390 12.2737 -0.604 -0.521 0.603 61 58 72
236.3029 440.6438 11.8693 -0.263 -0.797 0.543 126 124 130
236.4085 438.6651 11.6787 -0.168 -0.890 0.424 121 120 124
238.4616 439.3694 11.5355 -0.488 -0.346 0.801 86 87 83
232.1836 426.6334 11.0110 -0.534 -0.331 0.778 49 51 46
235.9324 427.6023 10.7207 -0.481 -0.391 0.785 73 75 70
228.3354 411.4432 10.0181 -0.401 -0.512 0.760 91 94 88
235.0549 410.4868 9.2528 -0.972 0.111 -0.205 90 101 93
228.6658 381.9731 7.3048 -0.737 0.053 0.674 59 72 60
218.7469 364.6633 6.7319 -0.745 0.028 0.667 71 74 65
234.7594 368.4403 5.4590 -0.721 -0.653 -0.229 45 50 44
238.3305 362.5044 4.5588 -0.051 -0.498 0.866 49 54 49
241.9563 356.7445 3.6690 -0.609 -0.634 0.477 52 57 53
241.4215 354.5482 3.5232 -0.579 -0.647 0.496 55 57 54
242.1709 353.7654 3.3764 -0.579 -0.647 0.496 52 54 52
241.3273 351.2562 3.2334 -0.066 -0.870 0.488 52 54 52
240.5868 348.8755 3.0916 -0.105 -0.834 0.542 48 52 51
287.8577 387.5189 1.8342 -0.606 -0.269 0.748 45 50 46
255.9123 347.8257 1.4492 -0.859 -0.167 0.485 39 44 38
286.0927 343.6789 -1.9743 0.041 -0.260 0.965 83 88 90
288.2346 341.1552 -2.4201 -0.986 -0.074 0.152 59 66 66
316.7974 356.3221 -3.9240 -0.006 -0.085 0.996 38 45 29
387.0820 324.6524 -13.8985 -0.870 -0.383 -0.310 87 79 102
399.2878 323.1922 -15.2634 -0.959 -0.212 0.187 83 73 97
399.4839 321.9367 -15.3973 -0.876 -0.392 -0.280 83 73 97
403.2291 318.8981 -16.0517 -0.879 -0.383 -0.284 65 55 79
401.8074 304.5794 -17.2103 -0.715 -0.121 0.689 65 56 83
402.3961 301.0335 -17.5922 0.268 -0.891 0.366 70 62 85
402.2883 299.6729 -17.7050 0.311 -0.871 0.380 75 70 90
389.7118 276.0081 -18.5876 0.191 -0.887 -0.421 114 114 136
397.5299 272.1781 -19.7251 -0.613 -0.574 -0.543 92 88 111
395.6613 258.4672 -20.7833 -0.583 -0.620 -0.525 98 94 111
400.7447 257.8029 -21.3568 -0.122 -0.930 -0.347 95 87 102
366.2661 235.3750 -19.9161 -0.467 -0.193 0.863 92 86 98
381.9821 240.3846 -21.0469 -0.163 -0.926 0.341 103 92 105
398.7460 245.7463 -22.2515 0.190 -0.847 -0.496 123 104 127
361.2520 206.6346 -22.0236 -0.868 -0.185 0.460 95 90 112
361.3862 205.7773 -22.1151 -0.868 -0.185 0.460 84 81 100
358.5283 190.2862 -23.2353 -0.903 -0.234 0.362 104 97 115
357.0894 187.9605 -23.3016 -0.299 -0.688 0.661 101 94 112
352.0470 184.9849 -23.0632 -0.825 -0.042 0.563 109 102 120
52.2568 506.4177 35.3123 -0.514 -0.625 -0.587 51 42 60
174.2268 440.5886 16.9784 -0.326 -0.736 0.594 71 53 73
229.0358 439.2951 11.2592 -0.909 -0.302 0.288 40 38 52
236.1284 440.6736 10.6568 -0.356 -0.759 0.545 63 62 67
235.2398 437.3222 10.4492 -0.389 -0.589 0.709 38 38 41
235.3797 435.4078 10.2643 -0.510 -0.378 0.773 47 49 45
234.0182 431.4549 10.0515 -0.522 -0.362 0.773 54 56 52
228.9257 420.4380 9.5910 -0.528 -0.341 0.778 41 43 39
234.8965 426.4624 9.5170 -0.481 -0.391 0.785 32 34 30
230.5586 418.6143 9.2616 -0.264 -0.559 0.786 48 50 45
228.7583 414.2176 9.0541 -0.459 -0.522 0.719 67 69 64
231.9066 414.4409 8.7521 -0.485 -0.493 0.722 58 65 61
244.9117 429.5609 8.7690 -0.916 -0.094 -0.391 56 66 60
222.2188 390.3858 7.6002 -0.800 -0.550 -0.239 87 98 92
228.4434 389.1111 6.8502 -0.915 -0.394 0.090 81 92 83
215.5647 357.6643 5.3663 -0.741 0.025 0.671 35 40 34
228.4905 349.9517 3.3577 0.103 -0.593 0.799 43 47 46
243.0287 358.0881 2.5959 -0.181 -0.815 0.551 51 55 56
244.1801 357.7309 2.4464 -0.181 -0.815 0.551 50 51 52
245.3332 357.3731 2.2966 -0.181 -0.815 0.551 42 43 45
263.9232 367.5562 1.3028 -0.358 -0.435 0.826 37 37 37
269.1277 329.4422 -2.6239 -0.152 -0.819 -0.554 27 29 32
293.7012 341.7792 -4.0377 -0.848 -0.181 0.498 44 45 48
374.3033 324.1616 -13.8480 -0.158 -0.580 0.799 70 62 73
381.1852 326.2122 -14.3690 -0.639 -0.683 -0.354 78 72 86
385.2957 309.8740 -16.2444 -0.950 0.118 0.289 82 72 96
381.2963 305.9171 -16.1879 -0.965 0.124 0.231 76 66 90
402.6934 311.8195 -17.8500 -0.967 -0.255 0.027 90 81 110
391.1670 299.2451 -17.7914 -0.834 -0.233 0.500 70 61 90
398.0656 302.2798 -18.2265 -0.811 -0.264 0.523 66 57 87
403.6128 301.8268 -18.8340 0.264 -0.851 0.454 93 88 111
412.2866 301.9344 -19.7113 0.310 -0.786 0.535 102 97 117
385.9043 276.2012 -19.3057 -0.450 -0.662 -0.599 127 123 145
396.1343 256.4904 -22.1071 -0.329 -0.760 -0.560 93 85 99
369.5874 231.9800 -21.5758 -0.383 -0.888 -0.255 122 105 125
371.0962 231.7295 -21.7524 -0.379 -0.896 -0.233 126 107 131
368.2914 221.3593 -22.3892 -0.899 0.136 0.417 113 106 122
368.2458 220.3613 -22.4734 -0.896 0.133 0.423 111 106 125
365.1141 210.2795 -23.0511 -0.990 0.029 0.141 102 95 117
369.9146 202.3131 -24.2515 -0.938 -0.047 0.343 101 100 116
353.3803 192.3720 -23.4463 -0.882 -0.161 0.443 112 112 124
51.4009 504.0497 34.0772 -0.504 -0.708 -0.495 53 44 62
89.3358 385.0540 19.7742 -0.977 -0.202 0.067 70 54 66
175.7208 450.5938 16.5429 -0.262 -0.769 0.583 54 35 55
235.4144 429.4709 8.5198 -0.551 -0.354 0.756 26 28 27
229.4445 415.3767 7.9092 -0.845 -0.199 0.496 70 72 71
232.3861 417.3016 7.7724 -0.537 -0.508 0.673 72 75 74
219.0897 388.4198 6.6312 -0.792 -0.538 -0.290 66 75 72
220.6343 386.7414 6.3250 -0.799 -0.520 -0.303 54 63 60
223.7087 388.8321 6.1889 -0.800 -0.550 -0.239 49 59 54
224.4047 387.8871 6.0344 -0.800 -0.550 -0.239 44 53 50
216.3324 360.4386 4.4772 -0.746 0.025 0.666 30 32 30
223.1054 366.9103 4.3401 0.317 -0.944 -0.090 30 32 31
237.2006 375.0804 3.5928 -0.905 -0.385 -0.180 31 33 32
228.9980 358.7953 3.0224 -0.057 -0.995 -0.085 35 39 40
224.7896 350.7197 2.7541 -0.566 -0.764 -0.309 39 43 44
220.8619 344.6565 2.6322 -0.690 -0.682 -0.242 39 43 44
221.6176 343.9420 2.4916 -0.690 -0.682 -0.242 33 37 38
274.5031 328.7677 -4.3078 -0.051 -0.057 0.997 41 41 41
293.0995 332.5155 -5.9068 0.084 -0.136 0.987 45 48 37
366.9749 320.4196 -14.6114 -0.134 -0.553 0.823 66 59 67
370.3653 321.4430 -14.8732 -0.141 -0.570 0.809 67 59 70
382.4399 325.7544 -15.7477 -0.639 -0.683 -0.354 111 104 120
380.1659 315.9097 -16.3705 -0.890 -0.333 0.312 103 94 121
380.4710 314.7609 -16.5023 -0.932 -0.093 0.352 104 96 120
408.6859 319.8089 -18.9839 -0.972 -0.225 0.073 72 63 91
391.6812 300.9057 -18.8711 -0.842 -0.324 0.432 71 62 93
397.4374 301.9297 -19.3779 -0.811 -0.264 0.523 77 67 101
400.6921 300.0625 -19.8778 0.239 -0.847 0.475 103 98 121
390.7679 280.2946 -20.5736 -0.245 -0.868 -0.432 102 93 113
400.6971 280.0192 -21.6258 0.214 -0.897 -0.386 86 76 95
405.7260 279.2628 -22.2125 -0.275 -0.778 -0.565 88 77 97
395.7868 267.7327 -22.1885 -0.364 -0.841 -0.400 106 103 120
393.9737 264.4144 -22.2901 -0.361 -0.843 -0.399 103 100 117
396.0106 255.3222 -23.2937 -0.072 -0.902 -0.426 93 85 96
358.1435 229.1514 -21.6542 -0.019 -0.551 0.834 91 83 96
360.3591 228.2857 -21.9591 -0.463 -0.238 0.854 112 99 116
357.2268 224.7021 -21.9472 -0.501 -0.402 0.766 124 108 128
371.3335 210.3417 -24.6600 -0.886 -0.275 0.374 77 71 93
374.4285 209.8794 -25.0208 -0.920 -0.127 0.371 65 63 85
362.3188 202.5434 -24.4064 -0.800 -0.430 -0.418 81 79 101
351.9010 186.5864 -24.7188 -0.072 -0.588 0.806 90 83 101
352.6669 186.0659 -24.8435 -0.071 -0.583 0.810 87 80 98
305.3395 154.3262 -22.7099 -0.928 -0.196 -0.316 99 92 108
51.0347 503.5491 32.9600 0.467 -0.640 0.609 55 46 64
88.8760 384.4191 18.8293 -0.853 -0.521 0.045 71 55 68
173.3485 446.7965 15.2927 -0.033 -0.740 0.672 60 39 58
230.2768 443.7681 9.0647 -0.902 -0.316 0.293 58 56 69
228.0927 436.3835 8.6638 -0.901 -0.307 0.306 56 55 63
229.0411 429.3011 7.9602 -0.556 -0.402 0.728 41 41 41
227.4373 422.9805 7.5892 -0.542 -0.410 0.733 36 40 41
228.0840 421.8272 7.4230 -0.542 -0.410 0.733 29 33 34
219.5887 389.2835 5.5376 -0.803 -0.541 -0.251 77 83 83
220.2775 388.3313 5.3842 -0.803 -0.541 -0.251 61 66 67
220.7846 387.1497 5.2302 -0.799 -0.520 -0.303 44 49 49
221.4651 386.1938 5.0773 -0.799 -0.520 -0.303 43 48 49
227.4799 382.9084 4.1663 -0.668 0.107 0.736 32 35 39
221.7598 363.7925 3.1354 0.211 -0.971 -0.113 33 37 38
375.0221 317.8921 -16.8515 -0.659 -0.641 -0.392 94 86 107
372.6921 309.5490 -17.3189 -0.889 -0.065 0.454 93 85 109
393.2876 303.2697 -20.0142 -0.809 -0.357 0.467 58 51 84
389.3215 299.4592 -19.9234 -0.838 -0.315 0.447 62 55 88
392.0645 281.0902 -21.7780 -0.251 -0.861 -0.443 100 87 105
393.5549 280.7511 -21.9632 -0.251 -0.861 -0.443 98 87 104
385.3746 273.5726 -21.7178 -0.764 -0.134 0.631 97 85 102
398.0360 272.5367 -23.1339 -0.616 -0.576 -0.537 90 83 98
391.5672 264.2543 -23.1621 -0.373 -0.879 -0.296 122 120 134
377.1259 251.8284 -22.7078 -0.349 -0.768 -0.536 72 68 83
358.2700 224.2515 -23.0830 -0.564 -0.359 0.744 107 96 110
355.0945 221.6710 -22.9702 -0.714 -0.258 0.651 106 95 109
343.5625 214.9257 -22.3363 -0.554 -0.806 -0.205 106 95 109
357.0059 216.8220 -23.5843 -0.979 -0.021 0.201 121 109 121
355.3895 209.4377 -24.0447 -0.970 -0.039 0.240 109 97 121
359.5334 207.6758 -24.6295 -0.955 -0.084 0.285 114 101 126
359.0753 206.5399 -24.6784 -0.957 -0.092 0.276 103 91 116
363.3713 207.6039 -25.0381 -0.941 -0.151 0.303 89 79 102
374.2694 211.6873 -25.8325 -0.826 -0.205 0.525 74 68 91
363.7282 205.9209 -25.2191 -0.893 -0.096 0.439 63 59 82
343.3601 192.2509 -24.2494 -0.834 -0.282 0.475 89 87 108
356.2758 197.1392 -25.1868 -0.933 -0.183 0.309 90 89 107
357.9801 197.0101 -25.3765 -0.930 -0.117 0.350 92 91 107
350.1471 187.5220 -25.3645 -0.084 -0.572 0.816 70 66 81
349.7482 186.5040 -25.4095 -0.079 -0.581 0.810 81 74 92
350.7115 185.2270 -25.6195 -0.071 -0.583 0.810 93 86 104
350.7293 184.3948 -25.6923 -0.822 -0.061 0.567 97 93 108
347.2686 182.1067 -25.5246 -0.803 -0.013 0.596 100 96 111
50.3838 501.9548 31.7834 0.467 -0.640 0.609 58 49 67
24.4156 258.5255 14.2323 0.004 -0.823 -0.568 73 62 66
224.9029 419.7703 6.3983 -0.486 -0.595 0.640 38 42 46
228.4300 418.5070 5.9185 -0.530 -0.509 0.679 71 74 79
225.9534 379.4474 2.9228 -0.758 0.048 0.650 27 27 33
225.6945 377.3629 2.7764 -0.758 0.048 0.650 23 26 29
221.9548 364.2132 2.0764 0.220 -0.970 -0.104 30 34 35
280.9580 332.0126 -6.8743 -0.704 -0.259 0.661 47 48 50
362.1457 348.6782 -14.1038 -0.599 0.155 0.785 79 62 81
376.2920 318.8340 -18.0954 -0.683 -0.640 -0.353 82 74 95
392.3054 286.1731 -22.5203 -0.711 -0.118 0.693 94 78 104
398.0218 285.8678 -23.1527 -0.337 -0.774 -0.537 97 82 102
395.3636 281.8434 -23.2063 -0.257 -0.859 -0.443 94 81 96
397.8410 270.0929 -24.4496 -0.548 -0.639 -0.541 88 83 98
392.2971 265.8343 -24.2162 -0.361 -0.731 -0.579 110 105 120
381.5992 250.9767 -24.3199 -0.063 -0.781 -0.621 86 78 93
364.1975 232.2979 -24.0307 -0.311 -0.499 0.809 103 97 109
365.1483 214.0664 -25.6526 0.309 -0.947 -0.087 115 101 126
377.6253 218.0359 -26.6461 -0.973 -0.002 0.233 121 107 132
377.4890 215.0762 -26.8786 -0.958 0.028 0.287 95 82 107
377.4376 214.0943 -26.9550 -0.958 0.028 0.287 75 64 88
363.2918 205.7173 -26.1520 -0.893 -0.096 0.439 61 56 81
354.3372 198.9309 -25.7675 -0.935 -0.198 0.295 82 79 103
354.3826 196.2898 -25.9926 -0.871 -0.243 0.427 95 94 112
356.4592 196.3290 -26.2098 -0.929 -0.173 0.327 95 93 110
346.4681 190.1815 -25.6619 -0.923 -0.198 0.330 84 84 95
348.1014 185.7902 -26.2017 -0.051 -0.731 0.680 86 81 97
330.1504 172.5418 -25.4010 -0.887 0.001 0.462 108 104 119
24.2836 258.4965 13.6266 0.138 -0.919 -0.370 78 65 73
173.6509 436.3734 12.0768 -0.398 -0.816 -0.419 73 52 71
230.6683 429.9919 5.4281 -0.613 -0.431 0.662 49 52 55
220.2585 398.0892 3.9456 -0.478 -0.487 0.731 79 84 78
220.9831 397.1465 3.7908 -0.478 -0.487 0.731 91 97 88
224.7400 381.7117 2.1284 -0.381 -0.247 0.891 51 51 59
238.5649 380.7536 0.5644 -0.909 -0.409 0.078 33 34 36
235.4133 371.8253 0.1751 -0.813 -0.565 -0.139 31 32 34
268.3646 326.3199 -7.0772 -0.435 -0.411 0.801 33 35 34
267.7343 320.0622 -7.5197 -0.249 -0.475 0.844 43 44 46
291.9115 339.1343 -8.5631 -0.576 -0.278 0.769 43 45 43
393.0626 316.5759 -21.2745 -0.781 -0.126 0.612 76 72 93
398.6521 316.1681 -21.9085 -0.668 0.057 0.742 52 48 69
384.7716 296.6721 -22.0064 -0.840 -0.296 0.454 65 58 92
410.1989 290.5813 -25.2360 -0.307 -0.817 -0.488 94 81 98
370.7502 254.9661 -23.9001 -0.838 0.066 0.542 84 77 90
365.0809 232.7644 -25.1012 -0.336 -0.487 0.806 109 101 114
364.5087 230.4367 -25.2295 -0.468 -0.251 0.847 118 112 122
364.7905 229.5699 -25.3304 -0.468 -0.251 0.847 119 114 121
365.7281 229.0384 -25.4746 -0.462 -0.250 0.851 114 109 115
388.9899 239.7815 -27.0988 -0.594 -0.775 -0.216 106 103 108
382.1279 223.1100 -27.7207 -0.995 -0.016 0.099 100 86 111
365.8475 206.8824 -27.2940 -0.896 -0.151 0.419 73 65 89
357.2710 200.2495 -26.9131 -0.910 -0.170 0.377 101 95 118
334.4728 175.1141 -26.5123 -0.926 -0.070 0.372 116 114 127
174.8517 436.4745 10.8049 0.034 -0.819 0.573 69 50 69
222.0609 412.3899 3.7503 -0.812 -0.165 0.560 64 68 71
221.6532 409.8594 3.5931 -0.815 -0.161 0.557 80 84 87
221.6252 405.9046 3.2811 -0.819 -0.187 0.543 76 80 83
220.4105 396.6251 2.6741 -0.457 -0.505 0.732 52 58 48
228.7381 360.8553 -1.0812 -0.974 -0.179 0.139 33 34 36
227.6522 356.3055 -1.3255 -0.657 -0.744 -0.124 37 38 40
283.8325 336.3411 -9.0279 -0.518 -0.395 0.758 39 41 40
265.4093 318.0513 -8.4805 -0.205 -0.481 0.853 40 42 41
266.2181 317.3941 -8.6208 -0.202 -0.475 0.856 41 42 44
285.0972 327.3009 -9.8856 -0.546 -0.529 0.650 44 47 38
295.9986 332.5993 -10.6496 -0.825 -0.016 0.565 57 60 51
341.6558 340.1071 -15.0187 -0.891 -0.332 -0.310 66 56 69
359.3550 348.1805 -16.3012 -0.538 0.130 0.833 67 54 71
397.5737 315.5150 -23.0612 -0.741 0.045 0.670 101 98 119
392.1035 310.5916 -22.8583 -0.906 0.024 0.423 104 98 123
406.0980 286.9592 -26.2633 -0.258 -0.867 -0.426 95 82 99
373.2805 260.9001 -24.7687 -0.831 0.064 0.553 95 85 94
369.1064 256.2876 -24.6820 -0.838 0.050 0.544 105 96 107
368.9835 255.1068 -24.7627 -0.838 0.050 0.544 91 80 93
367.9314 253.4113 -24.7833 -0.841 0.064 0.538 85 74 86
374.2734 252.5214 -25.5442 0.276 -0.865 0.418 125 115 126
382.4357 253.6650 -26.3411 -0.225 -0.736 -0.639 80 70 79
358.6531 231.4767 -25.5211 -0.073 -0.663 0.745 92 84 97
359.4669 230.8861 -25.6567 -0.070 -0.666 0.742 93 85 98
349.2977 223.6395 -25.1276 -0.262 -0.518 0.814 90 84 94
360.4250 226.3559 -26.1218 0.060 -0.546 0.836 82 80 85
385.9290 237.1955 -28.0330 0.044 -0.907 -0.418 88 83 89
381.9280 225.0060 -28.5687 -0.994 -0.028 0.104 95 84 105
381.7919 223.9436 -28.6386 -0.995 -0.022 0.092 94 84 104
380.2942 221.2503 -28.6902 -0.998 -0.024 0.066 112 101 122
376.6937 214.7022 -28.8201 -0.900 -0.050 0.433 117 109 125
376.1817 213.5083 -28.8595 -0.893 -0.053 0.448 105 97 114
356.9203 200.0859 -27.8331 -0.910 -0.170 0.377 121 111 135
355.3560 197.5966 -27.8612 -0.909 -0.187 0.372 133 122 146
356.9550 195.6506 -28.1902 -0.817 -0.271 0.509 108 100 124
353.9562 192.5818 -28.1084 -0.906 -0.066 0.419 117 112 135
349.7778 188.1845 -28.0041 -0.901 -0.080 0.427 119 117 132
289.3456 144.5944 -24.9017 0.178 -0.508 0.843 107 90 103
225.3959 423.2576 3.0594 -0.601 -0.408 0.687 41 44 45
218.5116 396.2491 1.7170 -0.500 -0.510 0.700 68 73 66
219.2431 395.3227 1.5644 -0.500 -0.510 0.700 57 62 53
227.4311 361.1770 -1.9927 -0.963 -0.181 0.201 33 34 36
279.9299 334.3468 -9.8598 -0.374 -0.432 0.821 29 31 30
287.1837 339.5327 -10.2552 -0.409 -0.434 0.803 34 36 33
302.6381 352.1548 -10.9752 -0.608 -0.065 0.791 36 38 37
290.8886 334.0189 -11.0919 -0.556 -0.300 0.775 40 43 34
270.0049 313.9906 -10.3501 -0.579 -0.460 0.673 40 43 34
369.9094 341.4755 -19.2129 -0.542 -0.127 0.831 64 55 72
375.7601 342.9036 -19.7460 -0.656 0.096 0.749 68 59 76
373.9567 338.6207 -19.8805 -0.709 0.092 0.700 78 70 91
396.3741 313.4270 -24.3082 -0.940 0.015 0.342 152 147 171
390.8784 305.8588 -24.2916 -0.949 -0.085 0.305 63 56 87
390.9578 304.5923 -24.3989 -0.949 -0.085 0.305 71 64 95
400.4616 298.8313 -25.8933 -0.051 -0.761 -0.647 93 90 109
402.8618 285.0988 -27.2256 0.073 -0.853 0.516 96 83 102
372.6526 261.7019 -25.7189 -0.816 0.056 0.576 95 84 91
377.6082 251.0647 -27.0918 0.251 -0.834 0.491 99 87 97
381.1683 251.8925 -27.4194 0.255 -0.835 0.487 93 83 92
357.9578 232.1413 -26.3998 -0.194 -0.897 -0.397 89 83 95
343.8638 222.8021 -25.5742 -0.519 -0.446 0.729 80 74 86
345.2411 222.5380 -25.7464 -0.409 -0.474 0.780 75 69 79
341.4367 219.6069 -25.5555 -0.469 -0.400 0.788 71 65 75
341.8835 218.8730 -25.6618 -0.469 -0.400 0.788 71 66 73
354.2076 222.2287 -26.7578 0.080 -0.573 0.816 75 69 76
381.1421 226.6328 -29.3810 -0.994 -0.010 0.106 117 109 120
384.6054 226.2948 -29.7886 -1.000 -0.027 0.010 122 115 130
384.6316 225.3038 -29.8685 -1.000 -0.027 0.010 122 117 131
384.6577 224.3163 -29.9482 -1.000 -0.027 0.010 118 113 126
380.0162 216.2403 -30.0652 -0.974 0.067 0.218 129 123 134
375.8142 213.3355 -29.8284 -0.892 -0.054 0.450 121 113 126
368.6794 209.1042 -29.3719 -0.845 -0.256 0.469 109 97 113
347.9806 195.1682 -28.1766 -0.949 -0.267 0.169 133 119 142
352.1150 196.1413 -28.5562 -0.951 -0.264 0.160 136 122 147
354.7362 194.6645 -28.9596 -0.797 -0.271 0.540 109 101 125
357.0334 194.7963 -29.2023 -0.802 -0.287 0.524 113 104 131
344.1454 183.2353 -28.6823 -0.091 -0.873 0.479 112 110 123
20.3049 260.9116 12.3974 0.152 -0.915 -0.374 61 55 68
22.0422 258.7030 12.0362 -0.245 -0.958 -0.150 96 83 101
21.7467 253.1311 11.6464 0.038 -0.894 -0.447 88 74 89
119.3259 353.4799 8.3883 -0.504 -0.448 -0.738 64 51 68
226.6170 435.6779 2.6708 -0.547 -0.017 0.837 53 52 59
308.4374 346.7565 -13.1933 -0.537 -0.727 -0.428 40 41 33
295.1813 332.0987 -12.8285 -0.327 -0.857 -0.398 44 47 36
296.1115 331.4627 -12.9804 -0.371 -0.860 -0.351 54 55 47
360.1814 349.0150 -18.7874 -0.512 0.127 0.850 55 47 62
393.4307 316.9856 -24.9226 -0.765 -0.225 0.604 158 154 177
388.8668 304.6126 -25.3529 -0.956 -0.095 0.278 62 56 84
388.2604 301.6059 -25.5135 -0.947 -0.024 0.322 70 64 92
360.8121 259.4229 -25.6560 -0.599 -0.120 0.792 93 82 100
403.8812 264.1732 -30.0944 0.395 -0.900 0.186 105 93 103
384.6218 225.3000 -30.8982 -1.000 -0.027 0.010 124 120 130
384.6479 224.3121 -30.9761 -1.000 -0.027 0.010 112 108 116
366.2023 208.8955 -30.0906 -0.938 0.153 0.310 122 111 121
362.1063 204.2411 -29.9874 -0.858 -0.340 0.385 111 93 112
359.8607 202.3087 -29.8839 -0.875 -0.188 0.447 115 99 119
353.0062 198.3091 -29.4236 -0.953 -0.218 0.209 122 107 128
351.1773 194.8366 -29.4833 -0.943 -0.187 0.274 129 117 141
351.5975 194.1466 -29.5825 -0.941 -0.191 0.279 114 104 129
351.1524 193.0765 -29.6141 -0.941 -0.189 0.279 108 101 125
354.4305 193.6456 -29.9362 -0.800 -0.285 0.528 113 107 133
346.6529 188.5189 -29.4586 -0.899 -0.061 0.433 124 119 141
346.2763 187.5042 -29.4936 -0.898 -0.070 0.435 124 121 140
346.3087 186.6702 -29.5605 -0.898 -0.070 0.435 124 122 136
94.8864 66.8761 -10.6362 -0.605 -0.508 0.613 108 98 107
312.2827 350.2776 -14.5273 -0.752 -0.474 0.458 45 47 36
295.8030 332.7529 -13.9660 -0.333 -0.858 -0.391 46 48 37
297.0134 332.3584 -14.1317 -0.333 -0.858 -0.391 49 51 40
295.3940 329.4989 -14.1607 -0.355 -0.853 -0.383 69 69 62
380.9513 330.8374 -23.7073 0.504 -0.848 0.162 56 50 64
388.4927 333.3125 -24.3744 -0.189 -0.981 0.038 71 64 82
373.9965 312.1224 -24.3080 -0.790 -0.164 0.591 55 51 68
379.6440 314.6088 -24.7607 -0.786 -0.185 0.589 70 65 85
380.4607 313.8054 -24.9122 -0.785 -0.194 0.588 83 80 99
387.8115 313.3119 -25.7775 -0.861 -0.344 0.375 155 151 174
388.5450 304.4538 -26.5156 -0.956 -0.095 0.278 76 70 96
393.8919 301.3124 -27.3508 -0.041 -0.766 -0.641 72 66 92
396.1008 301.3971 -27.5936 -0.041 -0.766 -0.641 98 92 117
397.6990 297.2103 -28.0835 -0.773 -0.595 0.219 97 94 115
402.3486 288.5952 -29.2451 -0.727 -0.075 0.682 88 73 102
402.9221 287.6836 -29.3772 -0.711 -0.076 0.699 82 67 96
394.6040 277.9080 -29.1628 0.040 -0.868 0.495 90 79 92
380.9031 257.3440 -29.1396 -0.018 -1.000 0.001 112 99 108
353.4059 225.7802 -28.3750 0.055 -0.563 0.825 94 82 92
355.3305 225.7744 -28.5924 0.047 -0.560 0.827 104 92 102
375.5153 224.9042 -30.9324 -0.989 -0.006 0.150 109 100 105
359.9561 205.0888 -30.6444 -0.867 -0.200 0.457 109 94 107
350.4736 196.2765 -30.2273 -0.948 -0.218 0.231 120 107 125
350.6399 195.4694 -30.3058 -0.948 -0.218 0.231 125 112 132
354.4827 196.3011 -30.6775 -0.955 -0.214 0.205 118 108 130
353.7228 195.0811 -30.6821 -0.938 -0.230 0.260 107 99 122
271.5526 151.6700 -24.6302 -0.949 -0.062 0.309 120 118 131
235.1410 135.6495 -21.7105 -0.730 -0.102 0.676 115 113 126
308.3650 143.5126 -29.3840 -0.557 -0.751 0.355 102 92 100
22.3479 265.1113 11.2280 0.209 -0.775 0.597 86 78 91
199.0275 438.8347 3.6010 -0.699 -0.676 -0.236 80 69 86
359.2383 349.9734 -21.0788 -0.523 0.124 0.844 51 47 54
367.4969 339.9061 -22.7466 -0.371 -0.279 0.886 69 60 79
367.9948 338.8119 -22.8823 -0.371 -0.279 0.886 64 55 74
377.2982 328.3075 -24.7007 0.498 -0.837 0.227 57 50 66
383.4866 328.4278 -25.3979 -0.213 -0.977 0.004 78 71 89
383.7538 327.1992 -25.5169 -0.212 -0.977 -0.008 77 70 88
383.6097 325.6887 -25.6094 -0.678 0.005 0.735 83 76 94
382.8637 323.7678 -25.6628 -0.684 0.006 0.730 79 72 90
373.9538 312.1522 -25.4840 -0.826 -0.248 0.506 60 55 75
