ply
format ascii 1.0
element vertex 854
property float x
property float y
property float z
property float nx
property float ny
property float nz
property uchar diffuse_red
property uchar diffuse_green
property uchar diffuse_blue
end_header
361.5481 50.6387 -45.3414 -0.980 0.185 -0.069 89 74 77
367.0530 48.1297 -46.2264 -0.503 0.217 0.837 82 70 70
366.4124 47.6382 -46.1049 -0.580 0.226 0.783 81 69 69
365.8862 47.1599 -46.0034 -0.582 0.232 0.780 81 69 69
363.4986 46.5268 -45.5789 -0.650 -0.134 0.748 82 70 70
362.3647 46.0073 -45.3722 -0.663 -0.146 0.734 82 70 70
344.8190 30.3288 -41.9926 -0.952 0.263 -0.159 80 74 76
343.7523 29.9536 -41.8008 -0.962 0.248 -0.116 80 74 76
359.8195 29.8438 -44.5540 -0.852 0.267 -0.450 80 74 76
360.4539 29.4727 -44.6540 -0.855 0.274 -0.440 80 74 76
359.4655 29.0810 -44.4752 -0.960 0.261 -0.097 80 74 76
359.7160 28.7062 -44.5094 -0.965 0.253 -0.071 79 73 75
359.7309 28.3294 -44.5030 -0.962 0.258 -0.093 79 70 71
359.7222 26.8304 -44.4661 -0.448 -0.330 -0.831 91 82 83
362.1674 25.7097 -44.8591 -0.865 0.423 -0.269 102 93 94
354.6132 23.2106 -43.5044 -0.245 -0.464 -0.851 88 79 80
355.4258 22.8424 -43.6351 -0.256 -0.479 -0.840 83 77 79
250.3990 423.9747 -35.9241 -0.350 -0.581 0.735 22 25 16
283.8557 446.4812 -42.2933 -0.490 -0.848 0.202 20 22 21
286.9462 445.9286 -42.8157 -0.155 -0.881 0.448 25 26 21
297.9814 388.3206 -43.2862 -0.460 -0.281 0.842 31 33 28
335.0807 326.5070 -48.1736 -0.826 -0.408 -0.389 61 74 44
385.2396 365.1115 -57.8444 -0.031 -0.826 0.562 58 66 45
371.8001 343.2268 -54.9639 -0.485 -0.589 -0.646 59 66 48
372.4160 315.8545 -54.3845 -0.496 -0.807 -0.320 47 51 36
385.1014 326.4382 -56.8509 -0.494 -0.232 -0.838 47 51 36
383.9428 294.5775 -55.8511 -0.765 0.199 0.613 48 50 39
383.6024 292.9647 -55.7516 -0.765 0.199 0.613 52 54 43
383.2206 291.3178 -55.6441 -0.766 0.202 0.610 53 55 42
364.0155 248.3155 -51.2338 -0.791 -0.498 -0.355 44 45 37
373.6920 256.1721 -53.1097 -0.985 0.151 -0.079 45 45 37
374.9008 256.1783 -53.3196 -0.973 0.202 -0.110 45 45 37
373.7246 251.8157 -53.0061 -0.987 0.137 -0.080 47 43 34
370.1301 247.4947 -52.2741 -0.913 -0.389 0.122 49 42 34
374.0403 249.9305 -53.0136 -0.931 -0.363 0.051 49 42 34
384.8426 249.6252 -54.8803 -0.759 -0.205 0.618 39 40 34
384.7920 248.4939 -54.8431 -0.749 -0.221 0.625 43 44 38
382.4419 245.4150 -54.3582 -0.727 -0.207 0.654 46 47 41
382.5929 244.4725 -54.3608 -0.730 -0.226 0.645 49 48 43
379.5230 240.8250 -53.7367 -0.746 -0.281 0.603 47 46 41
379.4796 239.7388 -53.7019 -0.745 -0.292 0.599 43 42 37
379.3338 238.5715 -53.6473 -0.744 -0.314 0.590 41 40 35
379.6401 237.7837 -53.6807 -0.744 -0.314 0.590 47 46 41
382.0908 233.5789 -54.0005 -0.682 -0.422 -0.598 48 47 43
373.9189 217.2352 -52.1729 -0.682 -0.704 -0.197 134 120 119
355.8106 194.6390 -48.4645 -0.841 0.010 0.541 67 52 49
363.7254 198.6259 -49.9377 -0.272 -0.840 0.470 73 53 54
368.4588 201.1360 -50.8219 -0.070 -0.947 0.312 73 53 54
370.3987 200.7254 -51.1482 -0.713 -0.474 0.517 73 53 54
370.9429 200.2140 -51.2298 -0.663 -0.497 0.561 75 55 56
375.1364 195.1010 -51.8293 0.088 -0.579 0.810 78 60 58
377.8667 195.1602 -52.3045 -0.060 -0.742 0.668 78 60 58
376.3735 192.4094 -51.9764 -0.883 0.184 0.432 92 74 72
372.7714 184.9126 -51.1635 -0.538 -0.485 0.689 100 82 80
373.1158 184.2877 -51.2076 -0.495 -0.496 0.714 101 83 81
372.4626 181.3621 -51.0209 0.019 -0.797 0.604 101 83 81
375.9329 182.6882 -51.6563 0.014 -0.795 0.606 102 84 82
366.2149 175.0343 -49.7782 -0.574 -0.484 0.660 102 84 82
369.1509 176.0280 -50.3126 -0.521 -0.533 0.667 102 84 81
366.1566 172.6004 -49.7071 -0.123 -0.666 0.736 112 91 86
370.1710 174.2222 -50.4443 -0.027 -0.711 0.703 112 91 86
366.9688 169.9210 -49.7808 -0.925 -0.350 0.146 107 86 81
365.1877 164.9901 -49.3482 -0.650 -0.492 0.578 108 93 88
375.8818 165.5919 -51.2188 -0.631 -0.760 0.158 96 81 78
375.2323 156.7722 -50.8850 -0.491 -0.282 0.824 75 61 61
364.5047 144.0733 -48.7053 -0.306 -0.939 -0.158 95 82 76
364.8695 143.5515 -48.7555 -0.367 -0.924 -0.110 95 82 76
369.2351 143.5533 -49.5130 -0.004 -0.700 -0.714 101 81 82
376.9731 137.2860 -50.6985 -0.251 -0.612 0.750 110 94 94
366.4039 128.6704 -48.6487 -0.822 -0.380 0.423 107 90 96
366.7558 128.1634 -48.6970 -0.823 -0.384 0.418 101 84 90
367.3748 127.7681 -48.7945 -0.842 -0.351 0.409 96 79 85
363.5065 122.9562 -48.0027 -0.922 0.124 0.367 86 69 75
363.4434 122.2973 -47.9752 -0.908 -0.205 -0.365 85 68 74
363.0580 117.1509 -47.7793 -0.084 -0.995 0.049 60 50 48
363.9582 116.8757 -47.9286 0.135 -0.950 0.281 62 50 50
372.6475 115.7311 -49.4076 -0.046 -0.774 0.632 102 87 82
375.9995 116.3048 -50.0036 0.136 -0.795 0.591 108 93 86
367.1213 112.5187 -48.3682 -0.400 0.044 0.915 110 95 90
359.2501 109.1340 -46.9176 -0.368 -0.276 0.888 110 95 90
366.3288 98.7303 -47.8850 -0.969 -0.117 -0.217 89 71 71
356.3514 93.0377 -46.0112 -0.677 -0.262 -0.688 89 69 68
357.8907 92.9407 -46.2758 -0.591 -0.346 -0.728 90 70 69
361.2116 91.1732 -46.8077 -0.409 -0.309 0.858 97 79 79
362.0517 90.8629 -46.9457 -0.276 -0.736 0.618 98 80 80
363.2165 90.0976 -47.1286 -0.007 -0.979 0.202 97 79 79
367.7194 89.6590 -47.8989 -0.011 -0.987 0.162 90 72 72
369.2162 89.5012 -48.1546 0.001 -0.996 0.089 90 72 72
371.0564 89.4262 -48.4721 -0.002 -0.996 0.092 88 72 72
371.7544 89.0546 -48.5839 -0.562 -0.599 -0.570 85 69 69
380.4887 87.8856 -50.0700 0.057 -0.737 0.674 84 70 69
368.9491 77.7667 -47.8141 -0.851 0.162 0.499 68 56 56
368.6748 76.1728 -47.7266 -0.714 -0.092 0.694 70 56 55
368.1933 75.5661 -47.6278 -0.740 -0.063 0.669 70 56 55
367.9073 75.0019 -47.5641 -0.749 -0.039 0.661 74 60 59
360.6871 71.1196 -46.2139 -0.853 0.303 0.424 84 66 64
359.0671 70.3318 -45.9131 -0.747 -0.144 -0.648 88 68 67
366.3628 54.7004 -46.7871 -0.104 -0.964 0.244 80 63 69
366.4467 53.8104 -46.7794 -0.463 -0.883 -0.077 81 64 70
364.4810 53.1421 -46.4215 -0.708 -0.642 -0.293 83 66 72
362.0976 44.2970 -45.7862 -0.883 0.005 0.470 81 71 70
355.6708 42.5925 -44.6284 -0.946 -0.012 0.324 92 82 81
355.0483 42.1459 -44.5092 -0.932 -0.059 0.358 93 83 82
366.8582 35.1094 -46.3819 -0.295 -0.438 0.849 82 77 81
359.2709 28.3136 -44.8951 -0.371 -0.477 -0.797 63 54 55
248.2338 424.0826 -36.3792 -0.375 -0.658 0.653 23 26 17
266.6173 399.5093 -38.9537 -0.084 -0.810 0.581 16 18 17
296.4787 387.2177 -43.8684 -0.168 -0.116 0.979 35 37 32
334.7601 408.5596 -51.1531 -0.495 -0.862 0.109 26 29 18
335.8086 408.6552 -51.3396 -0.519 -0.852 0.067 36 39 28
337.2963 407.7303 -51.5762 -0.519 -0.852 0.067 38 41 30
379.6526 334.3304 -57.0625 -0.715 0.099 -0.693 61 64 47
372.5377 316.1557 -55.3317 -0.496 -0.807 -0.320 47 51 36
387.3891 327.8273 -58.2478 -0.503 -0.223 -0.835 47 51 36
389.6090 327.5482 -58.6300 -0.535 -0.163 -0.829 47 51 36
378.4594 284.1266 -55.5212 -0.639 0.412 0.650 42 44 31
379.2283 242.7846 -54.5593 -0.527 -0.826 0.201 78 79 73
378.9589 241.4996 -54.4780 -0.530 -0.837 0.137 64 63 58
377.6677 239.3612 -54.1946 -0.696 -0.567 0.440 58 57 52
378.0844 238.6668 -54.2493 -0.677 -0.567 0.469 50 49 44
378.1931 237.7164 -54.2432 -0.643 -0.602 0.473 44 43 38
378.7093 237.1067 -54.3176 -0.643 -0.602 0.473 46 45 40
381.0945 234.9247 -54.6783 -0.133 -0.881 0.454 31 30 26
382.2354 233.7862 -54.8484 -0.822 0.357 0.443 46 45 41
370.4401 215.6021 -52.2958 -0.125 -0.856 0.501 134 120 119
372.9423 216.5688 -52.7606 -0.453 -0.891 0.024 137 123 122
373.6911 216.1844 -52.8818 -0.453 -0.891 0.024 126 112 111
375.3592 216.4942 -53.1828 -0.657 -0.704 -0.268 111 97 96
378.5082 215.9834 -53.7219 -0.800 -0.583 -0.143 79 64 61
381.6318 216.3771 -54.2806 -0.071 -0.580 0.812 54 39 36
362.0413 198.3612 -50.3644 -0.270 -0.888 0.371 62 47 44
366.6689 200.8164 -51.2417 -0.070 -0.945 0.319 73 53 54
376.8493 192.7876 -52.8154 -0.856 0.161 0.492 92 74 72
374.1476 182.4738 -52.0676 0.099 -0.990 -0.103 101 83 81
364.7119 174.9652 -50.2124 -0.308 -0.706 0.638 102 84 82
364.0272 171.3652 -49.9967 -0.299 -0.836 0.460 112 91 86
365.5947 171.5213 -50.2760 -0.295 -0.821 0.489 112 91 86
366.4504 171.2437 -50.4188 -0.290 -0.819 0.495 112 91 86
371.2658 173.3210 -51.3190 -0.304 -0.861 0.408 106 82 78
382.0938 177.2619 -53.3239 0.003 -0.958 0.288 102 82 76
371.1855 169.2848 -51.1978 -0.861 0.247 0.445 111 94 87
370.3976 166.4742 -50.9850 0.065 -0.935 -0.349 103 88 83
372.2104 166.7218 -51.3097 0.065 -0.935 -0.349 100 85 80
379.1699 167.4619 -52.5508 -0.975 0.013 0.223 96 81 78
378.9573 166.5505 -52.4893 -0.984 -0.003 0.178 95 80 77
378.5927 163.9875 -52.3573 -0.986 0.003 0.167 83 68 65
373.3825 155.8530 -51.2271 -0.590 -0.469 0.657 75 61 61
383.2324 158.6487 -53.0299 -0.481 -0.478 0.735 76 62 62
376.9736 145.1222 -51.5726 0.010 -0.690 -0.724 84 66 66
379.0742 144.6599 -51.9290 -0.614 -0.635 -0.469 88 66 68
377.1400 141.6183 -51.5089 -0.500 -0.621 -0.604 100 82 82
373.5635 137.2002 -50.7640 -0.293 -0.633 0.717 111 95 95
376.2883 137.0175 -51.2373 -0.241 -0.615 0.751 110 94 94
357.2292 124.8172 -47.5687 -0.484 -0.106 0.869 107 90 96
363.0010 122.1457 -48.5108 -0.881 -0.241 -0.406 90 73 79
364.2453 121.3796 -48.7089 -0.858 0.044 -0.512 93 76 82
367.9679 117.1639 -49.2503 0.197 -0.939 0.282 69 59 57
368.2279 116.6372 -49.2820 0.103 -0.851 0.514 76 65 63
366.1131 112.1814 -48.7926 -0.400 0.044 0.915 114 99 94
367.4803 110.8448 -48.9971 -0.440 -0.790 -0.428 104 89 84
355.9254 97.8175 -46.6236 -0.008 -0.922 -0.386 85 69 70
352.8959 90.9999 -45.9110 -0.969 -0.114 -0.221 86 66 65
353.3633 90.6055 -45.9826 -0.965 -0.060 -0.256 86 66 65
360.4572 90.9781 -47.2375 -0.409 -0.309 0.858 97 79 79
360.7982 90.5336 -47.2855 -0.407 -0.315 0.857 97 79 79
362.7519 90.5238 -47.6281 -0.398 -0.713 0.577 97 79 79
362.8779 90.0181 -47.6368 -0.204 -0.970 0.132 97 79 79
376.4941 86.9333 -49.9447 -0.601 -0.209 0.771 84 70 69
375.6772 78.6606 -49.5818 -0.198 -0.640 0.742 70 56 55
360.0877 70.5265 -46.6300 -0.748 -0.146 -0.648 73 53 52
359.7851 69.9889 -46.5627 -0.824 0.553 -0.125 73 54 50
363.6304 54.3760 -46.8233 -0.071 -0.979 0.193 77 60 66
364.2112 53.9978 -46.9152 -0.084 -0.974 0.212 77 60 66
365.9242 53.7473 -47.2092 -0.439 -0.894 -0.088 78 61 67
356.3601 44.2641 -45.2791 -0.990 0.048 0.136 74 64 63
355.3076 43.7753 -45.0814 -0.995 0.042 0.091 78 68 67
354.0862 43.2787 -44.8539 -0.988 0.108 0.109 82 72 71
352.6980 42.3757 -44.5863 -0.978 0.105 0.181 89 79 78
352.1942 41.9424 -44.4864 -0.978 0.101 0.182 90 80 79
365.4785 36.2584 -46.6670 -0.008 -0.554 0.832 82 77 81
360.0341 28.3085 -45.5006 -0.324 -0.473 -0.819 54 45 46
294.8907 385.9147 -44.4212 -0.167 -0.117 0.979 34 36 31
295.2813 384.9950 -44.4648 -0.167 -0.117 0.979 35 37 32
334.5020 408.3688 -52.0807 -0.500 -0.857 0.123 26 29 18
381.1891 336.3579 -58.3520 -0.694 0.060 -0.718 69 72 55
379.4627 331.4242 -57.9074 -0.624 -0.542 -0.563 70 74 59
372.6596 316.4576 -56.2809 -0.496 -0.807 -0.320 69 73 58
380.7918 324.5672 -57.9514 -0.834 -0.535 -0.138 69 73 58
388.5704 330.7626 -59.5055 -0.504 -0.224 -0.834 66 70 55
378.2980 285.3151 -56.4100 -0.700 0.280 0.657 46 48 35
375.9897 280.5433 -55.8667 -0.669 0.294 0.683 44 46 33
369.2858 272.6007 -54.4545 -0.683 0.091 0.725 42 44 31
369.1739 271.3239 -54.3989 -0.683 0.091 0.725 42 44 31
379.0747 240.6411 -55.2974 -0.652 -0.510 0.561 86 85 80
378.6556 239.2405 -55.1838 -0.656 -0.504 0.562 64 63 58
378.3215 237.9181 -55.0875 -0.642 -0.500 0.581 49 48 43
379.1492 237.5656 -55.2245 -0.652 -0.491 0.578 53 52 47
383.2097 235.6970 -55.8930 -0.274 -0.920 0.279 44 43 39
380.2972 217.3987 -54.8638 -0.754 -0.591 -0.285 77 62 59
375.1140 209.7625 -53.7300 -0.880 0.263 0.395 75 60 57
374.7472 208.5623 -53.6313 -0.882 0.262 0.393 75 60 57
361.5136 198.0498 -50.9881 -0.268 -0.892 0.365 75 60 57
367.4173 201.4272 -52.1305 -0.420 -0.853 0.309 81 61 62
367.7183 200.7480 -52.1650 -0.070 -0.947 0.312 81 61 62
374.9645 191.6089 -53.1953 -0.620 -0.090 0.779 80 62 60
375.0816 190.8159 -53.1939 -0.620 -0.090 0.779 80 62 60
374.4317 187.8035 -52.9942 0.094 -0.701 0.707 79 61 59
375.6801 187.7494 -53.2143 0.094 -0.701 0.707 79 61 59
377.0824 187.7880 -53.4643 0.043 -0.731 0.681 79 61 59
378.6328 187.9141 -53.7430 -0.040 -0.734 0.678 86 68 66
373.7647 182.2929 -52.7216 0.101 -0.989 -0.106 87 69 67
364.1542 174.6754 -50.8025 -0.308 -0.706 0.638 99 81 79
364.5934 174.1467 -50.8657 -0.319 -0.703 0.636 99 81 79
365.8636 173.3271 -51.0682 0.086 -0.986 0.146 90 71 66
367.3251 173.4154 -51.3301 0.086 -0.986 0.146 88 67 62
365.7169 171.6481 -50.9952 -0.534 -0.502 0.681 89 68 63
367.9301 172.1828 -51.4030 -0.224 -0.958 0.181 89 68 63
369.3427 172.2288 -51.6550 -0.220 -0.957 0.188 95 74 69
370.7854 172.2861 -51.9127 -0.215 -0.960 0.179 96 75 70
372.1868 172.3123 -52.1622 -0.654 -0.505 0.563 96 75 70
363.8349 164.3091 -50.4557 -0.670 -0.482 0.564 101 86 81
371.8727 165.0180 -51.9022 0.066 -0.747 0.662 102 87 82
378.9045 167.3637 -53.2160 -0.708 -0.686 0.169 91 76 73
379.8145 167.0713 -53.3694 -0.981 0.039 0.188 90 75 72
378.7706 164.9167 -53.1238 -0.985 -0.008 0.173 84 69 66
381.6945 158.6752 -53.4680 -0.618 -0.246 0.746 90 76 76
384.9439 159.5675 -54.0698 -0.005 -0.966 -0.260 97 83 83
387.2393 159.9577 -54.4882 -0.019 -0.964 -0.265 103 89 88
399.1093 164.3628 -56.7184 0.037 -0.950 -0.310 119 106 100
376.3049 145.5653 -52.1444 0.005 -0.683 -0.730 114 94 95
370.9330 138.1274 -50.9827 -0.496 -0.145 0.856 90 74 74
367.0349 135.6795 -50.2223 -0.112 -0.483 0.868 90 74 74
370.0128 136.3360 -50.7692 -0.265 -0.657 0.706 90 74 74
364.8924 122.9317 -49.4851 -0.957 -0.132 0.260 87 70 76
367.3825 120.7388 -49.8658 -0.260 -0.965 -0.034 80 67 68
368.3577 120.4823 -50.0317 -0.260 -0.965 -0.034 76 65 64
369.3378 120.2244 -50.1984 -0.260 -0.965 -0.034 75 65 63
364.9958 117.9362 -49.3637 -0.974 -0.212 0.085 75 65 63
365.7433 116.9764 -49.4695 0.156 -0.966 0.205 75 65 63
367.0145 116.8313 -49.6911 0.197 -0.939 0.282 75 65 63
367.4868 116.3854 -49.7624 0.101 -0.862 0.496 76 65 63
365.1316 113.6749 -49.2685 -0.095 -0.418 0.903 99 86 80
373.1377 115.3245 -50.7357 0.130 -0.796 0.591 111 96 89
354.8949 107.6370 -47.2825 -0.862 0.159 -0.481 111 96 91
354.2933 106.8499 -47.1537 -0.869 0.160 -0.469 107 92 87
359.9320 95.1892 -47.8281 -0.922 0.188 0.337 76 56 55
357.6596 93.9814 -47.3910 -0.956 0.224 0.189 72 52 51
356.1154 92.4590 -47.0743 -0.896 -0.125 -0.425 78 58 57
355.2732 90.6241 -46.8734 -0.929 -0.068 -0.364 78 58 57
361.7268 90.2587 -48.0087 -0.193 -0.971 0.141 97 79 79
362.8809 90.0299 -48.2071 -0.196 -0.971 0.135 96 78 78
368.9201 89.4454 -49.2627 -0.042 -0.996 0.078 83 65 65
370.2652 89.2439 -49.4958 -0.080 -0.984 0.161 81 65 65
372.0321 88.5952 -49.7913 -0.428 -0.542 0.724 83 69 68
372.8282 88.2454 -49.9228 -0.587 -0.253 0.769 83 69 68
373.2182 86.1537 -49.9335 -0.976 0.048 0.213 81 67 66
373.1956 85.6048 -49.9141 -0.976 0.048 0.213 81 67 66
371.3786 78.2892 -49.3868 -0.140 -0.530 0.836 73 61 61
361.8131 72.8066 -47.5355 -0.750 -0.156 -0.643 90 76 75
360.2919 70.5679 -47.2028 -0.704 -0.171 -0.690 94 74 73
375.3262 57.6281 -49.5092 0.037 -0.990 0.133 83 68 71
365.2920 54.5679 -47.6425 -0.255 -0.959 0.120 92 75 81
363.7570 53.9418 -47.3525 -0.084 -0.974 0.212 92 75 81
364.3073 53.5597 -47.4395 -0.393 -0.915 -0.092 92 75 81
362.2583 36.1153 -46.5875 -0.017 -0.553 0.833 71 66 70
364.3622 34.5990 -46.9185 -0.470 0.180 0.864 71 66 70
364.5636 33.4123 -46.9210 -0.117 -0.364 0.924 65 59 61
378.8220 330.8278 -58.7309 -0.680 -0.496 -0.540 70 74 59
378.7133 329.2849 -58.6659 -0.651 -0.517 -0.556 70 74 59
372.4284 316.3469 -57.1567 -0.505 -0.804 -0.315 69 73 58
363.6846 294.6137 -54.9471 -0.858 -0.276 -0.434 57 61 46
351.0595 265.4215 -51.8211 -0.719 -0.302 0.626 49 55 43
351.3680 264.6216 -51.8529 -0.719 -0.302 0.626 47 53 41
380.5357 272.0659 -57.3077 -0.407 -0.778 0.478 44 45 39
384.5399 274.7171 -58.1046 -0.531 -0.689 0.493 43 44 38
366.0935 254.9071 -54.2100 -0.157 -0.869 -0.468 40 41 33
385.8604 270.0672 -58.2046 -0.914 -0.404 0.031 44 45 37
381.1215 262.2217 -57.1229 -0.381 -0.716 -0.585 47 47 39
386.9608 256.1884 -57.9934 -0.233 0.083 0.969 48 49 43
377.8038 239.6678 -55.8631 -0.416 -0.388 0.823 106 105 100
381.1860 238.3022 -56.4300 -0.573 -0.793 0.205 58 57 52
384.4351 238.8748 -57.0300 -0.563 -0.800 0.206 47 46 41
382.3631 235.1040 -56.5471 -0.854 -0.034 0.519 44 43 39
381.6625 233.5070 -56.3743 -0.874 -0.025 0.485 44 43 39
376.9414 222.7298 -55.2094 -0.761 0.490 0.425 98 87 85
374.7358 218.1047 -54.6773 -0.771 -0.604 -0.202 104 90 89
376.3814 218.3962 -54.9813 -0.770 -0.617 -0.163 104 90 89
378.0811 211.0654 -55.0704 -0.772 0.319 -0.550 89 74 71
374.7119 191.5063 -53.8895 -0.548 -0.497 0.673 98 80 78
375.0817 190.8796 -53.9375 -0.638 -0.095 0.764 98 80 78
375.7261 186.9824 -53.9383 0.041 -0.717 0.696 97 79 77
364.4806 172.5390 -51.4944 0.109 -0.976 0.190 85 66 61
369.7620 173.3337 -52.4658 -0.231 -0.963 0.140 85 64 59
372.6374 173.4366 -52.9850 -0.239 -0.957 0.163 96 75 70
373.5654 173.1776 -53.1439 -0.239 -0.957 0.163 96 75 70
371.8680 171.3762 -52.7862 -0.911 -0.400 -0.100 96 76 70
372.1498 170.7424 -52.8181 -0.911 -0.400 -0.100 98 80 74
375.3755 167.0304 -53.2878 0.041 -0.712 0.701 92 77 72
376.9873 167.1406 -53.5803 0.045 -0.717 0.695 89 74 69
379.0303 166.6875 -53.9337 -0.975 0.085 0.207 86 71 68
378.9654 165.8598 -53.8977 -0.975 0.085 0.207 87 72 69
377.9798 164.5331 -53.6817 -0.824 -0.302 0.480 82 67 64
378.1033 163.8162 -53.6827 -0.798 -0.319 0.510 78 63 60
367.5858 149.2811 -51.3667 -0.915 -0.077 -0.396 114 100 97
385.5800 148.5011 -54.5737 0.002 -0.692 -0.722 97 77 78
380.3058 145.3050 -53.5328 -0.622 -0.615 -0.485 100 78 80
379.6213 142.8207 -53.3368 -0.456 -0.602 -0.656 92 74 74
371.7578 138.5352 -51.7991 -0.443 -0.168 0.881 90 74 74
371.0408 136.8294 -51.6201 -0.310 -0.511 0.802 90 74 74
372.2272 136.6707 -51.8284 -0.246 -0.676 0.695 87 71 71
383.2487 138.0068 -53.8461 0.280 -0.910 0.304 82 65 71
365.0337 118.5980 -50.0049 -0.893 -0.060 0.445 75 65 63
365.5000 116.2890 -50.0206 0.119 -0.869 0.480 75 65 63
366.4602 116.0276 -50.1852 0.097 -0.858 0.505 76 65 63
360.0251 108.2906 -48.8023 -0.962 -0.111 -0.248 101 86 81
361.0114 108.0454 -48.9721 -0.969 -0.023 -0.247 97 82 79
371.9120 102.7887 -50.7739 0.041 -0.983 -0.179 117 101 102
366.8956 98.9440 -49.7602 -0.941 -0.081 -0.329 97 79 79
359.1139 94.9633 -48.2462 -0.933 0.192 0.304 81 61 60
354.5193 92.5485 -47.3503 -0.980 0.177 0.092 72 52 51
360.5982 90.5020 -48.3812 -0.230 -0.948 0.219 81 63 63
367.6812 89.1356 -49.6123 -0.223 -0.935 0.276 71 53 53
370.2479 88.1558 -50.0442 -0.434 0.078 0.897 79 65 64
353.4308 79.4062 -46.7678 -0.421 -0.606 0.675 57 47 48
361.4619 71.2765 -47.9699 -0.748 -0.148 -0.647 110 92 90
361.2651 70.7537 -47.9192 -0.695 -0.176 -0.697 111 91 90
356.4499 67.0222 -46.9450 -0.936 0.220 -0.276 91 72 68
376.7880 56.8592 -50.2963 -0.023 -0.986 0.162 92 75 81
359.3116 35.5899 -46.5328 -0.061 -0.303 0.951 70 65 69
360.0990 34.8334 -46.6519 -0.062 -0.314 0.948 70 65 69
360.0160 34.4380 -46.6254 -0.062 -0.319 0.946 70 65 69
367.5459 27.5725 -47.7747 -0.791 0.090 -0.605 77 67 66
367.6810 27.1858 -47.7876 -0.785 0.107 -0.610 79 70 71
367.0498 26.7978 -47.6629 -0.811 0.118 -0.574 83 74 75
290.4267 380.4948 -45.1777 -0.198 -0.124 0.972 28 30 25
374.1312 271.8240 -57.0099 -0.563 0.185 0.805 47 48 40
377.5485 269.3188 -57.5527 -0.470 -0.853 0.229 44 45 37
384.7800 269.1767 -58.8608 -0.914 -0.390 0.110 44 45 37
386.1687 269.3011 -59.1166 -0.914 -0.404 0.031 44 45 37
385.2336 266.1139 -58.8484 -0.500 -0.778 -0.380 47 47 39
385.6800 265.3693 -58.9064 -0.479 -0.783 -0.396 58 55 46
382.2387 251.0621 -57.8395 -0.228 0.078 0.971 61 62 56
375.8651 238.1313 -56.2829 -0.632 0.002 0.775 117 116 111
383.7747 238.4289 -57.7276 -0.562 -0.806 0.187 60 59 54
372.0680 217.0987 -54.9434 -0.765 -0.603 -0.225 64 53 51
376.6806 215.8136 -55.7409 -0.565 -0.731 0.384 71 56 53
377.3423 215.3509 -55.8467 -0.566 -0.735 0.372 74 59 56
378.3694 215.1582 -56.0271 -0.573 -0.730 0.372 77 62 59
381.3716 211.6336 -56.4631 -0.796 -0.277 -0.539 81 61 62
364.7720 190.0820 -52.7839 -0.226 -0.624 0.748 88 70 68
373.1612 186.2532 -54.1882 -0.736 -0.600 0.313 103 85 83
376.3461 187.4401 -54.8029 -0.793 -0.370 0.483 103 85 83
363.3854 171.1362 -51.9465 -0.108 -0.922 0.373 97 78 72
366.5873 172.2791 -52.5630 0.110 -0.975 0.194 97 78 72
369.5820 173.2795 -53.1375 -0.231 -0.963 0.140 98 77 72
372.9895 172.8911 -53.7439 -0.234 -0.944 0.233 95 76 70
377.1730 166.5012 -54.3056 -0.784 -0.365 0.502 80 65 62
377.9635 165.3583 -54.4138 -0.865 -0.129 0.485 80 65 62
377.6516 164.4015 -54.3276 -0.824 -0.302 0.480 79 64 61
371.1897 155.5863 -52.8822 -0.594 -0.443 0.672 77 63 63
372.2914 155.4138 -53.0768 -0.581 -0.466 0.668 79 65 65
373.2892 155.1832 -53.2508 -0.501 -0.548 0.670 85 71 71
360.8413 143.8117 -50.6400 0.136 -0.965 -0.223 107 94 86
366.6836 145.2934 -51.7461 0.021 -0.902 -0.431 97 84 78
371.4427 146.1901 -52.6376 0.080 -0.833 -0.547 99 85 82
374.1757 146.7916 -53.1522 0.080 -0.833 -0.547 100 82 80
385.4460 146.9913 -55.2039 -0.376 -0.302 0.876 92 72 73
380.1109 143.0794 -54.1147 -0.633 -0.767 0.107 92 74 74
370.2598 136.5122 -52.1237 -0.310 -0.511 0.802 90 74 74
371.8094 136.5172 -52.4051 -0.218 -0.689 0.691 87 71 71
387.9096 137.1800 -55.3477 0.304 -0.743 0.596 82 65 71
388.2481 128.9034 -55.1533 0.283 -0.874 0.395 80 67 68
365.2808 115.6130 -50.5739 -0.142 -0.387 0.911 76 65 63
370.1852 114.3109 -51.4238 -0.152 -0.780 0.607 111 96 89
364.8305 102.3393 -50.0818 -0.235 -0.732 -0.640 110 94 95
369.7486 102.7206 -50.9862 0.044 -0.972 -0.232 118 102 103
371.4716 102.6686 -51.2973 0.021 -0.980 -0.198 118 102 103
373.0036 101.3750 -51.5353 -0.190 -0.807 -0.560 106 88 88
367.3732 98.5309 -50.4255 -0.959 0.076 -0.275 97 77 76
356.5137 94.2158 -48.3211 -0.933 0.357 -0.038 87 67 66
359.3950 93.4211 -48.8195 -0.816 -0.127 -0.565 74 54 53
360.4247 91.0039 -48.9316 -0.227 -0.918 0.324 66 48 48
367.0269 88.9768 -50.0673 -0.213 -0.938 0.273 69 51 51
367.8653 88.6494 -50.2093 -0.408 0.107 0.907 66 50 50
367.7875 88.0871 -50.1778 -0.408 0.107 0.907 74 58 58
366.4450 85.6033 -49.8573 -0.178 -0.494 0.851 72 58 57
367.4314 84.7781 -50.0109 -0.182 -0.500 0.846 71 57 56
359.1161 76.2126 -48.2368 0.042 -0.762 0.646 59 49 50
360.7307 76.0573 -48.5251 0.042 -0.762 0.646 73 61 61
365.2148 74.9820 -49.3057 -0.935 0.175 -0.309 91 77 76
361.2278 71.2353 -48.4662 -0.418 -0.718 0.557 120 102 100
361.7673 70.8511 -48.5523 -0.415 -0.713 0.565 121 101 100
365.8968 70.6403 -49.2952 -0.503 -0.388 0.772 112 93 89
367.6769 48.5953 -48.9367 -0.764 -0.122 -0.633 91 79 79
359.7361 45.3403 -47.3949 -0.808 -0.252 -0.532 85 73 73
360.2439 44.9632 -47.4754 -0.805 -0.312 -0.505 86 74 74
359.3374 44.4756 -47.2958 -0.500 -0.504 -0.705 85 75 74
359.8267 44.0980 -47.3729 -0.500 -0.504 -0.705 85 75 74
353.9138 36.1373 -46.0536 -0.004 -0.551 0.834 70 65 69
357.4700 34.3399 -46.6435 -0.060 -0.321 0.945 70 65 69
359.9588 32.4781 -47.0376 -0.016 -0.445 0.896 64 58 60
368.0833 30.3057 -48.4450 -0.454 -0.140 0.880 66 60 62
366.3060 27.1680 -48.0254 -0.815 0.087 -0.573 84 75 76
362.9939 26.0205 -47.3888 -0.937 0.329 0.115 93 84 85
290.5955 381.1429 -46.0809 -0.976 -0.169 -0.134 26 30 24
368.4729 268.6763 -56.7292 -0.710 0.148 0.688 53 55 43
371.4642 269.3229 -57.2990 -0.508 -0.057 0.860 47 49 39
370.6594 267.3806 -57.0885 -0.611 0.047 0.790 47 49 39
376.3316 270.5914 -58.2333 -0.672 0.387 0.631 44 46 36
377.6465 270.6965 -58.4780 -0.640 0.409 0.651 44 46 36
376.7493 268.6701 -58.2477 -0.652 0.449 0.611 44 46 36
370.4726 258.1594 -56.7556 -0.243 -0.901 -0.361 40 42 32
379.0642 263.9602 -58.5200 -0.575 -0.721 0.387 44 46 36
381.1728 264.7784 -58.9334 -0.483 -0.790 -0.377 44 46 36
382.5157 264.8748 -59.1829 -0.488 -0.790 -0.372 45 45 36
385.4494 266.4265 -59.7715 -0.500 -0.778 -0.380 47 47 38
379.2302 235.8385 -57.6398 -0.629 -0.731 0.263 74 73 68
376.5114 222.5641 -56.7110 -0.773 0.489 0.403 41 31 27
374.4056 218.9816 -56.2086 -0.778 -0.594 -0.206 41 31 27
376.3794 215.6670 -56.4635 -0.565 -0.731 0.384 46 33 29
377.0483 215.2104 -56.5714 -0.566 -0.735 0.372 52 39 35
379.8448 210.6083 -56.9355 -0.786 0.345 -0.514 79 63 61
365.6261 191.5885 -53.7105 -0.884 -0.032 -0.466 69 52 53
380.7798 192.9764 -56.5362 -0.582 -0.556 0.593 94 76 73
376.0081 187.2852 -55.4762 -0.793 -0.370 0.483 94 76 74
372.5695 180.8860 -54.6381 -0.498 -0.787 0.364 111 95 92
367.7768 175.4632 -53.5830 -0.245 -0.936 -0.253 114 97 94
368.6044 173.5488 -53.6729 -0.861 -0.488 0.144 119 101 96
369.4324 173.2435 -53.8149 -0.871 -0.455 0.185 119 101 96
376.5822 166.2220 -54.8995 -0.778 -0.381 0.500 75 60 57
378.6733 166.5876 -55.2951 -0.981 0.018 0.193 75 60 57
372.8533 155.7495 -53.8762 0.049 -0.914 -0.403 78 65 64
370.7191 150.9466 -53.3290 -0.674 -0.378 -0.634 102 89 86
383.2340 151.9520 -55.6580 -0.355 -0.930 0.099 93 80 77
374.0013 136.1410 -53.4518 -0.239 -0.384 0.892 87 71 71
374.7009 134.3804 -53.5232 -0.258 -0.415 0.872 83 67 71
367.8922 103.3244 -51.2681 0.109 -0.965 0.239 104 88 89
357.9067 94.6368 -49.1545 -0.918 0.219 0.330 92 72 71
366.2530 88.7871 -50.4966 -0.095 -0.246 0.965 80 62 62
364.0547 85.0262 -49.9714 -0.484 -0.132 0.865 68 54 53
372.6855 78.0581 -51.3295 0.227 -0.767 0.601 78 64 62
363.8346 73.7108 -49.5646 -0.859 0.503 -0.098 108 94 93
362.5647 71.9821 -49.2756 -0.745 -0.153 -0.649 108 94 91
360.3204 71.0663 -48.8341 -0.479 -0.753 0.451 114 96 94
379.7605 50.6217 -51.7393 0.006 -0.311 0.950 91 79 79
368.8831 48.7004 -49.6811 -0.729 -0.167 -0.664 91 79 79
366.8904 47.2109 -49.2672 -0.741 -0.127 -0.659 85 73 73
364.8956 46.1799 -48.8678 -0.705 -0.155 -0.693 85 73 73
365.3060 43.2365 -48.8478 -0.799 -0.186 -0.572 85 75 75
367.2392 42.1021 -49.1658 -0.730 -0.175 -0.661 84 74 74
294.8359 397.6701 -48.2801 -0.633 -0.431 0.643 14 24 10
312.0361 415.7111 -52.0814 -0.970 -0.242 -0.024 17 27 9
303.4768 378.7782 -49.2435 -0.318 -0.416 0.852 20 28 21
368.6780 271.3183 -57.7009 -0.588 0.256 0.767 61 70 44
368.0437 268.3709 -57.4835 -0.670 0.299 0.680 56 63 39
370.3526 269.5048 -57.9502 -0.566 0.009 0.824 51 55 36
370.0818 266.9342 -57.8129 -0.609 0.052 0.792 51 56 35
371.0150 266.6991 -57.9781 -0.564 0.194 0.803 50 55 34
375.1044 269.5212 -58.8322 -0.643 0.414 0.644 50 54 35
374.8718 266.9849 -58.7032 -0.651 0.450 0.612 62 66 48
374.5371 265.5163 -58.5914 -0.640 0.422 0.642 65 68 50
378.4467 263.4979 -59.2483 -0.623 -0.674 0.398 63 66 50
379.0323 262.9042 -59.3369 -0.623 -0.674 0.398 58 60 45
385.6093 264.3799 -60.6068 -0.485 -0.852 -0.196 60 62 42
371.4937 247.1998 -57.4069 -0.356 -0.786 0.506 61 63 43
373.2775 245.5767 -57.6828 -0.339 0.127 0.932 57 60 44
373.2100 225.9699 -57.0066 -0.634 -0.740 0.224 40 43 33
379.3290 225.8396 -58.1373 -0.925 -0.104 0.367 65 64 53
374.1057 218.8328 -56.9312 -0.772 -0.606 -0.190 65 64 53
375.2682 215.8681 -57.0465 -0.553 -0.739 0.384 61 60 49
383.1134 215.9292 -58.5039 -0.053 -0.811 -0.583 69 67 56
373.3393 202.3314 -56.2305 -0.934 0.354 -0.039 77 69 62
372.0247 198.7068 -55.8640 -0.929 0.367 -0.049 60 53 48
373.2400 188.9976 -55.7608 -0.934 -0.086 -0.348 74 57 50
375.0814 189.3350 -56.1138 -0.755 -0.405 0.515 85 68 60
375.4058 188.6814 -56.1518 -0.755 -0.405 0.515 85 68 61
377.6125 184.9377 -56.4344 -0.592 -0.111 0.798 132 122 120
367.4162 176.9184 -54.2716 -0.765 -0.075 0.640 106 95 93
362.9891 170.2160 -53.2235 -0.278 -0.902 0.330 107 98 93
370.2313 165.8458 -54.4190 -0.252 -0.602 -0.757 77 66 62
371.2587 165.6469 -54.6028 -0.252 -0.602 -0.757 77 65 61
372.9582 155.8472 -54.5864 0.041 -0.915 -0.401 79 73 68
379.8598 155.6141 -55.8587 -0.549 -0.234 0.802 87 79 74
372.1640 150.9828 -54.2744 -0.544 -0.625 -0.559 84 76 70
369.5002 146.0369 -53.6129 -0.670 -0.586 0.457 77 69 64
383.5693 152.1545 -56.4298 -0.275 -0.942 0.193 78 68 63
377.6418 148.5405 -55.2079 -0.084 -0.772 0.630 85 70 67
382.2726 145.5969 -55.9673 -0.446 -0.182 0.876 79 61 59
373.8661 140.2964 -54.2284 -0.208 -0.846 0.491 79 66 65
370.1385 137.9011 -53.4559 -0.940 0.103 0.326 79 67 65
369.8400 137.0764 -53.3726 -0.945 0.100 0.313 79 66 65
369.7764 136.3610 -53.3366 -0.945 0.100 0.313 83 69 68
370.3795 135.9452 -53.4344 -0.977 -0.200 -0.066 92 80 78
370.5077 135.3178 -53.4369 -0.976 -0.206 -0.065 91 80 78
371.4393 135.0454 -53.6005 -0.232 -0.397 0.888 92 79 78
371.4550 134.3694 -53.5806 -0.120 -0.584 0.803 94 80 79
373.5014 132.5309 -53.8979 -0.268 -0.378 0.886 90 71 72
354.1161 111.5163 -49.5907 -0.159 -0.378 0.912 66 51 53
361.4043 111.2080 -50.9322 -0.119 -0.413 0.903 96 82 82
361.5941 109.4882 -50.9092 -0.921 -0.224 -0.320 100 86 84
364.8431 102.9546 -51.2907 0.084 -0.899 0.429 104 85 87
366.2143 101.0747 -51.4814 0.229 -0.821 0.523 106 87 89
377.1839 102.6688 -53.5703 0.284 -0.750 0.597 91 72 74
365.1341 87.9697 -50.8375 -0.095 -0.251 0.963 77 62 59
364.1397 85.0558 -50.5544 -0.508 -0.039 0.861 66 52 51
360.6031 70.6386 -49.4104 -0.451 -0.652 0.610 105 87 85
364.3920 60.8365 -49.7814 -0.207 -0.764 -0.610 75 59 62
365.7878 60.5710 -50.0313 -0.232 -0.735 -0.638 75 59 62
375.2154 51.0941 -51.4594 -0.017 -0.273 0.962 90 80 81
375.8336 50.6979 -51.5607 -0.017 -0.273 0.962 89 79 80
375.0761 50.1694 -51.4022 -0.010 -0.276 0.961 87 77 78
359.7102 46.1640 -48.4163 -0.757 -0.247 -0.605 81 69 71
359.3515 45.7146 -48.3346 -0.784 -0.296 -0.546 81 69 71
358.8995 45.2600 -48.2353 -0.735 -0.386 -0.558 80 70 71
363.0731 43.9099 -48.9638 -0.645 -0.652 -0.398 80 71 74
363.9388 43.1329 -49.0981 -0.663 -0.492 -0.565 80 71 73
367.7330 42.5500 -49.7822 -0.843 -0.230 -0.486 79 70 73
368.4723 42.1747 -49.9066 -0.896 -0.099 -0.433 80 71 73
359.1383 32.4355 -47.8455 -0.896 -0.140 0.421 67 62 60
364.9257 30.6209 -48.8577 -0.600 -0.202 0.774 69 63 61
369.2101 30.3010 -49.6416 -0.449 -0.076 0.890 69 64 62
369.1835 29.9040 -49.6232 -0.425 -0.137 0.895 69 64 62
290.6028 381.7362 -47.8102 -0.977 -0.172 -0.126 18 31 11
312.5746 415.2520 -53.1136 -0.974 -0.213 -0.074 20 33 16
311.6270 411.4270 -52.8008 -0.953 -0.141 0.267 20 32 21
313.5068 411.5526 -53.1577 -0.184 -0.950 0.253 20 31 23
316.1331 413.1530 -53.7067 -0.795 -0.601 0.078 20 32 23
303.0331 379.8677 -50.0749 -0.317 -0.283 0.905 18 30 21
302.8374 377.7906 -49.9649 -0.318 -0.416 0.852 19 30 22
303.9472 376.6033 -50.1310 -0.318 -0.416 0.852 25 36 28
221.3778 209.3575 -28.7427 0.046 -0.858 -0.512 26 37 31
315.7199 368.9546 -52.0684 -0.066 -0.869 0.490 42 56 31
367.2104 267.6636 -58.1459 -0.669 0.288 0.685 57 66 40
369.7473 269.0271 -58.6697 -0.571 0.011 0.821 55 60 39
369.7747 267.9011 -58.6351 -0.571 0.011 0.821 55 60 38
369.9979 266.9711 -58.6441 -0.575 0.032 0.817 56 61 39
374.4449 266.6923 -59.4680 -0.655 0.450 0.607 81 84 65
381.3549 266.3281 -60.7508 -0.492 -0.748 0.445 68 71 54
383.4445 267.1185 -61.1705 -0.498 -0.725 0.476 63 66 49
365.6627 244.1900 -57.0267 -0.899 -0.226 0.376 52 55 34
383.2834 238.3092 -60.1229 -0.589 -0.091 0.803 54 57 46
372.5708 225.5444 -57.6635 -0.633 -0.729 0.258 40 43 32
376.7697 226.9068 -58.4989 -0.522 -0.849 -0.079 47 50 39
379.9612 226.4208 -59.0802 -0.483 -0.871 -0.095 78 78 66
380.7215 226.0129 -59.2083 -0.483 -0.871 -0.095 78 78 66
373.8246 219.6675 -57.6910 -0.974 -0.226 -0.019 78 78 66
373.5892 218.5169 -57.6063 -0.768 -0.609 -0.200 78 78 66
374.5034 218.2538 -57.7684 -0.686 -0.721 -0.096 74 74 62
380.7379 211.4046 -58.6955 -0.464 -0.395 0.793 58 54 45
372.2245 197.1315 -56.5951 -0.520 -0.410 -0.749 60 50 59
373.2450 196.9440 -56.7799 -0.538 -0.398 -0.743 60 50 59
373.4535 187.4804 -56.4848 -0.806 -0.360 0.470 90 73 66
374.0201 186.9896 -56.5737 -0.789 -0.382 0.480 90 73 66
377.5571 186.6753 -57.2258 -0.821 -0.521 0.233 91 82 77
370.3641 171.5005 -55.3412 -0.872 -0.451 0.192 96 89 83
376.8294 174.4979 -56.6593 -0.447 -0.882 0.146 91 84 78
378.6499 174.7446 -57.0093 -0.082 -0.989 0.123 91 82 77
370.2739 166.7011 -55.1548 -0.241 -0.567 -0.788 81 72 67
379.3382 155.3922 -56.4550 -0.558 -0.229 0.798 83 76 70
361.1586 142.6913 -52.5977 -0.511 -0.814 -0.277 77 70 64
368.6738 145.6712 -54.1120 -0.665 -0.579 0.471 76 69 63
369.6007 145.4091 -54.2766 -0.727 -0.591 0.350 77 68 63
375.1106 145.9062 -55.3273 -0.521 -0.172 0.836 81 61 60
375.6877 145.4579 -55.4197 -0.524 -0.171 0.834 75 57 55
376.0165 143.4538 -55.4105 -0.527 -0.173 0.832 75 57 55
369.1763 136.8100 -53.8933 -0.980 0.017 0.201 73 62 60
369.5674 136.3000 -53.9487 -0.945 0.100 0.313 77 63 62
369.6369 134.9642 -53.9145 -0.235 -0.400 0.886 84 73 71
370.1331 134.5022 -53.9912 -0.235 -0.400 0.886 84 73 71
371.4906 131.7036 -54.1469 0.237 -0.798 0.554 87 67 68
366.1274 125.4946 -52.9221 0.151 -0.954 0.257 94 75 77
367.2769 125.3166 -53.1313 0.169 -0.673 0.720 92 76 77
365.0607 123.7712 -52.6612 -0.985 -0.092 -0.145 91 75 76
322.5972 103.4333 -43.9809 -0.946 -0.286 0.150 94 78 81
368.2919 112.4694 -52.8679 -0.908 0.195 -0.370 94 80 79
361.9272 109.6252 -51.5741 -0.971 0.016 -0.239 95 81 80
366.0388 98.7458 -51.9608 -0.988 -0.110 0.108 92 72 73
363.4860 89.7060 -51.1629 -0.701 -0.199 -0.684 129 114 109
362.9213 87.4125 -50.9760 -0.106 -0.269 0.957 81 66 63
362.9039 84.2366 -50.8606 -0.243 -0.185 0.952 66 52 51
364.2786 74.8062 -50.7853 -0.923 0.366 -0.122 90 75 70
360.7087 71.1465 -49.9867 -0.906 0.129 0.402 106 88 84
357.5903 70.0757 -49.3642 -0.026 -0.932 0.362 102 84 82
359.1198 69.8825 -49.6441 -0.021 -0.935 0.353 102 84 82
365.1416 60.9435 -50.4576 -0.200 -0.777 -0.597 78 62 65
370.1911 60.2488 -51.3798 -0.938 0.143 0.314 78 62 65
370.8217 49.3122 -51.1119 -0.009 -0.291 0.957 76 66 67
368.3905 48.6440 -50.6324 -0.242 -0.622 0.744 75 65 66
352.1164 44.7044 -47.4418 -0.897 0.075 -0.436 71 60 64
352.0713 44.2966 -47.4190 -0.897 0.075 -0.436 70 61 64
352.6269 43.5331 -47.4962 -0.584 -0.679 -0.446 70 61 64
362.6958 43.8751 -49.3962 -0.727 -0.459 -0.510 70 61 64
367.8723 42.5517 -50.3201 -0.854 -0.223 -0.470 69 60 63
378.8142 41.5185 -52.3352 -0.863 -0.210 -0.459 83 74 77
379.5634 41.1234 -52.4618 -0.871 -0.189 -0.453 85 76 79
355.2909 33.0857 -47.6267 -0.317 -0.037 0.948 77 72 69
356.1192 32.3457 -47.7559 -0.300 -0.007 0.954 77 72 69
371.1247 30.7217 -50.5121 -0.818 0.283 0.501 84 79 76
369.4397 30.2931 -50.1810 -0.812 0.083 0.578 83 78 75
369.1407 29.8915 -50.1108 -0.692 -0.017 0.722 83 78 75
368.6093 29.4888 -49.9969 -0.053 -0.388 0.920 83 78 75
361.3471 28.2486 -48.5915 -0.117 -0.359 0.926 89 80 81
363.2694 27.8821 -48.9390 -0.734 -0.207 -0.647 89 80 81
362.5376 27.4965 -48.7881 -0.802 0.087 -0.592 91 81 82
219.1859 286.0288 -31.6110 -0.192 -0.971 0.140 7 15 17
230.5694 303.9342 -34.4269 -0.255 -0.566 0.784 11 22 14
230.7088 302.8729 -34.4143 -0.228 -0.582 0.780 13 25 11
230.9109 301.9799 -34.4197 -0.181 -0.558 0.810 13 25 9
312.8646 410.5477 -53.9441 -0.201 -0.945 0.259 25 38 26
302.2422 378.5753 -50.7551 -0.317 -0.283 0.905 22 38 25
312.9460 372.3256 -52.5536 -0.093 -0.996 -0.010 32 48 22
366.3828 266.9613 -58.8047 -0.673 0.291 0.680 60 69 43
369.0490 266.1602 -59.2805 -0.575 0.032 0.817 63 68 46
369.3406 265.3031 -59.3042 -0.585 0.219 0.781 66 71 49
374.2708 265.4950 -60.2456 -0.542 0.187 0.819 91 94 75
375.8546 261.3042 -60.3916 -0.464 -0.066 0.884 74 77 60
356.7668 240.3539 -56.0037 -0.124 -0.984 -0.131 59 62 44
363.3150 245.3253 -57.4275 -0.083 -0.996 -0.017 56 59 39
363.5159 244.4534 -57.4335 -0.089 -0.996 -0.004 56 59 38
352.9525 232.8109 -55.0034 -0.924 -0.365 0.110 57 60 39
354.2750 233.0020 -55.2610 -0.356 -0.687 0.633 60 63 42
367.7512 239.8656 -58.0673 -0.559 -0.426 0.711 57 60 43
367.5848 238.6821 -57.9923 -0.527 -0.488 0.696 57 60 43
366.3021 235.5096 -57.6325 -0.263 -0.248 0.932 48 51 34
366.7239 234.8521 -57.6883 -0.263 -0.248 0.932 48 51 34
383.5587 238.6289 -61.0175 -0.574 -0.097 0.813 47 50 39
379.3606 227.0391 -59.7956 -0.375 -0.923 -0.090 69 72 61
380.4717 226.9072 -60.0014 -0.378 -0.912 -0.157 78 78 66
381.0129 226.3262 -60.0825 -0.383 -0.921 -0.073 78 78 66
374.8832 198.1357 -57.8840 -0.544 -0.391 -0.742 60 51 55
377.6389 199.1218 -58.4425 -0.548 -0.407 -0.731 60 51 56
372.5217 190.3796 -57.1511 -0.406 -0.431 -0.806 85 67 63
370.7223 188.3316 -56.7348 -0.905 -0.170 -0.390 92 75 68
368.9086 186.2896 -56.3160 -0.916 -0.120 -0.383 97 80 73
371.7380 187.2848 -56.8888 -0.738 -0.332 0.587 97 80 72
372.0180 186.6131 -56.9171 -0.738 -0.332 0.587 97 80 73
377.3862 186.6279 -57.9350 -0.821 -0.521 0.233 88 78 76
371.1196 172.8026 -56.2389 -0.680 -0.671 -0.296 95 88 82
375.3814 174.5157 -57.1096 -0.599 -0.773 0.208 90 83 77
376.6760 174.4613 -57.3529 -0.447 -0.882 0.146 84 77 71
378.5146 174.7190 -57.7108 -0.081 -0.988 0.133 89 80 75
367.0495 167.2409 -55.2630 -0.174 -0.770 -0.614 91 82 77
374.0341 158.0101 -56.2471 -0.123 -0.772 -0.624 79 72 66
377.1298 155.0695 -56.7256 -0.493 -0.294 0.819 85 78 72
378.6598 155.0906 -57.0163 -0.558 -0.229 0.798 76 69 63
372.7228 151.3452 -55.7534 -0.439 0.103 0.892 71 64 58
367.2309 147.8600 -54.5845 -0.953 0.055 -0.296 66 59 53
368.3525 145.5521 -54.7121 -0.665 -0.579 0.471 76 69 63
369.5076 145.4016 -54.9255 -0.726 -0.597 0.342 77 68 63
373.2367 145.0493 -55.6192 -0.272 -0.550 0.790 81 61 60
374.4500 144.9079 -55.8440 -0.515 -0.174 0.839 75 57 55
374.8658 143.6687 -55.8772 -0.995 -0.090 0.044 68 50 48
374.5016 142.7842 -55.7756 -0.997 -0.059 -0.050 69 51 49
373.8794 141.0769 -55.5949 -0.987 -0.074 -0.146 67 53 50
373.9282 140.3938 -55.5790 -0.987 -0.074 -0.146 68 55 54
369.9311 137.8740 -54.7289 -0.987 0.031 0.155 67 56 54
368.5598 136.5647 -54.4208 -0.979 0.010 0.202 67 56 54
368.2713 135.7511 -54.3362 -0.980 -0.044 0.194 69 55 54
368.5054 135.1745 -54.3594 -0.908 -0.034 0.417 72 61 59
368.6570 134.5619 -54.3656 -0.911 -0.042 0.409 72 61 59
368.6953 133.9008 -54.3485 -0.911 -0.042 0.409 72 61 59
371.1715 132.2723 -54.7579 -0.024 -0.184 0.983 80 60 61
374.9833 131.8604 -55.4651 0.242 -0.840 0.485 95 75 76
364.6921 123.0094 -53.1893 -0.990 -0.087 -0.110 85 69 70
367.5974 122.8906 -53.7355 -0.947 -0.156 -0.281 93 77 78
368.8925 122.7604 -53.9761 -0.961 -0.169 -0.218 93 77 78
370.5656 122.7734 -54.2937 0.114 -0.894 0.434 93 77 78
353.5183 110.7514 -50.6208 -0.159 -0.353 0.922 75 60 63
357.9475 110.0106 -51.4330 -0.106 -0.398 0.911 84 70 70
363.5267 101.9922 -52.1953 0.150 -0.729 0.667 106 86 88
364.7145 85.7450 -51.8228 -0.700 -0.066 -0.711 82 68 67
364.4776 85.1562 -51.7562 -0.711 -0.062 -0.701 77 63 62
363.9737 84.5051 -51.6368 -0.750 -0.074 -0.657 64 50 49
361.7981 83.4551 -51.1859 -0.292 -0.605 0.741 64 50 49
355.6835 80.4670 -49.9172 -0.677 -0.269 0.685 65 51 51
351.4196 78.4831 -49.0362 -0.782 0.016 -0.623 66 51 54
365.2321 77.5361 -51.6189 -0.628 -0.763 -0.155 65 51 51
365.3701 76.5478 -51.6087 -0.793 0.295 -0.534 71 56 51
349.7192 61.8036 -48.1004 -0.142 -0.923 -0.359 92 76 79
352.4312 61.3343 -48.5971 -0.074 -0.894 -0.442 102 86 89
363.2148 61.5924 -50.6502 -0.158 -0.916 -0.368 102 86 89
365.9211 61.5232 -51.1605 -0.259 -0.956 -0.140 97 81 84
368.5776 60.9651 -51.6434 -0.167 -0.929 -0.330 94 78 81
370.2201 60.7243 -51.9458 -0.961 0.029 0.277 94 78 81
369.9673 60.2163 -51.8792 -0.943 0.155 0.294 94 78 81
368.1407 58.5639 -51.4723 -0.949 0.164 0.270 84 68 71
368.0676 58.0901 -51.4410 -0.949 0.164 0.270 84 68 71
370.0975 49.6840 -51.5165 -0.112 -0.252 0.961 76 65 69
368.4683 48.6456 -51.1695 -0.410 -0.248 0.878 70 59 63
365.5709 47.9452 -50.5947 -0.674 -0.345 -0.654 67 56 60
365.4421 47.5002 -50.5539 -0.674 -0.323 -0.664 66 55 59
351.0661 44.2108 -47.7085 -0.895 -0.011 -0.447 66 57 60
351.0310 43.8064 -47.6870 -0.898 -0.033 -0.438 67 58 61
351.9859 43.4781 -47.8559 -0.586 -0.676 -0.447 64 58 60
362.6054 43.8615 -49.8825 -0.742 -0.457 -0.491 64 58 60
368.1835 42.5649 -50.8919 -0.854 -0.223 -0.470 62 56 60
367.9573 41.7024 -50.8173 -0.918 0.019 -0.396 68 62 66
367.9404 41.2792 -50.7985 -0.918 0.019 -0.396 73 67 71
368.4298 40.8875 -50.8769 -0.923 -0.033 -0.384 76 70 74
370.0312 40.5598 -51.1683 -0.995 0.071 0.070 80 73 76
370.9853 40.1910 -51.3355 -0.983 0.175 -0.047 81 70 72
370.8446 30.7050 -50.9599 -0.818 0.283 0.501 83 78 74
369.1264 30.2763 -50.6186 -0.812 0.083 0.578 84 79 76
364.8795 29.0396 -49.7682 -0.058 -0.386 0.921 84 79 76
363.5929 25.9691 -49.4115 -0.569 -0.116 -0.814 90 81 82
363.6711 25.5909 -49.4124 -0.569 -0.116 -0.814 89 80 81
361.6343 25.2225 -49.0129 -0.573 -0.109 -0.812 87 78 79
255.5423 407.4128 -43.7892 -0.908 0.258 0.329 16 21 22
229.8967 299.6114 -34.7539 -0.221 -0.739 0.636 19 32 14
299.4097 392.1598 -51.6070 -0.752 -0.599 -0.275 27 45 21
315.7301 414.8150 -55.5992 -0.423 -0.881 0.213 28 45 27
312.5796 371.9074 -53.3545 -0.136 -0.990 0.049 38 54 27
372.4086 261.5623 -60.5917 -0.215 -0.831 -0.513 79 82 65
370.3005 257.3335 -60.0262 -0.453 0.006 0.892 80 83 66
358.1093 241.6931 -57.0931 -0.244 -0.967 -0.069 66 69 51
361.9105 244.1417 -57.9147 -0.065 -0.998 0.005 74 77 57
362.9833 244.0709 -58.1175 -0.065 -0.998 0.005 74 77 56
364.0423 243.9821 -58.3169 -0.120 -0.992 -0.048 75 78 57
373.9463 247.5462 -60.3500 -0.712 -0.338 0.616 60 63 42
367.5126 240.7972 -58.8597 -0.104 -0.650 0.752 57 60 43
365.2768 231.6797 -58.0827 -0.325 -0.824 0.463 57 59 45
366.0272 231.3108 -58.2123 -0.325 -0.824 0.463 50 54 40
364.0396 227.6355 -57.6911 -0.536 -0.201 0.820 50 54 40
364.2987 226.8630 -57.7112 -0.536 -0.201 0.820 50 53 42
368.9435 228.7383 -58.6725 -0.127 -0.813 0.569 42 45 34
377.1042 227.3481 -60.1822 -0.537 -0.826 0.174 47 50 39
377.7826 226.8837 -60.2943 -0.537 -0.826 0.174 60 63 52
379.2988 227.0775 -60.5921 -0.387 -0.920 -0.065 69 72 61
385.5116 228.9004 -61.8517 -0.516 -0.836 0.188 64 64 52
375.6250 195.1422 -58.6669 -0.978 -0.007 0.208 71 63 61
372.8707 190.6744 -57.9685 -0.725 0.159 0.670 95 78 71
370.2845 184.7065 -57.2449 -0.665 0.155 0.731 101 84 77
376.4758 178.5179 -58.1939 -0.491 -0.365 0.791 106 99 93
368.6983 173.0178 -56.4940 -0.862 -0.016 0.507 106 99 93
374.6285 174.9400 -57.7033 -0.599 -0.773 0.208 90 83 77
375.2071 174.4664 -57.7960 -0.599 -0.773 0.208 85 78 72
376.0551 174.1501 -57.9463 -0.410 -0.850 0.332 79 72 66
377.9357 174.4341 -58.3173 -0.146 -0.988 0.053 88 79 74
376.9135 173.0223 -58.0676 -0.497 -0.804 0.328 92 83 78
376.8136 166.5452 -57.8006 -0.691 -0.037 0.721 80 66 65
376.8730 165.7874 -57.7830 -0.691 -0.037 0.721 80 66 66
375.8097 163.6327 -57.4970 0.104 -0.994 -0.026 83 67 68
377.7433 163.9031 -57.8776 0.100 -0.994 -0.031 83 69 69
377.3428 162.9035 -57.7627 -0.753 0.190 0.630 83 69 69
371.1701 158.0516 -56.3949 -0.197 -0.710 -0.676 80 71 68
373.5049 157.7751 -56.8315 -0.066 -0.801 -0.595 79 72 66
377.9427 154.7693 -57.5664 -0.487 -0.280 0.827 72 65 59
361.1956 143.4795 -53.9272 -0.601 -0.779 -0.179 75 68 62
367.0238 144.9403 -55.0993 -0.639 -0.610 0.469 76 69 63
367.8700 144.6434 -55.2500 -0.667 -0.685 0.293 77 68 63
371.8923 144.4447 -56.0127 -0.282 -0.566 0.775 81 61 60
372.7665 144.1461 -56.1687 -0.502 -0.114 0.857 75 57 55
375.1966 143.8599 -56.6232 -0.992 -0.106 -0.067 64 46 44
374.6867 141.4833 -56.4346 -0.988 -0.115 -0.107 63 48 45
374.7636 140.8104 -56.4236 -0.988 -0.115 -0.107 63 51 49
373.0550 139.3276 -56.0397 -0.993 -0.106 -0.058 62 51 49
373.5327 138.8442 -56.1127 -0.989 -0.147 -0.011 62 51 49
366.6577 129.7012 -54.4463 0.199 -0.820 0.537 75 55 56
365.1449 124.5016 -53.9576 0.158 -0.943 0.292 81 65 66
365.4271 123.3317 -53.9669 -0.937 -0.175 -0.303 80 64 65
366.3818 123.0740 -54.1399 -0.940 -0.165 -0.299 92 76 77
367.8377 123.0122 -54.4164 -0.948 -0.163 -0.272 93 77 78
368.5477 122.6502 -54.5385 -0.908 -0.318 -0.273 93 77 78
365.0724 120.0146 -53.7721 -0.070 -0.814 0.577 94 78 81
352.7881 114.6339 -51.2137 -0.631 -0.135 -0.764 91 76 79
355.1524 109.0290 -51.4521 -0.700 -0.123 0.703 79 65 65
358.6014 102.7156 -51.8711 -0.844 -0.512 -0.160 94 78 81
347.5518 98.0267 -49.5756 -0.895 0.048 -0.444 102 83 85
357.0064 100.5042 -51.4810 0.146 -0.720 0.679 106 86 88
366.3518 94.3555 -53.0356 -0.882 0.460 0.107 108 90 88
366.8852 92.2815 -53.0584 -0.873 0.253 0.417 109 94 89
367.1306 91.7956 -53.0868 -0.874 0.278 0.398 109 94 89
367.1928 91.2611 -53.0783 -0.869 0.269 0.416 110 95 90
366.2562 90.4628 -52.8684 -0.875 0.319 0.364 114 99 94
364.5856 86.7876 -52.4079 -0.717 -0.107 -0.689 93 79 78
367.2122 86.9100 -52.9156 -0.729 -0.050 -0.683 94 80 79
367.9842 86.0251 -53.0296 -0.739 -0.007 -0.673 90 76 75
351.7863 79.0670 -49.6613 -0.597 -0.203 -0.776 72 58 58
351.8198 78.5820 -49.6491 -0.545 -0.291 -0.786 72 57 60
364.6279 77.9225 -52.0769 -0.605 -0.783 -0.145 65 50 53
364.7369 76.9278 -52.0597 -0.638 -0.753 -0.160 62 47 45
365.2853 76.5353 -52.1497 -0.643 -0.751 -0.153 65 50 45
361.5752 61.8118 -50.8759 -0.160 -0.932 -0.325 103 87 90
366.1941 61.5622 -51.7510 -0.261 -0.955 -0.143 97 81 84
367.5012 61.2814 -51.9906 -0.167 -0.929 -0.330 95 79 82
366.3840 58.3291 -51.6637 -0.934 0.263 0.241 90 74 77
362.6014 56.9214 -50.8854 -0.979 0.113 0.167 90 74 77
365.7440 55.5025 -51.4330 -0.634 -0.454 -0.626 89 74 69
368.1051 50.8203 -51.7061 -0.781 -0.465 0.416 82 70 71
367.5483 50.3203 -51.5803 -0.185 -0.021 0.983 78 67 71
367.6163 49.8841 -51.5766 -0.185 -0.021 0.983 74 63 67
367.6739 49.4477 -51.5710 -0.185 -0.019 0.982 70 59 63
367.1759 48.9603 -51.4570 -0.196 -0.009 0.981 66 55 59
367.2256 48.5260 -51.4499 -0.291 -0.190 0.937 64 53 57
365.6667 47.9481 -51.1292 -0.881 -0.355 -0.314 61 50 54
365.3004 47.4819 -51.0412 -0.727 -0.355 -0.588 60 49 53
362.1393 45.0811 -50.3440 -0.621 -0.390 -0.680 60 51 54
352.3269 43.0954 -48.3888 -0.295 -0.881 -0.370 58 52 56
365.8965 42.8261 -50.9773 -0.703 -0.435 -0.563 58 52 56
366.7220 42.4595 -51.1214 -0.737 -0.414 -0.534 57 51 55
367.2102 42.0691 -51.1999 -0.746 -0.418 -0.518 59 53 57
367.4606 41.6630 -51.2323 -0.746 -0.418 -0.518 62 56 60
361.6768 40.4747 -50.0792 -0.901 0.150 0.408 71 65 69
367.7007 40.4157 -51.2306 -0.876 0.175 0.450 74 67 70
366.5588 39.5167 -50.9775 -0.876 0.192 0.441 81 69 69
364.1451 38.9739 -50.4945 -0.873 0.161 0.460 80 68 68
363.7451 38.5436 -50.4014 -0.978 -0.195 -0.072 82 68 68
368.2859 31.0446 -50.9842 -0.928 -0.002 0.374 83 78 74
375.2122 30.7719 -52.3003 -0.926 -0.036 0.375 83 78 74
369.9926 30.2787 -51.2818 -0.776 0.236 0.585 83 78 74
363.7436 29.0146 -50.0366 -0.197 -0.350 0.916 83 78 74
362.2486 25.2070 -49.6047 -0.582 -0.104 -0.807 76 67 68
358.7882 24.8534 -48.9284 -0.615 0.026 -0.788 77 68 69
356.2561 24.5046 -48.4302 -0.727 0.110 -0.678 77 68 69
353.8640 24.1632 -47.9590 -0.753 0.095 -0.651 77 68 69
362.6377 22.5994 -49.5794 -0.657 0.014 -0.754 78 72 74
253.5307 403.9639 -44.0869 -0.915 0.192 0.356 17 24 19
253.4200 401.6297 -43.9727 -0.925 0.197 0.325 16 22 17
253.0875 398.6721 -43.7909 -0.746 -0.129 0.653 12 18 13
221.9134 301.1421 -33.8838 -0.527 -0.776 -0.346 12 18 13
222.3380 300.8861 -33.9558 -0.527 -0.776 -0.346 16 22 17
222.7027 300.4607 -34.0095 -0.508 -0.790 -0.343 17 27 19
218.7327 285.2907 -32.6386 -0.098 -0.985 -0.139 17 27 19
219.2311 285.3009 -32.7355 -0.096 -0.986 -0.139 18 27 20
229.6910 299.3334 -35.3171 -0.235 -0.752 0.615 24 35 18
230.2083 299.2695 -35.4147 -0.314 -0.749 0.584 24 35 18
234.0250 301.9771 -36.2608 -0.160 -0.987 -0.018 27 38 21
293.2754 391.8900 -51.2988 -0.389 -0.906 0.165 32 47 24
282.0323 298.7751 -45.4242 -0.904 -0.182 -0.386 57 67 42
281.3984 296.4056 -45.2074 -0.869 -0.214 -0.445 59 69 44
281.3504 295.0559 -45.1445 -0.867 -0.224 -0.445 61 71 46
280.5889 292.4980 -44.8955 -0.815 -0.211 -0.539 61 75 46
361.8013 244.1453 -58.6913 -0.065 -0.998 0.005 88 91 71
362.8740 244.0745 -58.8961 -0.065 -0.998 0.005 88 91 70
363.9789 244.0277 -59.1081 -0.120 -0.992 -0.048 88 91 70
364.5847 240.3854 -59.0806 -0.989 -0.109 0.096 76 79 58
360.5484 233.7380 -58.0355 -0.730 0.051 0.682 65 68 51
359.9407 231.1951 -57.8168 -0.675 -0.298 0.675 64 67 50
361.4767 231.5257 -58.1272 -0.604 -0.540 0.587 55 58 41
362.7174 231.5927 -58.3700 -0.549 -0.629 0.551 55 58 41
362.2308 230.1726 -58.2194 -0.615 -0.532 0.582 55 58 41
362.0868 229.0527 -58.1471 -0.393 -0.718 0.574 56 58 44
360.8806 227.0362 -57.8335 -0.792 0.061 0.607 65 69 55
361.7703 225.8194 -57.9574 -0.850 0.073 0.521 54 58 44
365.0189 225.5792 -58.5765 0.183 -0.909 0.374 48 51 40
366.9858 226.2171 -58.9825 0.185 -0.911 0.369 48 51 40
369.4738 227.2699 -59.5058 -0.159 -0.794 0.587 48 51 40
385.9698 229.3433 -62.7805 -0.531 -0.833 0.158 59 59 47
375.4714 195.1054 -59.3888 -0.978 -0.007 0.208 67 60 51
376.7555 195.0791 -59.6363 -0.961 -0.011 0.276 69 59 51
376.7745 194.2052 -59.6052 -0.961 -0.011 0.276 84 70 63
373.1393 190.0484 -58.7366 -0.752 0.100 0.651 99 82 75
370.4686 184.8858 -58.0147 -0.316 -0.808 0.497 99 82 75
371.5815 184.7552 -58.2249 -0.337 -0.771 0.540 98 82 75
