ply
format ascii 1.0
element vertex 862
property float x
property float y
property float z
property float nx
property float ny
property float nz
property uchar diffuse_red
property uchar diffuse_green
property uchar diffuse_blue
end_header
-47.0343 -36.3332 1.0458 0.341 0.817 0.465 138 145 163
-48.7021 -36.1679 1.2361 0.139 0.489 0.861 195 206 215
-56.6802 -36.5409 1.9918 0.293 0.196 0.936 153 167 177
-60.3672 -37.3221 2.2600 0.161 0.086 0.983 103 115 127
-73.3265 -36.8654 3.6288 0.592 0.801 -0.088 182 196 201
-127.7449 -48.4705 7.5774 0.895 0.167 0.414 120 130 140
-320.5160 -94.7317 20.8795 0.586 0.511 0.629 196 206 216
-320.0865 -93.2541 21.0328 0.548 0.484 0.682 153 164 172
-255.9984 -73.4134 17.2039 0.786 0.452 0.422 161 171 172
-255.3458 -72.7196 17.2303 0.804 0.440 0.401 134 143 147
-231.5478 -64.4676 15.9262 0.763 -0.646 0.021 203 211 224
-118.5080 -34.3774 8.5201 0.352 0.933 0.079 41 48 66
-118.0173 -33.2960 8.6144 0.835 0.549 0.045 46 52 76
-340.1171 35.1283 40.1352 0.449 0.310 0.838 57 59 84
-342.4062 38.6851 40.8394 0.549 0.282 0.787 50 52 77
-334.0789 38.0896 39.9197 0.624 -0.201 0.755 50 52 77
-397.3234 54.2921 48.4588 0.738 -0.540 0.405 34 36 61
-383.7076 53.6192 46.9950 0.723 -0.454 0.520 37 39 61
-363.8094 117.0290 53.4230 0.830 -0.311 -0.462 137 137 137
-362.9948 117.6114 53.4183 0.824 -0.315 -0.470 136 136 136
-362.6651 118.3738 53.4864 0.824 -0.315 -0.470 125 125 127
-394.9248 160.7795 62.3844 0.157 -0.916 0.368 123 122 120
-389.6022 159.3215 61.6532 0.779 -0.431 -0.455 124 123 121
-44.4553 -36.0753 0.7340 0.216 0.470 0.856 94 105 109
-48.8119 -36.1199 1.1579 0.110 0.361 0.926 190 200 209
-49.0422 -36.1257 1.1798 0.112 0.409 0.906 195 205 214
-49.5283 -36.2391 1.2127 0.092 0.362 0.928 197 207 216
-59.3727 -37.0738 2.0732 0.113 0.135 0.984 119 131 143
-59.8148 -37.1174 2.1110 0.122 0.131 0.984 109 121 133
-62.3627 -37.6703 2.2890 0.518 -0.143 0.843 186 198 210
-108.6029 -46.2916 5.7063 0.375 -0.849 -0.371 158 163 169
-97.4494 -41.9640 5.1806 0.320 -0.928 -0.189 164 168 177
-89.6534 -39.1447 4.7858 0.329 -0.884 -0.332 133 142 152
-128.1371 -48.5536 7.3333 0.719 0.457 0.524 119 129 139
-321.3963 -94.9043 20.2458 0.607 0.484 0.630 192 202 212
-254.7578 -72.5526 16.6393 0.808 0.404 0.429 135 144 148
-249.1668 -70.2450 16.3941 0.309 -0.866 0.392 106 116 128
-230.0528 -62.1431 15.5842 0.753 -0.658 0.024 75 84 99
-212.0181 -57.6337 14.4036 0.239 -0.934 -0.265 78 85 101
-118.4968 -34.3558 8.2677 0.352 0.932 0.081 41 48 66
-118.9893 -34.1762 8.3401 0.352 0.932 0.081 33 40 59
-324.9544 38.9403 38.3723 0.609 -0.097 0.787 53 55 80
-398.2293 54.5808 47.6792 0.496 -0.567 0.657 39 41 66
-381.0824 53.2483 45.8104 0.661 -0.627 0.412 40 40 66
-325.6242 52.0799 40.1834 0.359 -0.384 0.851 45 40 64
-371.6253 78.7898 48.2694 0.467 -0.849 0.246 199 187 193
-390.0505 159.6956 60.8322 0.752 0.378 0.540 127 126 124
-44.4535 -36.0725 0.6482 0.373 0.896 0.240 100 111 115
-44.7327 -36.0388 0.6796 0.403 0.853 0.331 63 71 83
-48.6956 -35.9749 1.0701 0.083 0.326 0.942 170 181 187
-49.0170 -36.0191 1.0952 0.086 0.340 0.936 187 198 204
-54.1004 -36.0957 1.5751 0.202 0.313 0.928 190 201 221
-57.8288 -36.3949 1.8948 0.125 -0.027 0.992 152 164 178
-72.6763 -37.3957 3.1934 0.403 -0.915 -0.018 129 141 157
-71.5894 -36.9285 3.1506 0.967 -0.249 -0.051 116 126 154
-73.3145 -36.9935 3.3083 0.642 0.766 0.018 200 211 230
-109.5347 -46.7661 5.5042 0.404 -0.891 -0.205 150 161 162
-108.1832 -46.1613 5.4541 0.403 -0.890 -0.211 152 159 164
-98.0516 -42.1127 5.0142 0.321 -0.927 -0.194 163 167 176
-127.9980 -48.5017 7.0540 0.727 0.446 0.522 121 131 141
-321.7735 -94.9532 19.5755 0.781 0.530 0.329 190 200 210
-321.1138 -93.4137 19.7160 0.803 0.476 0.359 154 164 173
-254.9499 -72.5583 16.1027 0.790 0.454 0.413 133 143 146
-249.5666 -70.2954 15.8837 0.307 -0.882 0.358 102 112 124
-107.1143 -36.2473 6.6654 0.346 -0.938 -0.012 106 115 130
-118.6506 -34.3590 8.0278 0.358 0.930 0.078 37 43 60
-360.3859 53.7349 43.0090 0.762 -0.411 -0.500 48 43 76
-49.4949 -36.1249 1.0298 0.074 0.212 0.975 154 165 171
-72.6079 -36.9280 3.0991 0.626 0.760 0.175 173 182 213
-107.4847 -46.3973 5.1289 0.756 -0.622 -0.205 150 164 163
-127.3785 -48.3280 6.7460 0.722 0.444 0.530 111 124 133
-320.9561 -94.7092 18.8293 0.792 0.539 0.287 192 202 212
-203.5645 -55.0457 13.0282 0.419 -0.891 -0.173 77 86 101
-118.7170 -34.3490 7.7805 0.309 0.888 0.342 38 44 60
-331.0827 55.8230 39.7024 0.924 0.369 -0.097 39 37 51
-370.0293 82.1700 46.8548 0.848 -0.271 -0.456 21 13 18
-364.7065 89.4798 47.3211 0.180 0.046 0.983 202 197 188
-367.1021 91.0731 47.7574 0.168 -0.020 0.986 195 190 183
-390.4921 125.5484 54.5212 0.654 0.143 0.743 140 139 137
-49.2931 -35.9429 0.9378 0.100 0.241 0.965 144 153 160
-49.8856 -36.0970 0.9719 0.080 0.247 0.966 137 146 152
-72.3086 -36.9788 2.9151 0.689 0.710 0.146 145 154 186
-72.5842 -36.9129 2.9491 0.626 0.760 0.175 169 178 208
-107.7679 -46.2423 4.9486 0.312 -0.883 -0.351 133 143 143
-125.6764 -47.3532 6.4469 0.800 0.593 -0.088 103 113 123
-320.1552 -94.4695 18.0871 0.789 0.544 0.286 199 209 219
-105.7265 -35.2869 6.2082 0.362 0.931 0.050 177 184 200
-118.7267 -34.3304 7.5287 0.278 0.871 0.405 36 42 58
-346.3280 56.8834 40.4836 0.776 0.595 -0.208 50 53 70
-372.3517 78.4750 45.7261 0.468 -0.849 0.246 51 48 74
-370.7804 83.3927 46.2314 0.834 -0.256 -0.489 55 54 59
-370.6805 84.2543 46.3360 0.835 -0.246 -0.492 39 37 43
-351.7249 87.4560 45.0177 0.171 0.003 0.985 228 227 224
-358.1021 90.2412 45.9714 0.160 -0.014 0.987 219 218 216
-376.0834 154.7118 56.1391 0.163 -0.925 0.343 107 106 104
-50.7183 -37.6957 0.7373 0.391 -0.121 -0.912 200 207 222
-49.7445 -35.9401 0.8815 0.079 0.273 0.959 188 198 199
-50.2037 -36.0353 0.9101 0.150 0.441 0.885 175 185 184
-56.6283 -35.8363 1.5119 0.203 -0.033 0.979 188 200 216
-60.2518 -36.3074 1.7743 0.101 0.164 0.981 202 218 234
-61.2312 -36.4027 1.8495 0.111 0.190 0.976 173 186 202
-72.2212 -36.9452 2.7625 0.687 0.712 0.141 142 152 180
-72.4410 -36.8632 2.7930 0.321 0.596 0.736 167 176 203
-86.1369 -37.6611 3.9147 0.378 -0.916 -0.131 128 136 147
-322.0160 -94.8816 17.5005 0.882 0.403 0.246 200 210 222
-259.1469 -75.6015 14.4107 0.772 0.501 0.390 139 149 151
-105.7484 -35.2742 5.9862 0.372 0.924 -0.091 178 185 201
-118.7584 -34.3151 7.2782 0.279 0.874 0.398 35 41 57
-350.1983 64.4856 41.0380 0.814 0.579 0.053 44 48 77
-317.7762 74.2831 39.4254 0.229 0.198 0.953 27 26 31
-364.8825 101.2595 47.2022 0.283 -0.648 0.707 139 138 144
-362.2259 101.2647 46.9649 0.272 -0.646 0.713 140 139 144
-360.9483 103.4702 47.1412 0.128 -0.547 0.827 136 134 135
-109.9149 34.5429 15.5650 0.941 0.285 -0.180 131 131 129
-52.3263 -38.7071 0.6445 0.307 -0.241 0.921 185 192 210
-49.8372 -36.6392 0.6994 0.436 -0.851 -0.293 180 191 197
-49.9205 -35.9149 0.8020 0.150 0.441 0.885 205 214 213
-50.2912 -35.9722 0.8268 0.134 0.379 0.916 194 203 201
-58.2338 -35.7224 1.5531 0.086 0.136 0.987 188 204 220
-58.3019 -35.6315 1.5710 0.066 0.124 0.990 197 213 229
-61.7487 -36.3287 1.7802 0.074 0.150 0.986 204 220 231
-64.5006 -36.2256 2.0340 0.552 0.726 0.411 155 168 185
-72.0160 -36.8772 2.6044 0.662 0.714 0.227 146 156 181
-106.9754 -45.7724 4.4858 0.327 -0.870 -0.369 53 63 71
-105.7365 -45.2074 4.4520 0.710 -0.692 0.132 46 55 63
-105.9127 -45.0370 4.4898 0.942 -0.333 -0.045 54 63 72
-90.6549 -39.3465 3.9067 0.349 -0.903 -0.250 131 141 151
-86.2234 -37.6718 3.7402 0.369 -0.928 -0.051 129 137 148
-325.0502 -95.5802 16.9698 0.807 0.449 0.383 201 211 223
-83.3842 -35.7565 3.7444 0.409 -0.909 -0.074 153 162 167
-203.4182 -54.4842 11.7593 0.475 -0.873 -0.114 80 89 104
-115.5584 -35.2931 6.6144 0.464 0.864 -0.195 121 126 145
-118.8328 -34.3061 7.0302 0.269 0.879 0.393 29 35 51
-354.3951 61.3843 40.1904 0.792 0.528 -0.308 47 51 76
-357.0444 102.2840 45.8046 0.128 -0.547 0.827 131 129 132
-355.1949 102.5204 45.6743 0.128 -0.547 0.827 140 138 139
-111.2240 33.8822 15.3404 0.594 -0.242 0.767 84 84 82
-111.1598 34.1214 15.3662 0.594 -0.242 0.767 101 101 99
-111.1989 34.4103 15.4077 0.596 -0.234 0.768 121 120 118
-110.9133 34.5417 15.4000 0.707 -0.067 0.704 131 130 128
-110.3052 34.5141 15.3433 0.878 0.040 0.476 131 131 129
-49.8288 -35.8737 0.7008 0.151 0.490 0.859 187 195 198
-50.1407 -35.9070 0.7230 0.140 0.374 0.917 200 205 208
-51.6122 -36.0178 0.8335 0.192 0.338 0.921 170 179 178
-55.5763 -35.9907 1.1742 0.241 0.739 0.629 189 201 215
-57.4375 -36.4537 1.2716 0.131 0.328 0.936 189 201 217
-64.3266 -36.4199 1.8618 0.119 0.034 0.992 136 152 167
-64.1282 -36.2283 1.8701 0.189 0.012 0.982 130 146 162
-71.6011 -36.7479 2.4373 0.318 0.574 0.755 152 163 184
-84.6158 -37.0828 3.4999 0.442 -0.897 -0.015 108 118 128
-258.6844 -75.4221 13.2641 0.772 0.501 0.390 140 150 152
-115.5728 -35.2765 6.3695 0.464 0.865 -0.189 120 125 144
-118.6146 -34.2533 6.7625 0.269 0.879 0.393 29 35 52
-361.6619 68.2973 40.9012 0.879 0.476 -0.011 55 59 86
-345.8031 65.3253 39.1623 0.892 0.418 0.171 44 48 75
-358.5721 70.1222 40.8782 0.873 0.054 0.484 42 46 72
-358.6977 71.0092 41.0054 0.873 0.054 0.484 42 46 71
-317.8517 71.4791 37.5940 0.777 0.498 -0.384 49 46 68
-328.7243 95.2073 41.6358 0.317 -0.671 0.671 125 123 124
-376.2071 126.3928 49.7702 0.740 0.162 0.653 140 138 139
-110.8847 33.7674 15.0414 0.594 -0.242 0.767 88 87 86
-110.8208 34.0059 15.0673 0.594 -0.242 0.767 109 108 108
-110.8585 34.2934 15.1083 0.596 -0.234 0.768 131 129 130
-159.1529 -95.2301 1.8652 0.340 -0.607 0.719 128 138 140
-50.4614 -38.3376 0.3315 0.436 0.807 0.399 102 114 127
-51.6413 -35.9267 0.7453 0.300 0.631 0.715 207 215 217
-51.7647 -35.8764 0.7621 0.356 0.599 0.717 202 210 212
-51.8047 -35.7927 0.7764 0.370 0.608 0.703 193 201 203
-53.2652 -36.0606 0.8621 0.051 0.402 0.914 155 167 166
-62.3307 -35.8940 1.6341 0.112 0.073 0.991 235 251 255
-62.7581 -35.9080 1.6677 0.117 0.044 0.992 214 228 241
-62.9854 -35.8561 1.6933 0.132 0.022 0.991 201 214 231
-326.8366 -95.9284 15.6496 0.684 0.601 0.413 195 205 214
-327.7643 -95.4503 15.7890 0.873 0.389 0.295 172 182 192
-258.4875 -75.3403 12.6935 0.774 0.497 0.392 139 149 151
-232.4825 -64.8850 11.9126 0.942 -0.261 -0.211 117 126 141
-118.4640 -34.2107 6.4999 0.269 0.880 0.392 31 36 57
-336.0678 63.8857 37.3706 0.901 -0.352 0.253 48 52 79
-329.6781 73.3596 38.0842 0.712 -0.701 -0.020 36 34 60
-395.0411 128.0083 50.6594 0.459 -0.350 0.816 131 130 128
-336.4675 147.0604 48.3108 0.704 -0.476 0.528 122 118 119
-51.7661 -38.5444 0.3099 0.403 0.724 0.559 189 201 213
-51.9447 -38.4279 0.3395 0.356 0.541 0.762 179 188 203
-52.5853 -38.1140 0.4321 0.394 -0.097 -0.914 221 234 240
-51.8807 -36.0185 0.6497 0.489 -0.121 -0.864 192 200 202
-51.8901 -35.9224 0.6631 0.490 -0.111 -0.865 197 205 207
-62.3822 -37.2639 1.3318 0.598 -0.800 0.048 186 199 215
-65.8842 -36.3825 1.7290 0.071 -0.032 0.997 215 231 246
-66.4872 -36.4386 1.7701 0.071 -0.032 0.997 191 207 223
-70.8344 -36.5080 2.1109 0.206 0.223 0.953 124 135 153
-83.5888 -36.6334 3.1208 0.635 -0.773 0.000 143 153 162
-326.5080 -95.8036 14.9235 0.684 0.601 0.413 192 202 211
-325.7882 -94.9269 14.9803 0.914 0.357 0.193 171 181 191
-258.3428 -75.2705 12.1259 0.775 0.490 0.399 138 148 150
-254.3390 -71.6175 12.2819 0.708 0.659 0.253 58 67 74
-105.7435 -35.2068 5.0903 0.368 0.891 0.266 177 184 200
-335.8254 63.9400 36.5829 0.901 -0.352 0.253 51 55 82
-335.5590 64.6751 36.6577 0.901 -0.352 0.253 50 54 81
-335.3179 74.2435 37.8908 0.655 -0.713 0.250 57 54 86
-330.1536 80.7575 38.3278 0.708 -0.706 -0.030 44 36 59
-398.8470 128.6029 50.1184 0.580 0.036 0.814 114 113 111
-327.8050 141.2779 46.0607 0.613 -0.571 0.547 126 121 125
-51.9449 -38.6228 0.2111 0.493 0.868 -0.060 185 197 209
-51.8010 -36.0826 0.5317 0.434 -0.137 -0.890 114 124 126
-62.0151 -37.2531 1.1774 0.249 0.539 0.804 194 206 222
-62.3490 -37.2468 1.2044 0.598 -0.800 0.048 182 195 211
-60.9225 -36.3899 1.2048 0.437 -0.816 -0.379 182 197 216
-59.8969 -35.8034 1.2012 0.973 0.200 0.111 184 201 219
-59.8272 -35.6617 1.2143 0.841 0.357 0.407 186 202 218
-83.5697 -36.6179 2.9457 0.635 -0.773 0.000 139 149 158
-323.7827 -94.3969 14.1784 0.901 0.405 0.157 175 185 195
-95.5420 -36.3809 3.9128 0.272 -0.959 -0.079 113 119 135
-119.3884 -34.0529 6.0815 0.328 0.933 0.146 32 37 57
-357.9877 76.3392 39.1605 0.735 -0.335 0.589 50 51 79
-363.5787 83.9311 40.5895 0.869 -0.108 0.482 70 65 104
-359.5424 83.6595 40.2385 0.784 -0.103 0.613 55 50 90
-338.8872 95.8207 40.2124 0.640 -0.733 0.228 160 160 165
-346.2756 100.0031 41.3365 0.158 -0.509 0.846 150 148 151
-359.2436 142.4853 47.9010 0.966 -0.247 0.070 128 124 123
-360.5053 143.9509 48.1911 0.630 0.634 0.448 123 119 118
-327.5332 142.1121 45.3729 0.546 -0.690 0.475 115 110 114
-51.7208 -38.6168 0.0919 0.417 0.778 -0.469 125 135 147
-60.5061 -36.1226 1.0840 0.410 -0.793 -0.451 190 207 224
-59.7531 -35.6312 1.0909 0.393 0.386 0.835 196 212 228
-60.3789 -35.6018 1.1423 0.234 0.233 0.944 190 205 224
-60.4909 -35.5190 1.1616 0.338 0.499 0.798 190 205 224
-62.0082 -35.6478 1.2599 0.332 0.934 0.133 189 205 221
-62.1891 -35.5824 1.2822 0.332 0.934 0.136 190 205 224
-62.8891 -35.5558 1.3388 0.283 0.916 0.285 190 206 222
-65.0356 -35.7128 1.4813 0.268 0.407 0.873 188 204 220
-69.8757 -36.2124 1.7835 0.214 0.302 0.929 167 178 196
-71.2534 -36.1820 1.8920 0.659 0.752 -0.021 192 203 221
-74.6933 -36.7081 2.0845 0.124 0.342 0.931 154 166 180
-75.9966 -36.9167 2.1562 0.103 0.220 0.970 165 177 189
-125.3880 -47.9558 4.4656 0.852 0.308 0.423 122 132 141
-83.6269 -36.6211 2.7740 0.646 -0.752 -0.127 136 146 155
-315.1736 -91.5920 13.1804 0.547 -0.712 0.440 148 158 167
-254.3326 -71.5417 11.1771 0.555 0.702 0.446 60 67 75
-208.6145 -6.2683 16.2196 0.534 -0.695 0.481 43 44 72
-209.2883 -5.7562 16.3375 0.524 -0.691 0.498 42 46 73
-209.8875 -5.2451 16.4496 0.402 -0.698 0.593 44 48 75
-363.6326 81.4515 39.4262 0.853 -0.057 0.518 64 64 95
-363.5541 83.1783 39.6454 0.847 -0.077 0.526 63 62 99
-353.7716 82.1462 38.7683 0.717 -0.355 0.600 56 55 93
-336.6654 86.2147 38.0004 0.683 -0.031 -0.730 54 53 84
-339.2180 95.2362 39.3707 0.646 -0.728 0.230 163 162 180
-338.5725 95.8428 39.4008 0.640 -0.733 0.228 161 162 167
-381.9207 155.7153 50.4995 0.973 -0.231 -0.024 113 109 108
-383.4659 157.3806 50.8339 0.959 -0.281 0.041 109 105 104
-386.7418 160.8225 51.5315 0.722 -0.022 0.692 98 94 93
-181.9477 67.2363 23.7816 0.568 -0.822 0.051 85 81 82
-179.6375 67.0249 23.5787 0.767 -0.422 -0.483 98 93 97
-51.8898 -35.9112 0.3540 0.393 -0.442 -0.807 87 97 105
-62.4962 -37.2866 0.9558 0.708 -0.686 0.171 176 188 202
-61.0760 -35.5841 1.0728 0.223 0.442 0.869 189 206 222
-63.5247 -35.6230 1.2480 0.305 0.917 0.256 190 206 222
-65.0058 -35.6968 1.3475 0.286 0.879 0.381 188 203 222
-70.5869 -36.1266 1.7024 0.800 0.600 0.003 177 188 206
-73.1260 -36.4111 1.8523 0.110 0.251 0.962 158 170 186
-78.0756 -37.1637 2.1187 0.089 0.141 0.986 142 155 164
-79.2252 -37.3146 2.1837 0.096 0.125 0.988 146 159 168
-245.9233 -71.2637 10.0365 0.858 0.409 -0.310 148 156 159
-254.5201 -71.5453 10.6328 0.559 0.685 0.467 64 71 78
-232.4557 -63.2352 10.0902 0.472 -0.550 -0.689 111 114 131
-210.1656 -56.0064 9.3902 0.263 -0.960 -0.100 77 84 100
-105.4053 -35.0966 4.3998 0.380 0.919 0.103 183 191 204
-340.3718 -49.8864 19.7726 0.136 -0.737 0.661 42 42 75
-329.1306 -28.9163 21.6748 0.991 -0.031 -0.130 44 45 73
-327.8127 -28.1305 21.6801 0.964 0.226 0.143 43 45 70
-329.4996 4.8137 26.0928 0.483 0.449 0.752 41 46 75
-342.1899 78.1505 36.5737 0.940 -0.192 0.281 62 65 96
-345.2823 85.6840 37.7820 0.832 0.037 -0.554 61 63 94
-339.0706 96.9654 38.7932 0.900 -0.436 -0.016 189 189 186
-371.9217 149.4395 48.0425 0.924 -0.348 -0.160 123 119 118
-382.1121 155.0147 49.5185 0.973 -0.231 -0.024 117 113 112
-54.4593 -38.9195 0.0427 0.585 0.302 -0.752 208 223 230
-62.3573 -37.3561 0.8092 0.458 0.858 0.232 186 196 208
-62.3814 -37.2411 0.8259 0.706 -0.708 0.012 178 188 200
-61.6126 -35.3857 1.0121 0.358 0.499 0.789 191 206 222
-63.2255 -35.5228 1.1094 0.268 0.672 0.690 190 206 221
-63.6743 -35.5361 1.1397 0.258 0.641 0.723 189 205 220
-63.7059 -35.4186 1.1572 0.499 0.770 0.397 188 204 219
-64.5707 -35.5565 1.2010 0.570 0.674 0.471 188 204 220
-70.7174 -36.2992 1.5429 0.319 0.649 0.691 185 196 214
-73.1804 -36.1204 1.7418 0.070 0.174 0.982 181 193 205
-76.3574 -35.9068 1.9962 0.489 0.858 -0.155 142 155 164
-81.7871 -36.3154 2.3304 0.293 0.627 0.722 136 146 155
-82.6857 -36.3678 2.3877 0.303 0.841 0.448 135 145 154
-311.1917 -91.2221 11.5601 0.689 -0.519 0.506 186 196 206
-253.6392 -71.3165 10.0411 0.556 0.684 0.472 65 72 79
-246.2160 -69.1713 9.7904 0.437 -0.899 0.034 101 108 119
-245.3750 -68.4609 9.8227 0.467 -0.884 -0.016 124 130 145
-105.2669 -35.2784 4.1400 0.407 0.910 0.073 101 108 124
-105.4161 -35.0819 4.1762 0.415 0.910 0.018 177 185 198
-119.1112 -34.2065 5.2669 0.327 0.935 0.138 37 40 59
-326.4055 -39.7306 19.3358 0.541 -0.738 0.404 45 44 75
-343.4405 -33.9954 21.2962 0.801 0.594 -0.070 48 45 74
-331.2846 -27.4284 21.2824 0.961 0.237 0.145 46 44 71
-384.2248 -26.4864 25.1811 0.908 0.372 -0.193 44 42 68
-363.3714 -25.1527 23.8669 0.858 -0.315 0.405 43 41 68
-373.4973 -23.6874 24.7796 0.625 0.506 0.595 49 46 75
-349.8344 -13.7431 24.3837 0.921 0.225 0.318 49 47 78
-352.5625 -12.9134 24.6861 0.992 0.054 0.114 39 38 69
-328.6454 3.3303 25.0907 0.808 0.434 -0.398 39 46 76
-330.3448 18.7045 27.2096 0.513 0.744 0.429 47 54 82
-228.6193 22.9114 20.4999 0.664 -0.636 0.394 46 48 86
-327.8443 48.4012 30.8899 0.508 -0.849 0.148 56 55 94
-357.4868 79.1556 37.0004 0.604 0.401 0.689 60 66 92
-347.0271 86.3370 37.1874 0.821 0.045 -0.569 59 64 96
-360.5558 105.3132 40.6181 0.924 -0.381 0.025 144 144 144
-398.0492 127.9587 46.2350 0.398 0.296 0.868 75 73 74
-52.2227 -38.8372 -0.2099 0.468 0.876 -0.115 115 127 141
-52.4693 -38.8495 -0.1945 0.467 0.880 -0.081 185 198 208
-62.2682 -37.4425 0.6645 0.482 0.870 -0.107 179 187 198
-62.5043 -37.2781 0.7021 0.722 -0.683 -0.115 179 188 197
-61.8722 -36.8136 0.7187 0.816 -0.560 -0.142 151 162 170
-60.1936 -35.6424 0.7548 0.759 -0.252 -0.600 140 151 159
-61.3797 -35.5491 0.8487 0.290 0.319 0.902 163 175 184
-61.3780 -35.4265 0.8645 0.230 0.239 0.943 180 192 202
-62.6613 -35.4646 0.9482 0.241 0.581 0.777 196 210 221
-63.0039 -35.4469 0.9741 0.239 0.582 0.777 197 211 222
-63.3660 -35.4336 1.0009 0.260 0.635 0.728 197 210 222
-63.8481 -35.4558 1.0313 0.328 0.371 0.869 194 207 219
-64.1141 -35.4096 1.0556 0.329 0.416 0.848 192 205 219
-64.7852 -35.4856 1.0921 0.376 0.357 0.855 191 204 217
-67.4521 -35.6186 1.2590 0.470 0.836 0.284 177 189 205
-70.5595 -35.8169 1.4478 0.102 0.296 0.950 191 202 220
-70.7573 -35.7294 1.4728 0.101 0.228 0.968 200 212 228
-70.8814 -35.6204 1.4955 0.073 0.189 0.979 210 222 236
-76.0712 -35.6670 1.8478 0.451 0.874 -0.180 145 158 167
-78.2412 -35.7470 1.9872 0.150 0.376 0.915 122 132 141
-80.8713 -36.0777 2.1259 0.148 0.300 0.942 138 148 157
-82.6235 -36.1713 2.2348 0.218 0.738 0.638 181 191 200
-83.4853 -36.0362 2.3118 0.348 0.884 0.313 154 164 173
-253.2956 -71.2046 9.4749 0.556 0.684 0.472 63 70 76
-105.2647 -35.2615 3.9160 0.407 0.910 0.073 105 112 128
-105.4353 -35.0686 3.9528 0.415 0.910 0.018 178 185 201
-117.1272 -34.6438 4.8151 0.369 0.929 0.018 97 103 117
-119.1594 -34.1933 5.0139 0.326 0.935 0.141 35 38 57
-346.6755 -56.5256 17.8260 0.464 0.113 0.879 58 55 84
-358.7339 -33.8709 21.5967 0.790 0.612 -0.004 50 47 75
-349.2047 -27.9138 21.7114 0.934 -0.350 0.070 57 53 77
-359.8242 -24.9923 22.8235 0.890 -0.349 0.295 53 49 74
-432.8215 -16.7649 28.9306 0.765 -0.097 -0.636 64 59 89
-354.6553 -12.8026 24.0476 0.988 0.070 0.136 47 43 75
-378.8779 -8.1762 26.3200 0.704 -0.582 -0.407 57 54 85
-207.8645 -5.2021 14.8984 0.502 -0.680 0.534 62 72 103
-327.3157 4.0849 24.3502 0.567 0.266 0.780 60 70 102
-327.8818 4.8769 24.4920 0.567 0.266 0.780 51 62 94
-329.4296 6.5003 24.8094 0.564 -0.282 0.776 44 54 86
-329.1665 7.2400 24.8871 0.564 -0.282 0.776 53 64 96
-369.5950 13.6973 28.5160 0.458 0.198 0.867 42 57 86
-359.4501 13.6712 27.8121 0.475 0.208 0.855 38 53 82
-361.0274 15.4803 28.1557 0.475 0.243 0.846 38 53 82
-354.1096 21.4209 28.4485 0.806 0.029 0.591 41 51 80
-355.2005 23.1940 28.7538 0.473 0.306 0.826 57 58 89
-370.6361 31.8896 30.9473 0.480 0.382 0.790 59 58 92
-373.4662 44.5365 32.7829 0.657 0.690 -0.304 51 51 88
-366.5548 49.4305 32.9404 0.601 0.378 0.705 51 50 89
-364.7377 52.5454 33.2190 0.429 0.452 0.782 51 50 89
-360.2692 80.0416 36.4766 0.852 0.105 -0.512 60 65 90
-346.2779 84.5627 36.0969 0.741 0.308 0.597 70 75 105
-348.1761 85.9692 36.4104 0.825 0.072 -0.561 64 69 99
-340.8757 93.6925 36.9080 0.959 -0.278 0.051 61 65 90
-340.6609 94.4500 36.9914 0.959 -0.278 0.051 8 12 37
-340.9333 95.3700 37.1296 0.959 -0.280 0.049 42 44 68
-342.6517 96.7790 37.4309 0.923 -0.377 -0.072 75 76 91
-342.2881 97.4901 37.4981 0.925 -0.377 -0.058 100 102 103
-394.0603 126.6427 44.8535 0.398 0.296 0.868 68 66 67
-378.1096 127.2597 43.8322 0.505 -0.125 0.854 124 122 123
-381.6181 155.1199 47.6878 0.935 -0.346 0.077 104 100 99
-52.2673 -38.8548 -0.3131 0.491 0.865 -0.107 119 131 144
-52.5650 -38.8901 -0.2978 0.463 0.885 -0.036 182 195 205
-59.3410 -36.7586 0.4304 0.309 0.947 0.084 115 124 131
-62.8067 -37.3774 0.5817 0.780 -0.620 -0.084 171 180 187
-62.4291 -36.8751 0.6215 0.563 -0.820 -0.101 157 166 171
-61.4339 -35.5606 0.7252 0.855 0.066 0.515 129 138 144
-64.1741 -35.2927 0.9428 0.282 0.671 0.685 202 213 223
-64.3837 -35.2274 0.9653 0.282 0.671 0.685 197 207 218
-70.5317 -35.8009 1.3014 0.303 0.477 0.825 177 189 206
-71.7390 -35.4134 1.4322 0.077 0.219 0.973 220 233 240
-75.7625 -35.8877 1.6394 0.083 0.073 0.994 216 229 238
-75.7495 -35.7293 1.6590 0.194 0.288 0.938 189 202 211
-76.2221 -35.6965 1.6948 0.213 0.454 0.865 163 176 185
-76.1647 -35.5257 1.7131 0.393 0.916 0.076 147 157 166
-77.7529 -35.6139 1.8077 0.149 0.381 0.913 132 142 151
-79.0539 -35.7795 1.8731 0.121 0.271 0.955 133 143 152
-81.8053 -36.1300 2.0114 0.194 0.658 0.727 132 142 151
-82.2186 -36.0619 2.0478 0.204 0.676 0.708 178 188 197
-83.4871 -36.0255 2.1372 0.227 0.756 0.614 155 165 174
-234.3267 -62.9993 8.7143 0.472 -0.550 -0.689 77 83 99
-105.2588 -35.2438 3.6917 0.407 0.910 0.075 108 115 131
-105.8722 -34.9048 3.7765 0.376 0.921 0.101 200 208 221
-115.0528 -34.7944 4.4036 0.319 0.938 0.136 125 133 144
-117.0295 -34.6090 4.5596 0.303 0.908 0.288 112 118 132
-119.3677 -34.2040 4.7681 0.302 0.906 0.299 45 48 67
-120.9587 -33.9206 4.9110 0.442 0.897 0.006 66 69 88
-368.2437 -31.7506 21.6989 0.734 -0.511 -0.448 62 60 82
-331.8558 -28.0474 19.7493 0.963 0.228 0.140 70 65 86
-347.9475 -27.7971 20.8559 0.961 0.099 0.258 70 65 86
-353.1880 -27.1617 21.2879 0.679 -0.655 0.333 69 64 85
-359.8409 -24.9112 22.0234 0.905 -0.338 0.260 66 61 84
-356.1316 -24.0242 21.8906 0.990 -0.001 0.141 69 64 86
-367.9217 -22.5870 22.8637 0.385 0.643 0.662 71 66 90
-356.6875 -15.9403 22.9742 0.431 -0.870 0.238 82 76 105
-359.5678 -12.6549 23.5918 0.883 0.465 0.063 60 54 83
-379.2670 -8.0737 25.4998 0.704 -0.582 -0.407 69 66 94
-208.8612 -8.4179 14.0802 0.812 -0.142 0.566 80 79 109
-327.2557 2.6608 23.4175 0.786 0.416 -0.458 74 86 119
-331.1657 5.9512 24.1045 0.825 0.088 -0.558 44 56 89
-322.2427 14.2551 24.5838 0.756 0.526 -0.390 63 76 103
-354.9681 20.7901 27.6143 0.822 0.035 0.569 49 62 89
-349.9785 21.0634 27.3166 0.896 -0.324 -0.303 57 70 96
-350.0923 21.8905 27.4313 0.806 0.050 0.590 63 74 101
-352.1180 31.1577 28.7662 0.975 -0.199 -0.101 64 61 93
-348.5050 32.2867 28.6712 0.980 -0.171 -0.099 56 55 87
-362.8054 36.0438 30.1121 0.709 0.602 -0.368 58 57 89
-371.7039 42.6054 31.5556 0.680 0.679 -0.276 58 58 91
-372.6542 43.6372 31.7526 0.680 0.679 -0.276 50 51 83
-374.0563 44.7497 31.9902 0.657 0.690 -0.304 56 57 89
-355.5335 48.3541 31.2203 0.578 0.138 0.804 57 57 91
-361.7273 52.0774 32.1158 0.384 0.475 0.792 58 58 92
-344.1378 64.2084 32.5120 0.569 -0.811 0.139 57 62 82
-370.7737 81.2589 36.4973 0.623 -0.740 -0.253 53 56 78
-351.7212 81.2167 35.2200 0.871 0.065 -0.487 60 65 94
-341.2419 81.5385 34.5622 0.724 0.449 0.524 69 73 102
-344.1228 83.2142 34.9714 0.718 0.439 0.541 73 78 108
-351.0532 86.9604 35.9190 0.923 -0.268 -0.277 63 68 98
-349.0065 88.0342 35.9214 0.867 -0.315 -0.386 51 56 85
-337.4067 91.8555 35.6417 0.712 -0.374 0.594 55 61 87
-339.3327 93.3115 35.9588 0.581 -0.812 -0.060 35 39 66
-339.6334 94.2369 36.0986 0.922 -0.383 0.050 22 26 53
-340.6873 97.0762 36.5366 0.956 -0.291 0.043 82 83 86
-341.6789 98.2462 36.7542 0.925 -0.380 -0.003 119 119 118
-356.2125 104.0914 38.4811 0.789 -0.595 0.152 131 129 131
-398.4903 133.3365 45.0891 0.694 0.486 0.531 121 119 120
-396.8781 156.3204 47.9568 0.849 0.505 -0.156 123 122 120
-375.3581 150.5473 45.7730 0.966 -0.074 -0.248 118 114 113
-375.2619 151.4407 45.8822 0.966 -0.074 -0.248 110 106 105
-380.7011 154.8660 46.6887 0.945 -0.318 0.084 97 93 92
-383.1304 157.8931 47.2427 0.943 -0.322 0.083 82 78 77
-388.7117 161.4471 48.0754 0.655 0.677 0.335 81 77 76
-353.7604 194.5364 50.0258 0.872 0.439 -0.214 93 89 86
-61.6892 -35.5143 0.6218 0.542 -0.832 0.116 146 157 161
-70.5059 -36.2141 1.0997 0.271 0.596 0.756 175 187 200
-71.2483 -36.2842 1.1385 0.393 0.880 0.266 180 192 205
-71.7667 -36.2873 1.1715 0.606 0.623 -0.495 183 195 209
-71.5402 -36.0777 1.1840 0.580 0.741 -0.340 184 198 210
-71.4063 -35.7499 1.2177 0.560 0.688 -0.461 188 201 210
-71.3490 -35.5890 1.2348 0.568 0.626 -0.534 192 202 212
-71.3077 -35.4326 1.2524 0.564 0.703 -0.433 188 198 207
-71.4727 -35.3325 1.2760 0.423 0.885 0.194 185 195 204
-71.9193 -35.3074 1.3080 0.377 0.566 0.733 186 196 205
-76.2608 -35.3844 1.5779 0.362 0.899 0.245 210 219 228
-77.1500 -35.4521 1.6265 0.099 0.189 0.977 188 197 206
-77.9575 -35.4954 1.6729 0.100 0.185 0.978 160 169 178
-78.8785 -35.5632 1.7235 0.099 0.207 0.973 133 143 152
-80.1825 -35.7210 1.7872 0.103 0.284 0.953 126 136 145
-81.2939 -35.8261 1.8453 0.106 0.359 0.927 172 182 191
-81.9219 -35.8097 1.8879 0.106 0.364 0.925 192 201 210
-84.5877 -36.1022 2.0219 0.392 0.895 0.214 157 166 174
-105.1422 -35.4293 3.4338 0.414 0.907 0.073 116 125 140
-117.1925 -35.8683 4.1539 0.522 0.556 -0.647 90 100 110
-116.9779 -34.5814 4.3063 0.291 0.901 0.322 114 120 134
-121.2308 -33.9389 4.6635 0.347 0.903 0.255 68 72 92
-339.4307 -48.0170 16.9097 0.317 -0.919 0.235 64 65 81
-404.3936 -44.0404 21.6111 0.200 -0.005 0.980 64 65 83
-360.0503 -24.8342 21.2344 0.900 0.392 -0.190 76 73 90
-356.8828 -15.8551 22.1904 0.434 -0.871 0.231 83 80 101
-360.7791 -12.5526 22.8683 0.887 0.457 -0.064 71 67 90
-378.0231 -4.5486 25.0141 0.520 -0.097 0.849 72 70 92
-208.4317 -6.9614 13.7704 0.718 -0.253 0.648 70 71 93
-325.4534 1.1381 22.3602 0.779 0.245 -0.578 76 76 101
-326.5196 2.7007 22.6309 0.764 0.257 -0.592 68 72 101
-329.4651 3.6408 22.9422 0.783 0.408 -0.469 69 73 102
-328.7456 5.1092 23.0856 0.786 0.416 -0.458 68 71 100
-332.0604 6.1025 23.4276 0.824 0.093 -0.559 55 59 87
-334.2712 9.3461 23.9892 0.880 0.160 -0.448 76 85 111
-342.7254 10.8183 24.7244 0.873 0.243 -0.422 76 85 111
-343.8583 11.7075 24.9123 0.877 0.235 -0.419 74 84 109
-345.6858 16.6695 25.6713 0.761 0.381 -0.525 75 82 104
-353.0434 20.6808 26.6639 0.808 0.040 0.587 50 57 79
-346.8391 24.0446 26.6986 0.511 0.544 0.666 70 70 96
-371.9572 41.8845 30.6229 0.759 0.585 -0.286 67 68 97
-226.2741 22.1713 18.6848 0.652 -0.493 0.576 74 75 105
-354.3284 48.2405 30.3078 0.599 0.181 0.780 62 63 93
-326.2039 49.9292 28.7130 0.646 0.415 -0.641 68 68 97
-326.5743 53.1081 29.1477 0.690 0.398 -0.604 80 83 113
-371.9686 81.7102 35.7696 0.648 -0.734 -0.202 56 62 84
-350.9146 90.4461 35.5412 0.863 0.246 -0.442 65 69 100
-346.0810 93.1440 35.5783 0.516 -0.194 0.834 66 68 96
-339.2658 93.4171 35.1742 0.581 -0.812 -0.060 60 64 91
-341.3274 96.5918 35.7173 0.928 -0.373 -0.001 63 63 74
-341.9352 97.6306 35.8907 0.925 -0.380 -0.003 97 97 100
-341.6344 98.3615 35.9658 0.925 -0.380 -0.003 123 121 122
-395.6125 132.3953 43.8429 0.716 0.283 0.638 120 118 119
-373.8506 125.9135 41.6026 0.508 -0.132 0.851 122 119 121
-384.0097 151.7510 45.5960 0.517 -0.770 -0.373 122 121 119
-380.1354 152.8723 45.4911 0.979 -0.205 -0.022 112 108 105
-379.4249 153.4985 45.5262 0.981 -0.194 -0.015 104 98 98
-381.1891 156.2079 45.9900 0.923 -0.352 -0.158 83 77 77
-338.6771 146.8187 42.0365 0.215 -0.913 0.346 114 113 110
-334.1163 145.4198 41.5617 0.851 0.496 -0.171 113 112 109
-353.8482 194.7672 49.2100 0.870 0.408 -0.276 93 89 86
-52.7045 -38.9477 -0.5061 0.476 0.877 -0.063 179 191 203
-63.2971 -37.4106 0.3507 0.391 0.908 0.148 115 124 133
-61.1959 -35.3496 0.4858 0.487 -0.866 0.113 96 107 113
-65.1923 -35.3267 0.7372 0.201 0.611 0.766 144 155 161
-71.1775 -36.6885 0.9337 0.535 0.802 -0.265 175 187 201
-72.6737 -36.8324 1.0081 0.573 0.463 -0.676 190 202 214
-71.7819 -35.2617 1.1553 0.396 0.902 0.171 181 191 200
-72.1782 -35.2214 1.1851 0.406 0.872 0.275 176 186 195
-72.3905 -35.1304 1.2100 0.406 0.872 0.275 187 197 206
-78.0354 -35.3443 1.5334 0.095 0.198 0.976 230 240 250
-81.2209 -35.6299 1.6946 0.102 0.368 0.924 192 200 211
-81.9906 -35.6459 1.7404 0.120 0.349 0.929 160 169 179
-105.0939 -35.4040 3.2078 0.413 0.883 0.224 120 127 143
-115.6024 -34.5963 3.9653 0.340 0.934 0.111 115 123 136
-116.8665 -34.5445 4.0505 0.293 0.903 0.315 114 120 134
-121.1637 -33.9083 4.3997 0.353 0.872 0.339 75 77 97
-373.9957 -57.7948 17.0368 0.726 0.227 0.649 75 75 86
-353.8534 -53.2184 16.3749 0.809 0.409 0.422 79 79 91
-338.4580 -47.8604 16.1088 0.335 -0.912 0.238 68 71 82
-382.9309 -42.5178 19.5626 0.370 -0.197 0.908 77 80 91
-367.9740 -36.5541 19.4019 0.461 0.455 0.762 72 72 84
-350.6208 -29.3076 19.2578 0.790 -0.565 -0.238 88 87 97
-346.4878 -28.3802 19.1204 0.983 -0.169 -0.065 88 86 94
-374.4495 -20.8120 21.8348 0.346 0.474 0.810 87 85 98
-355.9736 -15.7740 21.3360 0.435 -0.872 0.224 84 82 97
-356.9390 -14.9573 21.5013 0.433 -0.870 0.236 84 81 97
-334.7305 -3.6270 21.5820 0.334 -0.364 0.869 78 77 95
-207.9746 -6.9314 13.2758 0.718 -0.253 0.648 74 75 92
-327.9456 1.3652 21.8040 0.767 0.238 -0.595 82 81 102
-329.2189 5.2286 22.3815 0.786 0.416 -0.458 74 74 98
-332.9951 6.2572 22.7489 0.848 -0.147 -0.509 65 65 88
-336.5484 9.6197 23.4034 0.877 0.171 -0.449 79 83 105
-345.7045 11.9583 24.2743 0.864 0.215 -0.456 79 83 105
-343.7968 15.7794 24.6485 0.755 0.343 -0.559 75 78 96
-344.0797 16.6055 24.7726 0.755 0.343 -0.559 76 79 96
-354.0024 21.7084 26.0476 0.904 -0.311 -0.293 73 76 93
-349.7238 22.0467 25.8253 0.729 -0.503 -0.465 77 80 97
-351.4670 23.0636 26.0648 0.981 -0.194 -0.025 79 77 99
-345.0942 27.9619 26.3003 0.555 0.425 0.715 75 76 98
-348.0909 29.1731 26.6429 0.943 0.058 -0.328 75 75 97
-372.9382 41.2777 29.7487 0.777 0.550 -0.306 71 73 96
-353.5963 50.7255 29.7648 0.337 0.480 0.810 88 88 111
-311.3950 49.1575 26.9390 0.646 0.758 -0.085 87 91 112
-372.0656 79.1821 34.5830 0.674 0.171 0.719 81 84 107
-367.9667 78.9919 34.3037 0.496 0.015 0.868 70 73 96
-346.7476 83.4028 33.5534 0.960 0.132 0.246 74 78 105
-346.9005 84.2863 33.6769 0.960 0.132 0.246 70 74 103
-356.6915 91.5073 35.2169 0.873 -0.293 -0.390 58 65 94
-347.3404 90.3060 34.4806 0.954 -0.205 -0.220 71 76 105
-345.8269 97.4002 35.3015 0.651 -0.673 0.351 45 48 70
-392.6461 130.4505 42.4746 0.702 0.297 0.647 109 107 108
-391.6047 156.2778 45.7409 0.391 0.048 0.919 115 114 110
-368.7112 157.0921 44.4227 0.975 0.166 -0.146 76 72 71
-368.9768 158.1458 44.5751 0.977 0.159 -0.139 94 93 91
-354.3038 195.2215 48.4447 0.870 0.408 -0.276 91 87 84
-187.4660 -107.9487 -1.4255 0.922 0.386 -0.020 130 141 145
-181.9682 -104.8519 -1.3560 0.883 0.430 -0.190 133 144 148
-61.9423 -37.5510 0.1216 0.343 0.939 -0.020 185 194 203
-71.9422 -36.9048 0.8035 0.555 0.792 -0.256 123 135 149
-72.3343 -35.9911 0.9446 0.607 0.666 -0.434 182 195 204
-72.3348 -35.8440 0.9636 0.587 0.667 -0.459 191 201 211
-71.5097 -35.1798 0.9997 0.403 0.871 0.281 187 197 206
-72.0891 -35.1888 1.0332 0.281 0.574 0.769 190 200 209
-72.6084 -35.1793 1.0655 0.247 0.554 0.795 188 198 207
-73.0148 -35.1378 1.0952 0.242 0.548 0.801 187 197 206
-74.5784 -35.0906 1.1949 0.175 0.449 0.876 189 199 208
-75.1160 -35.0743 1.2292 0.174 0.448 0.877 206 214 225
-81.7730 -35.4139 1.5840 0.068 0.277 0.958 182 190 203
-86.1659 -34.8398 1.9209 0.327 0.887 0.326 105 113 125
-105.5257 -35.0178 3.0571 0.398 0.863 0.312 170 177 193
-116.7206 -34.5023 3.7937 0.293 0.903 0.315 115 121 134
-118.8218 -34.3173 3.9433 0.260 0.857 0.445 183 185 201
-121.0757 -33.8748 4.1352 0.354 0.872 0.338 82 85 102
-353.4895 -53.1124 15.5737 0.809 0.409 0.422 89 92 97
-341.0888 -48.7955 15.3870 0.334 -0.914 0.232 74 77 83
-335.7806 -37.7818 16.4870 0.934 -0.096 0.344 75 78 82
-362.9885 -36.2105 18.3182 0.950 0.233 0.207 77 78 82
-359.2942 -30.3441 18.8522 0.842 -0.513 -0.165 87 89 91
-356.1432 -27.0072 19.0931 0.851 -0.193 0.488 87 86 89
-372.5915 -20.7073 20.8889 0.349 -0.937 -0.017 89 88 95
-369.1509 -19.8352 20.7952 0.591 0.339 0.732 92 91 98
-361.5976 -16.4895 20.7736 0.851 -0.194 -0.487 91 90 98
-344.7367 11.9692 23.4277 0.905 0.141 -0.402 96 93 110
-354.3324 19.3710 24.9550 0.707 -0.517 -0.482 88 84 95
-353.1906 20.0734 24.9771 0.677 -0.567 -0.470 90 86 98
-352.6524 20.8366 25.0431 0.713 -0.502 -0.489 90 86 98
-357.1867 24.6616 25.8070 0.751 0.283 0.597 92 91 105
-332.4653 59.3653 28.7943 0.755 0.395 -0.523 77 81 100
-336.3734 78.0380 31.4320 0.441 0.011 0.898 63 69 95
-359.5968 90.7921 34.4643 0.860 -0.327 -0.392 75 80 110
-357.9034 91.1448 34.4083 0.879 -0.331 -0.344 62 67 97
-358.9062 104.5563 36.1948 0.181 -0.092 0.979 139 139 139
-356.2212 104.5043 36.0274 0.206 -0.219 0.954 131 131 131
-353.2627 105.2082 35.9409 0.368 -0.050 0.929 130 128 129
-336.7703 101.0674 34.4204 0.462 -0.292 0.837 132 130 131
-384.9117 124.8192 40.3603 0.433 0.547 0.717 76 74 75
-394.5382 130.3559 41.6494 0.621 0.250 0.743 77 75 76
-394.0643 133.0909 41.9731 0.549 0.199 0.812 119 119 117
-367.2728 157.4893 43.5099 0.859 -0.165 -0.484 125 124 120
-355.5043 196.1292 47.7794 0.861 0.416 -0.293 92 88 85
-61.1974 -38.1263 -0.1220 0.329 0.944 0.008 159 168 175
-62.1047 -37.6033 -0.0026 0.277 0.903 0.327 192 201 210
-72.3135 -36.8587 0.6808 0.548 0.711 -0.441 132 144 156
-72.9741 -36.1603 0.8086 0.626 0.711 -0.320 133 146 155
-80.9922 -35.2184 1.3913 0.072 0.298 0.952 208 217 232
-85.2254 -34.8014 1.6886 0.292 0.602 0.743 138 147 162
-211.9806 -55.6558 6.3068 0.253 -0.949 -0.187 104 110 126
-116.6251 -34.4680 3.5392 0.290 0.902 0.320 120 124 134
-118.5625 -34.2582 3.6777 0.260 0.857 0.445 182 185 196
-121.1380 -33.8628 3.8768 0.352 0.863 0.362 85 87 98
-353.1260 -53.0066 14.7735 0.809 0.409 0.422 101 102 104
-344.6662 -49.0639 14.7931 0.357 -0.916 0.184 82 83 86
-346.5426 -39.9350 16.0741 0.256 -0.034 0.966 80 84 84
-342.9658 -31.9831 16.8899 0.843 0.281 0.459 94 95 95
-350.7599 -29.1572 17.7017 0.879 -0.461 -0.117 88 90 87
-363.0692 -19.7061 19.6248 0.467 -0.839 -0.280 93 93 94
-359.9214 -18.8653 19.5516 0.472 -0.833 -0.289 93 93 93
-344.4054 -14.0866 19.2723 0.399 -0.889 0.225 90 90 94
-356.4582 18.0346 24.0934 0.621 -0.598 -0.506 91 82 90
-351.5839 29.0270 25.2252 0.516 0.241 0.822 80 83 91
-355.6509 41.2630 27.0316 0.791 0.611 -0.024 85 92 101
-356.3895 42.2261 27.1978 0.791 0.611 -0.024 85 92 101
-346.8933 52.9341 28.0270 0.364 -0.931 0.011 93 95 107
-352.3219 68.3325 30.3180 0.648 -0.761 0.008 77 83 107
-365.7529 76.9018 32.1924 0.601 0.695 0.396 79 84 109
-369.2841 81.3761 32.9706 0.636 0.318 0.703 77 82 108
-339.6347 80.7363 31.1813 0.410 0.146 0.900 65 70 95
-367.3291 90.6070 34.0441 0.771 -0.531 -0.352 79 84 111
-362.4202 90.9046 33.7997 0.870 -0.435 -0.234 79 84 112
-362.9304 91.9386 33.9620 0.900 -0.370 -0.230 80 84 112
-347.3543 93.9449 33.3230 0.365 -0.140 0.920 64 66 88
-345.7509 95.1087 33.3802 0.212 -0.059 0.976 57 57 75
-346.1699 96.0900 33.5304 0.212 -0.059 0.976 138 138 157
-378.5834 121.6755 38.6840 0.424 0.542 0.725 110 106 107
-391.4312 131.2668 40.6561 0.458 0.128 0.879 104 103 101
-394.2010 133.3023 41.0771 0.495 0.135 0.858 109 109 107
-385.7600 131.9471 40.4170 0.143 -0.034 0.989 131 132 127
-358.5018 129.2643 38.5029 0.408 0.195 0.892 128 125 120
-359.8152 132.4858 38.9925 0.148 -0.224 0.963 115 112 107
-382.8787 150.7841 42.6715 0.211 0.108 0.972 98 97 92
-388.3849 154.1987 43.4272 0.210 0.111 0.971 92 91 86
-353.9442 194.4472 46.6159 0.872 0.396 -0.288 90 86 83
-60.9669 -37.7955 -0.2174 0.328 0.926 0.187 87 96 103
-61.1390 -37.7378 -0.2005 0.328 0.926 0.187 98 107 116
-72.8687 -36.8639 0.5599 0.565 0.793 -0.228 180 193 202
-73.0377 -36.6156 0.6011 0.585 0.488 -0.648 207 219 233
-73.0398 -36.1700 0.6584 0.626 0.711 -0.320 118 131 140
-70.6379 -35.0719 0.6665 0.373 0.546 0.750 127 137 146
-79.0112 -35.0661 1.1300 0.333 0.914 0.231 184 192 205
-79.6464 -35.0544 1.1666 0.346 0.908 0.236 191 199 212
-82.3177 -35.0087 1.3202 0.639 0.208 -0.740 192 201 216
-82.1281 -34.6243 1.3590 0.236 0.767 0.596 211 220 235
-93.1926 -34.7711 1.9517 0.478 -0.803 -0.357 105 112 128
-92.7311 -34.4844 1.9630 0.746 -0.616 -0.253 97 104 120
-92.0910 -34.1649 1.9686 0.662 -0.715 -0.225 103 109 125
-105.8173 -34.8108 2.6445 0.405 0.895 0.186 197 203 217
-116.4576 -34.4225 3.2824 0.292 0.902 0.317 122 127 133
-117.8516 -34.3846 3.3643 0.260 0.857 0.444 205 208 214
-118.4727 -34.2246 3.4192 0.260 0.857 0.444 186 186 192
-119.1501 -34.0700 3.4765 0.263 0.860 0.438 66 67 73
-121.2024 -33.8511 3.6180 0.338 0.913 0.231 81 82 88
-356.5387 -51.6986 14.3373 0.781 0.353 0.515 99 98 99
-337.7225 -46.8381 13.9206 0.465 -0.649 0.603 86 86 91
-335.6954 -45.9076 13.9279 0.491 -0.650 0.580 86 87 89
-347.3276 -32.0985 16.3419 0.922 0.288 0.259 99 99 99
-350.6534 -29.8683 16.8117 0.929 -0.335 0.155 93 93 91
-368.4555 -19.6584 19.1051 0.352 -0.935 -0.031 94 93 90
-359.6829 -12.2195 19.5742 0.902 0.430 -0.040 90 90 91
-370.2840 16.0776 23.7893 0.979 -0.198 -0.045 95 85 94
-354.3152 41.9847 26.2291 0.804 0.595 0.018 78 82 88
-355.0282 42.9430 26.3914 0.804 0.595 0.018 79 83 89
-358.7161 44.4225 26.7850 0.790 0.612 -0.023 80 85 90
-343.5053 45.8360 26.1255 0.491 0.395 0.776 89 93 99
-349.1030 53.4992 27.4177 0.454 -0.865 -0.214 93 93 101
-331.9795 53.1431 26.4255 0.528 -0.787 0.319 95 96 107
-357.1490 68.7850 29.8228 0.553 -0.832 -0.025 90 94 114
-364.8230 76.7862 31.2732 0.601 0.687 0.408 81 84 102
-345.1313 78.2984 30.3786 0.459 -0.888 0.005 106 109 125
-332.8083 77.2533 29.5634 0.547 -0.424 0.722 96 97 112
-330.7936 77.4727 29.4802 0.580 -0.221 0.784 101 101 116
-367.5640 90.8102 33.2232 0.771 -0.531 -0.352 91 90 108
-362.4537 92.8058 33.1967 0.856 -0.455 -0.244 84 79 99
-334.2976 100.4470 32.6203 0.475 -0.292 0.830 121 117 118
-353.7243 130.0676 37.4929 0.148 -0.224 0.963 114 111 106
-352.9390 133.2460 37.8571 0.255 0.134 0.958 115 114 109
-375.4290 153.2702 41.6683 0.362 0.035 0.931 72 62 63
-354.2626 194.8179 45.8268 0.872 0.394 -0.289 90 86 83
-63.0708 -37.8104 -0.2326 0.285 0.919 0.271 182 191 200
-72.8072 -36.8379 0.4077 0.483 0.867 0.119 187 200 209
-73.2959 -36.5312 0.4728 0.577 0.616 -0.536 126 140 151
-67.8906 -34.0429 0.5050 0.129 0.162 0.978 113 123 132
-81.9182 -34.9057 1.1377 0.682 -0.049 -0.730 189 198 213
-94.3693 -35.5863 1.7101 0.327 0.935 0.138 200 207 223
-93.4892 -34.8160 1.7621 0.598 -0.796 -0.096 111 118 134
-92.1820 -33.7805 1.8254 0.785 -0.183 -0.591 98 104 120
-91.2136 -33.4047 1.8222 0.509 -0.772 -0.380 107 113 129
-116.3111 -34.3803 3.0269 0.292 0.902 0.317 117 122 127
-117.5476 -34.3185 3.1003 0.263 0.861 0.435 204 208 212
-118.2762 -34.1750 3.1573 0.263 0.860 0.438 190 191 193
-118.8969 -34.0122 3.2110 0.263 0.860 0.438 68 69 72
-121.1036 -33.8160 3.3530 0.339 0.913 0.228 81 82 84
-348.4781 -50.0618 13.3185 0.387 -0.712 0.586 92 88 89
-346.5783 -27.2907 16.1327 0.954 0.150 0.259 90 86 83
-343.5228 -26.4226 16.0820 0.949 0.117 0.293 90 86 83
-353.5278 -25.8950 16.6795 0.642 0.618 0.454 89 85 82
-359.2157 -17.0575 18.1121 0.473 -0.881 -0.030 100 96 95
-349.6426 -14.6693 17.9107 0.114 -0.916 0.385 92 90 88
-344.7707 -13.9180 17.7487 0.114 -0.918 0.380 93 91 89
-350.9182 41.5180 25.1705 0.664 0.732 -0.150 99 100 104
-337.2568 40.7948 24.3543 0.868 -0.290 -0.403 95 96 100
-351.1007 54.0223 26.7808 0.467 -0.842 -0.270 110 107 112
-349.6285 57.8805 27.1967 0.533 -0.830 -0.163 105 103 106
-371.8728 68.0477 29.6766 0.449 -0.892 0.040 100 96 100
-372.2709 69.0308 29.8235 0.447 -0.893 0.052 98 94 100
-362.3461 68.4388 29.2220 0.556 -0.829 0.067 98 93 106
-354.6421 69.1444 28.9042 0.592 -0.387 0.707 116 111 121
-345.5517 73.5423 28.9856 0.625 0.755 0.199 93 89 95
-346.0696 74.5131 29.1373 0.630 0.690 0.356 95 90 97
-364.3699 80.3043 30.8480 0.622 -0.739 -0.260 96 89 94
-362.0222 80.5410 30.7540 0.643 -0.733 -0.220 95 89 93
-340.2774 77.8799 29.2614 0.456 -0.888 -0.066 90 84 89
-330.4225 76.6854 28.5864 0.547 -0.454 0.704 102 95 100
-329.7113 77.2772 28.6245 0.580 -0.221 0.784 102 94 98
-364.3797 93.5315 32.5417 0.826 -0.448 -0.341 100 88 98
-333.6422 88.9380 30.3254 0.660 0.131 0.740 107 100 99
-337.8571 101.0204 32.0953 0.475 -0.315 0.821 123 117 117
-327.8282 99.8737 31.4173 0.669 -0.726 0.158 87 81 83
-352.6702 111.4674 34.2173 0.319 0.484 0.814 90 86 87
-391.7995 129.7891 38.6355 0.474 0.143 0.869 86 82 81
-346.1453 124.4388 35.5321 0.518 0.710 0.477 137 134 129
-348.1419 126.1303 35.8544 0.399 0.021 0.917 127 124 119
-367.2794 155.2129 40.5909 0.801 -0.188 -0.568 80 75 72
-258.6230 115.9109 29.8040 0.877 0.441 -0.188 119 118 116
-328.6798 159.2850 39.0674 0.395 -0.579 0.713 93 88 85
-63.0182 -37.7862 -0.3618 0.288 0.921 0.263 181 189 200
-62.8213 -36.9677 -0.2672 0.383 0.658 0.648 142 151 156
-82.1325 -34.7732 0.9917 0.690 0.103 -0.717 180 189 204
-93.3522 -34.7749 1.5600 0.618 -0.785 -0.037 131 138 154
-92.5380 -34.0289 1.6141 0.820 -0.167 -0.547 90 97 113
-92.3298 -33.7944 1.6335 0.785 -0.183 -0.591 93 100 116
-104.6396 -35.2394 2.0726 0.320 0.866 0.385 124 130 146
-106.2853 -34.6320 2.2336 0.411 0.900 0.147 111 117 129
-116.1621 -34.3378 2.7717 0.294 0.906 0.304 115 120 126
-117.3028 -34.2614 2.8393 0.263 0.861 0.435 200 204 208
-117.9145 -34.1008 2.8908 0.263 0.861 0.435 194 195 197
-121.0157 -33.7825 3.0886 0.339 0.913 0.228 81 83 82
-352.2687 -52.7136 12.3880 0.181 -0.878 0.442 86 82 81
-338.1667 -49.7635 12.0503 0.183 -0.883 0.431 87 83 82
-332.3816 -46.9725 12.1138 0.395 -0.580 0.712 85 83 88
-332.4691 -45.4944 12.3071 0.372 -0.607 0.702 86 82 88
-367.9384 -35.3283 15.4032 0.824 0.519 0.228 74 69 73
-356.7385 -30.7408 15.4218 0.734 -0.585 0.345 91 85 87
-353.3910 -29.0133 15.4729 0.922 -0.206 0.326 86 80 82
-355.0638 -28.2665 15.6531 0.996 -0.084 0.029 85 79 80
-355.8169 -25.8720 15.9972 0.642 0.481 0.597 90 84 86
-366.1584 -17.8036 17.5521 0.286 -0.956 0.058 100 94 94
-345.7443 -4.3265 18.2395 0.785 0.324 -0.527 86 82 83
-359.4284 1.9786 19.7385 0.659 0.569 0.491 84 76 79
-356.7785 2.6583 19.6911 0.571 0.559 0.601 84 76 78
-350.1972 42.3304 24.4263 0.670 0.725 -0.164 102 96 99
-302.2237 42.6448 22.0355 0.647 0.563 -0.514 102 94 97
-355.0296 69.3610 28.1247 0.690 -0.302 0.658 122 112 116
-353.4939 69.8299 28.1068 0.651 -0.323 0.687 117 106 113
-353.1986 70.6041 28.1907 0.651 -0.323 0.687 110 100 105
-352.9037 71.3774 28.2746 0.651 -0.323 0.687 106 96 100
-366.6727 78.4060 29.8703 0.658 0.633 0.407 97 87 87
-365.0552 79.7381 29.9585 0.651 -0.757 -0.060 106 96 96
-364.1349 80.3686 29.9924 0.664 -0.742 -0.090 106 97 95
-330.0340 76.6918 27.7947 0.557 -0.442 0.703 104 94 94
-328.5719 77.0644 27.7682 0.455 0.028 0.890 105 94 93
-354.6634 93.2588 31.1594 0.945 -0.236 -0.227 98 87 92
-335.7427 88.1069 29.5424 0.939 -0.248 -0.240 99 89 92
-329.7775 87.0127 29.1003 0.705 0.036 0.708 104 95 97
-347.5078 113.1184 33.3341 0.667 0.446 0.597 73 69 68
-349.7554 114.8343 33.6673 0.679 0.425 0.599 74 73 71
-344.4950 126.4637 34.8865 0.257 -0.125 0.958 147 144 139
-335.7729 126.9537 34.5072 0.401 0.021 0.916 139 138 133
-361.8198 141.8998 37.7366 0.235 0.124 0.964 121 120 115
-361.0468 142.4577 37.7687 0.239 0.127 0.963 108 107 102
-366.6155 146.7850 38.6038 0.234 0.115 0.965 90 85 82
-358.5070 144.0099 37.8383 0.196 0.036 0.980 87 82 79
-360.5008 145.8204 38.1707 0.196 0.036 0.980 89 80 81
-363.3587 148.0394 38.5990 0.308 0.144 0.940 87 77 78
-358.2712 151.9906 38.8460 0.279 -0.002 0.960 100 96 93
-72.9214 -36.8542 0.1064 0.435 0.838 0.331 203 216 225
-73.1183 -36.7621 0.1277 0.435 0.836 0.336 198 210 221
-73.3722 -36.6852 0.1498 0.477 0.871 0.120 193 205 217
-81.6708 -34.6570 0.8098 0.724 0.108 -0.682 191 200 215
-89.9027 -35.0205 1.1616 0.330 0.930 0.165 194 201 217
-94.0003 -35.4829 1.3008 0.327 0.934 0.147 198 205 221
-93.5413 -34.7984 1.3659 0.582 -0.807 -0.096 217 224 240
-92.6659 -33.8439 1.4453 0.794 -0.156 -0.588 137 144 160
-106.2531 -34.6094 2.0049 0.411 0.900 0.147 100 106 118
-116.1280 -34.3130 2.5203 0.295 0.905 0.306 118 122 131
-117.2904 -34.2397 2.5859 0.275 0.869 0.412 196 199 204
-283.7927 -53.8360 8.1404 0.654 0.671 0.350 78 78 78
-356.0075 -37.8648 13.6699 0.639 0.418 0.646 92 86 88
-358.2078 -37.1875 13.8627 0.636 0.402 0.659 94 85 90
-351.6831 -28.8772 14.6069 0.994 -0.090 0.064 82 73 76
-350.0764 -14.4987 16.3627 0.106 -0.899 0.425 96 85 87
-344.0927 40.5732 23.0962 0.740 -0.567 -0.361 112 101 101
-374.2312 67.9498 28.0451 0.475 -0.867 0.148 113 101 105
-356.6756 69.0333 27.3341 0.552 -0.833 -0.031 120 109 113
-350.2367 70.8201 27.2505 0.628 -0.279 0.726 111 102 106
-341.0604 69.3037 26.6133 0.465 -0.860 0.209 102 93 95
-362.8455 77.5224 28.7151 0.533 0.762 0.368 104 96 94
-363.1091 80.2181 29.0716 0.629 -0.765 -0.140 116 110 108
-344.6361 77.6949 27.8563 0.622 -0.736 -0.265 101 95 95
-343.6047 78.2370 27.8756 0.684 -0.655 -0.321 101 94 96
-333.2375 86.6240 28.4437 0.977 0.193 0.092 97 88 90
-353.5112 95.6093 30.5701 0.858 0.128 -0.498 106 101 98
-340.7970 100.6572 30.5989 0.446 -0.347 0.825 111 105 105
-340.3867 101.3474 30.6670 0.446 -0.347 0.825 105 99 99
-338.3601 124.8542 33.5666 0.455 -0.558 0.693 113 110 105
-353.8991 142.9512 36.6260 0.198 0.038 0.980 84 75 76
-348.1092 144.6612 36.5640 0.353 -0.011 0.935 82 73 74
-189.2811 78.8106 20.4844 0.780 0.389 0.491 119 118 116
-140.6349 -72.6895 -1.4884 0.633 0.508 -0.584 79 92 98
-133.8463 -68.8233 -1.3090 0.417 -0.880 -0.228 100 113 119
-72.2907 -37.1052 -0.1073 0.455 0.855 0.248 115 125 132
-72.9072 -36.8419 -0.0454 0.482 0.875 -0.042 211 221 230
-73.6554 -36.6069 0.0189 0.576 0.622 -0.531 135 148 157
-73.2705 -36.1995 0.0531 0.534 0.828 -0.174 136 146 157
-80.6600 -34.2490 0.6417 0.326 0.925 0.195 188 199 215
-93.8729 -34.6522 1.1990 0.544 -0.640 -0.542 210 218 234
-93.5911 -34.3997 1.2182 0.629 -0.321 -0.708 219 225 239
-106.2210 -34.5868 1.7761 0.411 0.900 0.147 111 117 130
-112.4060 -34.4446 2.0791 0.235 0.840 0.489 128 135 143
-115.9895 -34.2721 2.2661 0.295 0.905 0.306 113 119 128
-117.0926 -34.1898 2.3274 0.274 0.868 0.414 186 189 195
-117.6840 -34.0262 2.3755 0.274 0.868 0.414 183 184 189
-350.5728 -42.9881 11.9622 0.765 -0.554 0.328 89 84 88
-335.7976 -37.3588 11.9982 0.893 0.443 -0.084 91 85 85
-338.5676 -36.7657 12.2012 0.871 0.483 -0.092 92 86 88
-360.1275 -36.4076 13.2399 0.621 0.455 0.639 75 69 71
-360.8305 -35.6316 13.3711 0.621 0.455 0.639 64 58 60
-363.3518 -34.9422 13.5750 0.767 0.440 0.467 66 60 62
-371.9562 -34.5284 14.0240 0.808 0.287 0.515 83 77 81
-384.6217 -32.5170 14.8634 0.776 -0.389 -0.496 82 73 78
-369.0146 -23.5173 15.2900 0.746 0.177 0.642 84 75 78
-352.8950 -21.6318 14.7874 0.430 -0.890 -0.153 80 71 74
-349.3969 -15.2182 15.4426 0.125 -0.879 0.460 74 64 65
-351.9649 -3.1058 17.1026 0.772 -0.595 -0.223 75 66 69
-345.9333 0.6321 17.3005 0.729 0.643 -0.236 76 64 68
-315.0333 12.1320 17.3409 0.974 -0.073 -0.212 100 85 88
-320.0302 15.5799 18.0099 0.712 0.680 -0.177 93 81 83
-320.1636 16.3391 18.1127 0.722 0.673 -0.158 93 81 83
-320.9028 17.1650 18.2519 0.722 0.673 -0.158 93 81 83
-326.7278 18.5588 18.6976 0.673 0.228 0.704 93 81 83
-327.3120 19.3869 18.8299 0.670 0.237 0.703 93 81 83
-342.7467 28.3513 20.6818 0.539 0.551 0.636 95 84 89
-345.6864 30.3689 21.0740 0.719 0.447 0.533 100 91 92
-355.3367 69.6794 26.5220 0.491 -0.857 -0.159 133 122 128
-341.8488 71.2692 26.1031 0.633 0.599 0.491 108 100 98
-351.8433 81.5316 27.8696 0.717 -0.656 -0.237 108 99 100
-327.6725 93.7786 28.3151 0.803 0.589 -0.093 110 104 104
-327.9000 94.6588 28.4376 0.408 -0.223 0.885 105 99 99
-331.3641 103.9865 29.7844 0.610 -0.784 0.114 61 57 58
