ply
format ascii 1.0
element vertex 860
property float x
property float y
property float z
property float nx
property float ny
property float nz
property uchar diffuse_red
property uchar diffuse_green
property uchar diffuse_blue
end_header
-48.4149 -18.2994 -48.8053 0.277 -0.444 0.852 128 124 121
-47.8449 -17.4521 -48.1625 0.203 -0.130 0.971 84 83 78
-47.8430 -17.2660 -48.1036 0.173 -0.128 0.976 78 77 72
-47.9423 -17.0963 -48.1174 0.189 -0.177 0.966 73 72 66
-47.9687 -16.9151 -48.0789 0.189 -0.177 0.966 69 71 59
-47.9710 -16.7304 -48.0233 0.197 -0.171 0.965 76 78 63
-48.5892 -16.2665 -48.2923 0.191 0.222 0.956 51 56 36
-48.4496 -14.4160 -47.6264 0.987 0.085 0.133 52 50 38
-49.2650 -13.7793 -47.9735 0.945 0.280 -0.166 58 58 50
-49.1889 -13.5900 -47.8641 0.950 0.271 -0.153 60 59 54
-49.1997 -13.4100 -47.8156 0.989 -0.054 0.139 61 60 55
-48.3017 -12.2577 -46.8596 0.193 0.079 0.978 50 51 43
-48.3474 -12.0853 -46.8366 0.187 0.097 0.978 49 52 43
-47.3808 -11.4905 -46.0074 0.709 -0.420 0.566 43 46 37
-47.0141 -10.7823 -45.5434 0.881 -0.435 0.185 55 56 50
-46.9490 -10.6089 -45.4463 0.881 -0.435 0.185 52 51 47
-46.7868 -10.4309 -45.2829 0.883 -0.440 0.166 53 52 50
-46.7684 -10.2616 -45.2182 0.874 -0.414 0.253 74 73 71
-46.7271 -10.0916 -45.1380 0.875 -0.409 0.257 97 96 94
-47.1818 -9.4412 -45.2402 0.171 0.292 0.941 110 109 107
-47.3104 -9.2785 -45.2756 0.142 0.069 0.987 103 102 100
-47.5763 -8.9524 -45.3522 0.293 -0.281 0.914 101 100 98
-48.3674 -8.8073 -45.8353 -0.139 -0.119 0.983 101 100 98
-48.3711 -8.6383 -45.7854 -0.142 -0.082 0.987 94 93 91
-48.0505 -8.4622 -45.5170 -0.057 -0.070 0.996 109 108 105
-47.9818 -8.2932 -45.4188 0.018 -0.216 0.976 138 137 133
-48.3311 -8.1323 -45.6022 0.002 -0.237 0.971 134 133 128
-48.4674 -7.7991 -45.5900 -0.016 -0.211 0.977 91 90 85
-48.4107 -7.6313 -45.5001 0.003 -0.222 0.975 89 90 84
-48.6783 -7.1324 -45.5244 0.982 -0.037 -0.184 86 87 80
-48.1248 -6.8014 -45.0524 0.992 -0.110 0.065 85 84 80
-47.8979 -6.6382 -44.8505 0.764 -0.597 0.242 84 85 78
-47.9180 -5.5001 -44.5116 0.846 -0.520 0.118 70 79 50
-48.0636 -5.1738 -44.5078 -0.054 0.790 0.610 70 79 48
-48.2214 -5.0079 -44.5618 0.032 0.830 0.557 72 82 48
-48.9125 -4.6613 -44.9157 0.501 0.781 0.373 79 90 51
-49.4262 -4.3163 -45.1518 0.588 0.756 0.288 78 90 52
-48.5132 -2.9203 -44.1103 0.867 -0.365 0.339 66 87 48
-54.4241 7.8264 -44.7290 0.959 -0.103 -0.263 67 90 52
-53.2939 7.8883 -43.9555 0.917 -0.357 -0.179 60 81 44
-52.5481 7.8760 -43.4615 0.950 -0.099 -0.295 53 72 35
-52.2419 7.9564 -43.2323 0.946 -0.040 -0.323 52 69 33
-26.9953 -91.1078 -57.3062 -0.093 -0.343 0.935 63 68 64
-30.7533 -87.0651 -58.5706 0.480 0.857 -0.187 115 119 102
-29.3219 -80.4651 -55.5584 0.228 -0.279 0.933 120 124 109
-29.3926 -79.9558 -55.4475 0.212 -0.172 0.962 110 113 102
-29.3370 -79.5564 -55.2860 0.265 -0.293 0.919 83 86 75
-29.5518 -79.5895 -55.4404 0.171 -0.165 0.971 75 76 68
-29.6674 -79.4633 -55.4787 0.633 0.142 0.761 80 81 75
-29.8311 -79.4125 -55.5727 0.656 0.719 0.228 86 87 81
-29.9145 -79.2344 -55.5733 0.697 0.687 0.205 91 92 86
-29.8920 -78.8903 -55.4512 0.652 -0.177 0.737 96 97 91
-29.5803 -77.7923 -54.9008 0.356 -0.409 0.840 103 104 98
-29.6225 -77.5540 -54.8550 0.443 -0.377 0.814 106 107 101
-29.3688 -75.9629 -54.1902 0.572 -0.458 0.681 120 121 115
-29.6495 -75.4946 -54.2329 -0.102 0.566 0.818 114 117 110
-30.1063 -75.2845 -54.4740 0.067 0.317 0.946 118 121 114
-31.9231 -68.2996 -53.5214 -0.104 0.474 0.874 124 126 115
-32.3817 -66.1167 -53.1504 0.717 0.668 0.200 109 111 98
-33.8015 -66.1805 -54.1228 -0.089 0.407 0.909 106 108 95
-34.2649 -65.8992 -54.3462 -0.058 0.519 0.853 75 87 65
-32.6150 -63.4353 -52.4733 -0.032 -0.307 0.951 65 77 55
-35.6769 -65.5872 -55.1965 0.283 0.889 0.360 49 61 39
-36.0497 -65.4513 -55.4044 0.959 0.281 -0.034 42 54 30
-31.5946 -53.8414 -48.8060 0.353 -0.071 0.933 23 26 17
-31.4910 -53.5047 -48.6319 0.333 -0.356 0.873 23 26 17
-31.4842 -53.2640 -48.5525 0.286 -0.390 0.875 23 26 17
-31.4980 -53.0440 -48.4934 0.286 -0.355 0.890 24 25 20
-32.7318 -53.7620 -49.5443 0.237 0.315 0.919 23 24 19
-32.8364 -53.6243 -49.5717 0.214 0.263 0.941 23 24 19
-32.9321 -53.4777 -49.5903 0.237 0.315 0.919 18 19 14
-33.0269 -53.3300 -49.6080 0.319 0.371 0.872 14 15 10
-33.0225 -50.9853 -48.8761 0.830 0.352 -0.433 26 25 23
-33.0908 -50.8156 -48.8691 0.830 0.352 -0.433 26 24 25
-33.1806 -50.6650 -48.8826 0.839 0.339 -0.425 26 24 25
-33.3707 -49.6854 -48.7056 0.945 -0.041 -0.324 42 41 39
-33.4233 -48.8223 -48.4725 0.932 0.262 -0.252 78 76 77
-33.4116 -48.5868 -48.3915 0.852 0.522 0.039 90 86 87
-35.0018 -49.6920 -49.8019 0.697 0.636 0.330 94 89 93
-35.1113 -49.5515 -49.8317 0.644 0.646 0.410 96 91 95
-35.0907 -49.3030 -49.7406 0.733 0.193 0.652 100 94 98
-36.2155 -46.7616 -49.7051 0.567 0.536 0.626 101 92 93
-36.6164 -46.8384 -49.9980 0.533 0.509 0.675 100 92 90
-34.5710 -44.8536 -48.0087 0.562 -0.226 0.796 99 87 87
-34.7006 -44.7321 -48.0578 0.526 -0.248 0.813 104 92 92
-36.8069 -46.0718 -49.8875 0.718 -0.242 0.653 101 91 90
-36.8254 -45.8592 -49.8338 0.712 -0.250 0.657 100 90 89
-34.6556 -43.6166 -47.6809 0.295 -0.263 0.919 74 69 66
-34.6608 -43.4055 -47.6187 0.295 -0.263 0.919 63 58 55
-34.6927 -43.2141 -47.5806 0.304 -0.182 0.935 50 45 42
-34.7300 -43.0268 -47.5474 0.311 -0.190 0.931 40 35 32
-34.7388 -42.8195 -47.4888 0.304 -0.182 0.935 25 20 17
-34.7365 -42.6050 -47.4206 0.305 -0.190 0.933 26 21 18
-34.7578 -42.4075 -47.3735 0.305 -0.190 0.933 27 22 19
-34.7117 -42.1638 -47.2668 0.617 -0.327 0.716 26 22 19
-34.6901 -41.9377 -47.1821 0.617 -0.327 0.716 22 21 19
-34.8023 -41.8040 -47.2158 0.267 -0.210 0.941 22 21 19
-34.8206 -41.6060 -47.1665 0.267 -0.210 0.941 24 23 21
-36.0847 -39.7110 -47.4254 0.774 0.158 0.613 45 44 42
-36.0880 -39.5049 -47.3636 0.767 0.162 0.620 48 44 43
-37.0025 -39.8638 -48.0886 0.895 0.107 0.432 53 49 48
-37.2787 -39.8230 -48.2613 0.503 0.672 0.544 54 48 48
-37.4532 -39.7184 -48.3459 0.488 0.673 0.555 54 48 48
-37.4780 -36.8181 -47.4608 0.376 -0.456 0.807 107 101 101
-37.4586 -36.6030 -47.3809 0.346 -0.400 0.849 107 103 102
-37.4363 -36.3869 -47.2987 0.123 -0.061 0.991 108 104 103
-37.4711 -36.2027 -47.2649 0.114 -0.038 0.993 107 103 102
-37.5485 -36.0417 -47.2667 0.207 -0.031 0.978 109 105 104
-37.6033 -35.8685 -47.2496 0.207 -0.031 0.978 113 109 108
-37.8539 -35.8001 -47.3965 0.429 0.506 0.748 120 116 115
-37.8280 -35.3812 -47.2489 0.683 0.729 -0.044 123 119 118
-37.9684 -35.2530 -47.3032 0.683 0.729 -0.044 115 114 110
-38.8859 -35.5278 -48.0042 0.300 0.637 0.710 116 115 111
-42.7930 -34.1117 -50.1852 0.725 -0.518 0.454 98 97 93
-43.0773 -32.5607 -49.8937 -0.125 0.268 0.955 121 115 117
-44.0722 -29.2584 -49.5345 0.447 0.888 0.109 116 115 113
-44.4111 -27.5652 -49.2355 0.227 -0.191 0.955 51 48 43
-44.5784 -27.0226 -49.1790 0.751 -0.110 0.651 66 63 58
-44.6542 -26.8484 -49.1757 0.309 -0.033 0.950 91 86 82
-44.7574 -26.6831 -49.1936 0.215 0.002 0.977 91 86 82
-44.8775 -26.5229 -49.2244 0.154 0.049 0.987 91 86 82
-44.8841 -26.3265 -49.1677 0.241 -0.003 0.970 91 86 82
-44.6744 -25.8655 -48.8837 0.274 -0.073 0.959 85 80 76
-45.0917 -23.4567 -48.4148 0.705 -0.595 0.386 101 93 91
-45.0335 -22.8662 -48.1922 0.123 0.264 0.957 107 99 97
-48.2247 -18.8080 -49.0715 0.376 0.198 0.905 109 100 101
-48.3099 -18.6334 -49.0744 0.376 0.198 0.905 107 100 100
-48.1950 -18.4231 -48.9319 0.272 -0.394 0.878 111 106 103
-48.1631 -18.2285 -48.8500 0.277 -0.444 0.852 119 115 112
-47.6541 -17.3934 -48.2489 0.232 -0.262 0.937 99 98 93
-47.5838 -17.1967 -48.1405 0.173 -0.128 0.976 89 88 83
-47.6891 -17.0284 -48.1589 0.194 -0.154 0.969 76 75 69
-47.7320 -16.8502 -48.1323 0.163 -0.108 0.981 68 69 58
-47.7599 -16.6699 -48.0949 0.164 -0.112 0.980 71 73 59
-48.0746 -16.5325 -48.2633 0.406 0.637 0.656 67 71 53
-48.2350 -16.3712 -48.3208 0.406 0.637 0.656 60 65 45
-48.2802 -16.1928 -48.2957 0.405 0.596 0.693 55 59 42
-48.4471 -16.0317 -48.3575 0.410 0.580 0.703 47 51 34
-48.6822 -15.8794 -48.4679 0.466 -0.105 0.879 47 51 34
-47.1462 -14.4130 -46.9815 0.204 -0.016 0.979 74 74 62
-48.5030 -13.6678 -47.6601 0.976 0.174 -0.129 62 62 54
-48.5296 -13.4907 -47.6229 0.976 0.174 -0.129 69 68 63
-48.5749 -13.3157 -47.5989 0.991 0.126 -0.050 77 76 71
-48.6836 -13.1468 -47.6193 0.964 -0.134 0.229 79 78 73
-49.2392 -13.0190 -47.9523 0.804 -0.550 -0.225 64 63 58
-47.9665 -12.1966 -46.8429 0.708 -0.287 0.645 54 55 47
-46.6374 -10.2198 -45.3366 0.537 -0.564 0.628 39 38 36
-46.5635 -10.0484 -45.2337 0.776 -0.397 0.490 47 46 44
-46.5024 -9.8783 -45.1398 0.801 -0.316 0.509 69 68 66
-46.6896 -9.7197 -45.2161 0.183 0.284 0.941 74 74 74
-46.8315 -9.5586 -45.2612 0.175 0.291 0.940 82 82 82
-46.9192 -9.3950 -45.2692 0.183 0.284 0.941 88 88 86
-47.7516 -8.2507 -45.4719 0.074 -0.316 0.946 126 125 122
-48.8137 -7.0930 -45.8245 -0.066 -0.165 0.984 100 102 91
-48.1681 -6.9266 -45.3397 0.992 -0.116 0.053 101 103 93
-48.1721 -6.7616 -45.2911 0.992 -0.112 0.061 97 98 92
-48.1219 -6.5972 -45.2063 0.716 -0.684 0.139 102 103 96
-47.9927 -6.4341 -45.0689 0.716 -0.684 0.139 103 106 94
-47.8643 -6.2720 -44.9324 0.716 -0.684 0.139 91 97 79
-47.8315 -6.1095 -44.8599 0.693 -0.689 0.211 84 93 70
-48.4160 -5.2847 -44.9956 0.319 0.948 0.016 69 78 55
-48.4849 -4.6346 -44.8397 0.281 0.933 0.225 82 94 56
-26.7219 -92.1052 -57.6942 -0.062 -0.340 0.938 70 75 71
-26.4539 -90.1913 -56.9159 -0.093 -0.343 0.935 76 81 77
-29.2035 -85.8469 -57.4136 0.334 0.905 0.264 112 116 99
-30.2932 -86.7346 -58.4255 0.452 0.874 0.181 110 113 94
-30.2982 -86.0746 -58.2228 0.607 0.780 -0.149 109 112 95
-28.4167 -81.5942 -55.5551 0.797 0.598 -0.084 105 107 94
-29.1319 -80.2651 -55.6224 0.903 -0.049 0.426 92 94 80
-29.1841 -80.0379 -55.5867 0.879 0.012 0.477 90 92 79
-29.2872 -79.5824 -55.5140 0.647 -0.031 0.762 85 86 78
-29.3779 -79.4175 -55.5236 0.663 -0.009 0.748 85 88 79
-29.4610 -79.2404 -55.5244 0.664 -0.031 0.747 89 92 85
-29.6375 -78.9022 -55.5378 0.664 -0.168 0.729 100 103 96
-29.6523 -78.6175 -55.4589 0.664 -0.168 0.729 103 106 99
-28.8565 -75.2801 -53.8802 0.477 -0.428 0.768 122 125 118
-29.7078 -75.0828 -54.3926 -0.091 0.468 0.879 113 116 109
-29.9230 -75.1061 -54.5450 0.063 0.310 0.949 112 115 108
-30.0830 -75.0461 -54.6342 0.060 0.308 0.949 111 114 107
-30.0318 -74.6748 -54.4837 0.304 -0.380 0.874 111 114 107
-29.8344 -71.4911 -53.3565 0.414 0.910 0.012 124 127 120
-31.1203 -67.8964 -53.1013 -0.250 0.434 0.865 124 125 117
-31.3030 -67.8556 -53.2117 -0.251 0.421 0.872 124 126 115
-31.6570 -68.0326 -53.5057 -0.142 0.508 0.850 124 126 115
-31.8084 -67.9483 -53.5815 -0.142 0.508 0.850 124 126 115
-31.7682 -67.3441 -53.3657 0.968 0.144 0.204 111 113 102
-31.8099 -67.1213 -53.3243 0.968 0.144 0.204 110 112 101
-31.7851 -66.8156 -53.2121 0.825 0.526 0.208 110 112 101
-31.8715 -66.6494 -53.2184 0.830 0.515 0.212 110 112 101
-31.9653 -66.4923 -53.2327 0.830 0.515 0.212 110 112 99
-32.0876 -66.3701 -53.2770 0.866 0.436 0.244 110 112 99
-32.2204 -66.2603 -53.3323 0.853 0.455 0.257 110 112 99
-32.3194 -66.1083 -53.3515 0.715 0.672 0.192 109 111 98
-34.5664 -66.3175 -54.9321 -0.128 0.476 0.870 75 87 65
-35.7902 -65.7780 -55.5888 0.171 0.838 0.518 49 61 39
-33.2915 -58.0335 -51.4858 0.715 -0.685 0.138 31 38 20
-31.0715 -53.6027 -48.6054 0.202 -0.152 0.967 26 29 20
-31.0328 -53.3308 -48.4943 0.238 -0.277 0.931 26 29 20
-31.0365 -53.1016 -48.4253 0.238 -0.277 0.931 26 29 20
-31.0284 -52.8613 -48.3448 0.240 -0.270 0.933 25 28 19
-31.0339 -52.6350 -48.2778 0.240 -0.270 0.933 25 26 21
-31.0412 -52.4111 -48.2128 0.189 -0.184 0.965 25 26 21
-31.0819 -52.2197 -48.1806 0.133 0.006 0.991 24 25 20
-31.1477 -52.0526 -48.1727 0.133 0.006 0.991 24 25 20
-31.2014 -51.8739 -48.1531 0.135 0.012 0.991 22 23 18
-31.2679 -51.7075 -48.1460 0.135 0.012 0.991 19 20 15
-31.3343 -51.5410 -48.1389 0.135 0.012 0.991 19 20 15
-31.3851 -51.3599 -48.1165 0.199 -0.039 0.979 19 20 15
-31.4400 -51.1827 -48.0982 0.199 -0.039 0.979 20 19 17
-31.5174 -50.5719 -47.9597 0.226 -0.044 0.973 20 19 17
-31.5700 -50.3934 -47.9394 0.226 -0.044 0.973 20 19 17
-34.7909 -50.0102 -49.9917 0.965 0.140 0.221 80 78 79
-34.9335 -49.8979 -50.0528 0.851 0.259 0.456 82 78 79
-34.9958 -49.7178 -50.0386 0.851 0.259 0.456 85 81 82
-35.0582 -49.5377 -50.0244 0.851 0.259 0.456 90 86 87
-35.1151 -49.3532 -50.0052 0.978 0.103 0.181 97 93 94
-33.5081 -46.9087 -48.1583 0.967 -0.014 0.253 94 88 92
-33.2589 -46.0500 -47.7221 0.803 0.577 0.146 102 91 97
-32.9010 -45.5498 -47.3246 0.344 0.638 0.689 104 91 100
-33.0258 -45.4315 -47.3718 0.344 0.638 0.689 104 93 99
-33.1314 -45.2978 -47.4013 0.341 0.626 0.701 105 94 100
-33.2357 -45.1627 -47.4295 0.349 0.621 0.702 105 94 100
-33.3327 -45.0217 -47.4508 0.334 0.739 0.585 105 94 98
-34.2333 -44.8405 -48.0016 0.514 -0.292 0.807 99 91 89
-34.3104 -44.6809 -48.0037 0.582 -0.236 0.778 100 90 89
-34.6812 -44.3042 -48.1361 0.999 -0.013 0.033 102 92 91
-34.7129 -43.8940 -48.0294 0.999 -0.027 0.016 106 98 96
-34.7081 -43.6746 -47.9577 0.999 -0.027 0.016 109 101 99
-34.5346 -43.3345 -47.7345 0.882 -0.221 0.417 97 92 89
-34.5394 -43.1240 -47.6720 0.895 -0.230 0.382 89 84 81
-34.5524 -42.9197 -47.6170 0.650 -0.305 0.696 78 73 70
-34.5029 -42.6717 -47.5062 0.594 -0.212 0.776 53 48 45
-34.5032 -42.4596 -47.4402 0.558 -0.304 0.772 42 37 34
-34.4727 -42.2266 -47.3468 0.571 -0.355 0.740 30 25 22
-34.4516 -42.0009 -47.2621 0.601 -0.365 0.711 20 16 15
-34.4605 -41.7966 -47.2043 0.660 -0.314 0.683 25 24 22
-34.4403 -41.5729 -47.1208 0.660 -0.314 0.683 23 22 20
-35.6659 -39.6677 -47.3524 0.746 0.206 0.634 44 43 41
-35.8799 -39.3869 -47.4091 0.887 -0.204 0.414 48 44 43
-36.2595 -39.2068 -47.6088 0.617 0.192 0.763 54 48 48
-37.0859 -39.5048 -48.2591 0.921 0.045 0.387 54 48 48
-37.2373 -36.6903 -47.4824 0.409 -0.474 0.780 86 80 80
-37.2036 -36.4678 -47.3902 0.387 -0.455 0.802 80 76 75
-37.1477 -36.2339 -47.2795 0.233 0.098 0.967 81 77 76
-37.2210 -36.0715 -47.2782 0.233 0.098 0.967 79 75 74
-37.4439 -35.9901 -47.4030 0.425 0.496 0.757 91 87 86
-37.5555 -35.8475 -47.4338 0.425 0.496 0.757 101 97 96
-37.6673 -35.7048 -47.4646 0.425 0.496 0.757 107 103 102
-38.5800 -35.5765 -48.0400 -0.169 0.668 0.725 109 108 104
-40.0515 -35.5099 -49.0115 -0.279 -0.144 0.949 97 96 92
-40.3176 -35.4363 -49.1680 -0.279 -0.139 0.950 37 36 32
-42.1522 -33.1890 -49.7034 0.613 -0.696 0.374 105 104 100
-41.7281 -32.7922 -49.2935 -0.225 0.261 0.939 110 109 105
-42.7841 -32.4296 -49.8924 -0.125 0.268 0.955 120 114 116
-42.9414 -32.2898 -49.9548 -0.124 0.260 0.958 114 108 110
-45.2778 -31.1587 -51.1771 0.882 -0.303 -0.361 117 113 114
-44.1407 -29.0707 -49.7584 -0.079 -0.312 0.947 116 115 113
-44.9955 -27.1471 -49.7342 0.130 -0.156 0.979 80 77 72
-44.3170 -26.7247 -49.1447 0.263 -0.005 0.965 97 92 88
-44.4519 -26.5704 -49.1875 0.249 -0.008 0.969 98 93 89
-44.4636 -26.3763 -49.1348 0.237 -0.140 0.961 98 93 89
-44.4974 -26.1895 -49.0993 0.237 -0.140 0.961 98 93 89
-44.3776 -25.9547 -48.9452 0.275 -0.062 0.960 86 81 77
-43.8003 -24.4217 -48.0772 0.392 0.896 0.210 84 80 77
-48.1241 -18.7634 -49.2262 0.321 0.221 0.921 108 99 100
-48.1523 -18.5785 -49.1874 0.361 0.189 0.913 107 100 100
-47.9566 -18.3542 -48.9854 0.268 -0.432 0.861 108 103 100
-47.4492 -17.7040 -48.4403 0.104 -0.343 0.934 121 120 115
-47.4050 -17.5107 -48.3501 0.152 -0.296 0.943 123 122 117
-47.4166 -17.3272 -48.3007 0.235 -0.261 0.936 111 110 105
-47.5620 -17.1654 -48.3482 0.940 0.110 0.324 101 100 95
-47.5947 -16.9855 -48.3141 0.940 0.110 0.324 88 88 81
-47.6032 -16.8021 -48.2625 0.202 -0.073 0.977 78 80 68
-47.6735 -16.6284 -48.2557 0.189 -0.088 0.978 71 74 59
-47.9425 -16.4841 -48.3920 0.406 0.637 0.656 67 71 52
-48.1027 -16.3228 -48.4497 0.406 0.637 0.656 60 65 45
-48.1408 -16.1436 -48.4194 0.405 0.596 0.693 56 61 41
-48.3060 -15.9823 -48.4805 0.410 0.580 0.703 63 67 50
-48.6395 -15.8435 -48.6620 0.425 -0.160 0.891 65 69 51
-47.1822 -14.5650 -47.2801 0.051 0.444 0.895 71 68 59
-47.0511 -14.3711 -47.1312 0.171 0.713 0.680 76 76 64
-48.3438 -14.3409 -47.9934 0.987 0.127 -0.099 82 79 70
-48.3624 -14.1619 -47.9501 0.987 0.127 -0.099 83 80 71
-48.3810 -13.9832 -47.9068 0.987 0.127 -0.099 83 80 71
-48.4497 -13.8101 -47.8991 0.979 0.166 -0.121 77 74 67
-48.5406 -13.6392 -47.9070 0.976 0.174 -0.129 68 68 60
-48.5672 -13.4618 -47.8696 0.976 0.174 -0.129 70 69 64
-48.6639 -13.2915 -47.8816 0.976 0.172 -0.132 72 71 66
-48.6900 -13.1143 -47.8439 0.976 0.172 -0.132 76 75 70
-49.1494 -12.9771 -48.1109 0.790 -0.578 -0.204 78 77 72
-48.9506 -12.7792 -47.9150 0.752 -0.647 -0.123 61 60 55
-46.3997 -9.8382 -45.2766 0.801 -0.316 0.509 33 32 30
-46.4695 -9.6745 -45.2725 0.183 0.284 0.941 37 36 34
-46.5838 -9.5126 -45.2991 0.183 0.284 0.941 43 42 40
-46.6983 -9.3505 -45.3256 0.183 0.284 0.941 47 46 44
-48.0193 -5.2540 -44.9374 0.405 0.914 -0.003 67 75 58
-48.3936 -5.0814 -45.1358 0.362 0.931 0.036 73 83 61
-56.1670 7.9965 -46.2942 0.995 0.020 -0.099 73 99 60
-55.5640 8.0269 -45.8781 0.977 -0.166 -0.134 70 96 57
-55.9104 8.4115 -45.9916 0.160 0.925 0.345 61 86 47
-54.9307 8.3552 -45.3485 0.484 0.852 -0.200 58 83 44
-26.0795 -91.3182 -57.2742 0.639 -0.444 0.627 63 68 64
-26.2332 -91.2782 -57.3658 0.148 -0.412 0.899 62 67 63
-22.0776 -76.9571 -50.0584 0.802 0.594 0.061 123 129 118
-29.5834 -85.6347 -57.8667 0.415 0.690 0.593 103 106 87
-29.6836 -85.4760 -57.8848 0.454 0.664 0.595 103 106 87
-29.7354 -85.2344 -57.8442 0.237 0.774 0.587 103 106 89
-20.3899 -67.9606 -46.0933 0.684 0.524 -0.507 96 98 85
-28.8839 -80.9082 -55.9104 0.919 0.068 0.389 90 92 79
-28.9609 -80.7206 -55.9038 0.932 0.074 0.355 90 92 79
-29.0046 -80.4788 -55.8576 0.941 0.060 0.333 90 92 79
-29.0337 -80.2137 -55.7942 0.907 -0.036 0.419 90 92 78
-29.1073 -80.0211 -55.7837 0.947 0.084 0.310 90 92 79
-29.0969 -79.6932 -55.6738 0.946 0.019 0.323 91 93 82
-29.1243 -79.4273 -55.6090 0.946 0.019 0.323 93 94 86
-29.2380 -79.2997 -55.6461 0.663 -0.009 0.748 94 97 88
-28.6934 -76.9141 -54.5288 0.569 -0.496 0.656 104 107 100
-28.7890 -76.7625 -54.5461 0.598 -0.447 0.665 106 109 102
-28.6263 -75.0251 -53.8910 0.552 -0.406 0.728 122 125 118
-29.4993 -74.8656 -54.4327 -0.097 0.476 0.874 102 105 98
-29.7400 -74.9278 -54.6153 0.063 0.310 0.949 99 102 95
-29.8687 -74.8224 -54.6695 0.064 0.323 0.944 98 101 94
-29.8223 -74.4587 -54.5240 0.314 -0.365 0.876 100 103 96
-29.7595 -74.0725 -54.3603 0.318 -0.371 0.873 104 107 100
-30.3463 -72.0078 -54.1106 0.398 0.667 0.630 128 131 124
-30.4609 -71.8803 -54.1483 0.510 0.574 0.640 128 131 124
-30.5711 -71.7462 -54.1809 0.510 0.574 0.640 128 131 124
-30.7529 -71.7107 -54.2930 0.397 0.639 0.659 128 131 124
-30.4672 -67.6734 -52.8333 0.053 0.191 0.980 126 129 122
-31.2831 -67.6269 -53.3717 -0.198 0.539 0.819 124 126 115
-33.0744 -65.9951 -54.0741 -0.115 0.651 0.751 97 99 86
-31.4730 -62.4917 -51.8901 0.261 -0.008 0.965 66 78 56
-31.4666 -62.2236 -51.8017 0.193 -0.015 0.981 61 73 51
-35.6799 -65.7155 -55.7523 0.161 -0.043 0.986 41 53 31
-34.6642 -50.1674 -50.1882 0.840 0.170 0.515 58 57 53
-34.7005 -49.9653 -50.1494 0.842 0.178 0.509 62 61 59
-34.7538 -49.7779 -50.1268 0.842 0.178 0.509 70 66 65
-34.7470 -49.5403 -50.0476 0.848 0.242 0.471 74 70 71
-34.8295 -49.3777 -50.0526 0.856 0.271 0.440 80 76 77
-34.9739 -48.5750 -49.8987 0.968 -0.140 0.209 92 88 89
-34.8959 -47.8267 -49.6112 0.955 -0.073 0.287 102 91 95
-34.6824 -44.1091 -48.3007 0.917 0.313 0.248 101 91 90
-34.7058 -43.9093 -48.2539 0.999 -0.036 0.026 102 94 92
-34.6997 -43.6886 -48.1806 0.999 -0.036 0.026 100 92 90
-34.4744 -43.3110 -47.9095 0.898 -0.248 0.362 95 90 87
-34.3004 -42.3355 -47.4856 0.706 -0.351 0.614 93 88 85
-34.2744 -42.1061 -47.3961 0.687 -0.366 0.628 81 76 73
-34.2529 -41.8806 -47.3108 0.682 -0.370 0.631 71 67 66
-34.2628 -41.6775 -47.2538 0.650 -0.322 0.688 46 44 42
-34.2488 -41.4584 -47.1756 0.677 -0.227 0.700 41 39 37
-34.2392 -41.2430 -47.1015 0.748 -0.085 0.659 31 29 28
-34.1981 -40.7993 -46.9345 0.740 -0.120 0.662 28 26 24
-34.2519 -40.2153 -46.7879 0.761 -0.255 0.597 29 28 26
-34.2748 -40.0246 -46.7436 0.779 -0.299 0.551 33 32 30
-35.9117 -37.7716 -47.1466 0.480 -0.614 0.627 59 53 53
-37.4264 -37.4197 -48.0628 0.987 -0.096 -0.128 64 58 58
-37.5489 -37.2826 -48.1028 0.956 -0.200 -0.214 65 59 59
-36.9575 -36.1351 -47.3422 0.441 -0.233 0.867 72 68 67
-37.0247 -35.9697 -47.3358 0.233 0.098 0.967 72 68 67
-37.1010 -35.8092 -47.3372 0.286 -0.067 0.956 80 76 75
-37.6104 -35.4763 -47.5781 -0.248 0.449 0.859 101 97 96
-40.0041 -35.4882 -49.2041 -0.285 -0.124 0.950 95 94 90
-41.9841 -34.9982 -50.3925 0.860 -0.466 -0.209 68 72 58
-42.7591 -34.5170 -50.7668 0.665 -0.285 0.690 79 81 71
-42.0453 -32.9308 -49.7856 0.954 0.194 0.229 109 108 104
-42.0902 -32.7437 -49.7574 0.954 0.194 0.229 117 116 112
-42.5896 -32.3412 -49.9697 0.567 -0.120 0.815 120 115 116
-42.6134 -32.1445 -49.9241 0.567 -0.120 0.815 114 108 110
-42.6372 -31.9481 -49.8786 0.567 -0.120 0.815 110 105 107
-42.6609 -31.7520 -49.8332 0.567 -0.120 0.815 114 108 110
-42.6818 -31.5551 -49.7856 0.566 -0.102 0.818 114 108 110
-43.8871 -29.5773 -49.9824 -0.197 -0.203 0.959 117 115 113
-43.9383 -29.3928 -49.9592 -0.162 -0.252 0.954 117 115 113
-43.8458 -29.1551 -49.8220 -0.160 -0.255 0.954 117 115 113
-43.6404 -28.8772 -49.5956 -0.061 -0.346 0.936 113 111 109
-44.1257 -26.6487 -49.2257 0.017 -0.099 0.995 102 97 93
-44.2859 -26.5030 -49.2886 0.009 -0.110 0.994 102 97 93
-44.2996 -26.3098 -49.2373 0.121 -0.269 0.955 102 97 93
-44.1288 -25.8622 -48.9811 0.276 -0.144 0.950 86 81 77
-44.0937 -25.6555 -48.8926 0.649 -0.063 0.758 85 80 76
-44.1691 -25.4835 -48.8897 0.310 -0.234 0.922 86 81 77
-44.2994 -25.1331 -48.8681 0.457 0.555 0.695 84 80 77
-44.1167 -24.3049 -48.4846 0.277 0.906 0.322 91 87 83
-44.4559 -24.2092 -48.6844 0.331 0.085 0.940 92 88 85
-44.3493 -23.9864 -48.5424 0.284 -0.095 0.954 92 88 85
-44.7378 -23.1333 -48.5382 0.675 -0.592 0.440 101 93 91
-44.9841 -23.0068 -48.6654 0.095 -0.155 0.983 106 98 96
-44.7962 -22.7665 -48.4627 0.066 -0.388 0.919 107 99 97
-48.0800 -18.5390 -49.3627 0.377 0.208 0.902 107 99 100
-46.9979 -17.7861 -48.3932 0.198 -0.358 0.912 116 114 109
-47.0497 -17.6096 -48.3729 0.134 -0.321 0.937 127 126 121
-47.0609 -17.4265 -48.3231 0.131 -0.274 0.953 131 130 125
-47.3115 -17.2826 -48.4478 0.901 -0.046 0.431 124 123 118
-47.3363 -17.1016 -48.4079 0.946 0.050 0.320 113 111 106
-47.3597 -16.9207 -48.3670 0.946 0.050 0.320 100 99 92
-47.3890 -16.7409 -48.3305 0.919 0.055 0.390 89 91 79
-47.4160 -16.5610 -48.2923 0.919 0.055 0.390 72 74 60
-47.7767 -16.4307 -48.4960 0.394 0.601 0.695 67 70 52
-47.9303 -16.2686 -48.5492 0.394 0.601 0.695 60 64 44
-48.0017 -16.0944 -48.5430 0.405 0.596 0.693 55 59 40
-48.1653 -15.9331 -48.6033 0.410 0.580 0.703 82 87 68
-47.4602 -14.7474 -47.7536 0.151 -0.061 0.987 71 68 61
-46.9440 -14.5059 -47.3280 0.190 0.647 0.739 69 69 59
-47.2352 -14.3618 -47.4801 0.130 0.767 0.629 68 67 58
-47.2600 -14.1861 -47.4419 0.804 -0.200 0.561 69 67 58
-48.3413 -13.7664 -48.0431 0.121 -0.249 0.961 72 69 62
-48.7700 -12.9088 -48.0648 0.611 -0.345 0.713 75 74 69
-48.4921 -12.7048 -47.8124 0.774 -0.626 -0.097 59 58 53
-47.8931 -11.7725 -47.1141 0.130 0.236 0.963 43 46 37
-46.3783 -9.4685 -45.3649 0.174 0.283 0.943 38 34 31
-46.4652 -9.3057 -45.3727 0.158 0.303 0.940 36 32 31
-46.7517 -8.8171 -45.4137 0.143 0.005 0.990 67 66 66
-48.3583 -5.8568 -45.5743 -0.161 0.079 0.984 103 113 101
-48.0133 -5.3749 -45.1894 0.118 -0.278 0.953 75 83 71
-48.0177 -5.2128 -45.1415 0.118 -0.278 0.953 67 75 62
-48.2649 -4.5586 -45.1039 0.219 0.938 0.270 79 91 55
-57.5849 8.1900 -47.4228 0.848 -0.201 -0.491 70 92 54
-56.6082 8.6202 -46.6259 -0.003 0.863 0.506 61 86 47
-55.1663 8.4643 -45.6975 0.354 0.935 0.028 60 82 44
-25.6527 -90.2654 -56.9115 0.362 -0.343 0.867 64 71 63
-28.5509 -81.7294 -56.1975 0.786 0.527 0.322 96 98 85
-28.5171 -81.3567 -56.0571 0.363 0.318 0.876 92 94 81
-28.8619 -80.3548 -55.9764 0.912 0.074 0.403 90 92 79
-28.8458 -80.0164 -55.8589 0.815 -0.196 0.546 90 92 78
-28.8663 -79.7384 -55.7853 0.816 -0.170 0.553 91 93 79
-28.8673 -79.4297 -55.6888 0.816 -0.170 0.553 89 93 80
-28.8781 -79.1379 -55.6042 0.819 -0.169 0.548 103 106 97
-28.7823 -78.6764 -55.3936 0.806 -0.330 0.491 106 109 102
-28.5794 -78.0468 -55.0571 0.691 -0.467 0.552 105 108 101
-28.4314 -77.5079 -54.7866 0.691 -0.467 0.552 105 108 101
-28.4655 -77.2595 -54.7315 0.676 -0.432 0.597 103 106 99
-29.0269 -77.8405 -55.2970 0.578 -0.263 0.773 102 105 98
-28.8033 -77.1863 -54.9386 0.573 -0.244 0.782 103 106 99
-28.6613 -76.6632 -54.6771 0.523 -0.485 0.701 106 109 102
-28.6531 -76.3508 -54.5732 0.551 -0.473 0.687 109 112 105
-29.4165 -74.8356 -54.6160 0.109 0.144 0.984 91 93 88
-29.5404 -74.7246 -54.6655 0.083 0.152 0.985 86 88 83
-29.5674 -74.4694 -54.6034 0.327 -0.383 0.864 86 88 83
-29.5241 -74.1114 -54.4612 0.327 -0.383 0.864 90 92 87
-29.4810 -73.7552 -54.3197 0.327 -0.383 0.864 98 101 94
-29.4659 -73.4414 -54.2106 0.335 -0.412 0.847 108 111 104
-29.0677 -71.7125 -53.3948 -0.197 0.560 0.805 123 126 117
-29.7927 -72.1751 -54.0344 -0.207 0.553 0.807 123 126 117
-30.4369 -71.9312 -54.3964 -0.000 0.314 0.949 128 131 122
-31.1514 -71.7663 -54.8312 0.380 0.857 0.349 127 130 123
-31.3123 -71.6976 -54.9191 0.294 0.559 0.775 126 128 123
-30.8832 -67.4619 -53.2929 -0.136 0.463 0.876 125 127 116
-31.0444 -66.8450 -53.2084 -0.026 -0.240 0.971 97 99 86
-31.0840 -66.6219 -53.1651 0.055 -0.404 0.913 96 98 85
-32.8732 -68.0394 -54.8303 0.060 -0.354 0.933 82 84 71
-32.6879 -66.6960 -54.2810 0.060 -0.352 0.934 75 77 64
-32.6741 -66.4032 -54.1794 0.056 -0.331 0.942 76 78 65
-32.7617 -66.2345 -54.1860 0.011 0.046 0.999 73 75 62
-34.9043 -65.1727 -55.3111 0.213 0.223 0.951 37 49 27
-35.3339 -65.3850 -55.6706 0.078 0.285 0.955 37 49 27
-32.8213 -49.3072 -48.8955 0.881 0.263 -0.393 36 35 32
-34.9829 -50.9423 -50.8829 0.958 -0.285 -0.036 39 39 36
-34.9127 -50.6463 -50.7419 0.954 -0.295 -0.047 39 40 35
-34.8420 -50.3510 -50.6007 0.957 -0.286 -0.051 42 41 39
-34.7060 -50.0018 -50.3981 0.957 -0.283 -0.057 43 42 40
-34.6880 -48.5997 -49.9443 0.984 -0.081 0.156 92 88 89
-34.6208 -48.0879 -49.7372 0.988 -0.087 0.130 93 88 89
-34.7603 -47.9730 -49.7961 0.993 0.030 0.116 94 88 90
-32.8141 -44.8842 -47.4975 0.390 0.789 0.474 105 95 99
-34.0633 -43.4624 -47.9007 0.922 -0.213 0.323 100 92 90
-34.1769 -43.3306 -47.9366 0.918 -0.329 0.222 101 93 91
-34.1168 -42.2247 -47.5474 0.628 -0.324 0.708 100 93 94
-34.0963 -41.9996 -47.4625 0.628 -0.324 0.708 101 96 93
-34.1039 -41.7946 -47.4031 0.686 -0.364 0.630 100 95 92
-34.1194 -41.5957 -47.3510 0.650 -0.322 0.688 77 72 68
-34.1148 -41.3833 -47.2810 0.677 -0.227 0.700 68 62 59
-34.0785 -41.1499 -47.1828 0.744 -0.107 0.660 55 50 47
-34.0359 -40.9130 -47.0791 0.676 0.099 0.730 45 40 38
-34.0720 -40.7301 -47.0461 0.730 -0.111 0.675 35 30 29
-34.1072 -40.5467 -47.0123 0.698 -0.210 0.685 35 29 28
-34.1125 -40.3438 -46.9521 0.711 -0.208 0.672 34 28 27
-34.1073 -39.9288 -46.8178 0.813 -0.260 0.520 34 30 27
-34.1085 -39.7247 -46.7543 0.820 -0.255 0.512 36 34 30
-34.0911 -39.5091 -46.6746 0.820 -0.255 0.512 38 33 30
-34.2505 -39.4080 -46.7514 0.762 -0.228 0.606 39 35 31
-34.3819 -39.2881 -46.8031 0.758 -0.194 0.623 42 39 34
-34.6616 -36.4445 -46.0981 0.462 -0.545 0.700 57 53 50
-37.4860 -36.8417 -48.1472 0.957 -0.231 -0.174 74 70 69
-37.3120 -36.5399 -47.9336 0.962 -0.230 -0.144 73 69 66
-36.5231 -35.7012 -47.1320 0.200 -0.044 0.979 72 68 65
-36.7267 -35.6113 -47.2424 0.197 -0.072 0.978 79 75 72
-36.7787 -35.4388 -47.2235 0.197 -0.075 0.978 85 81 78
-36.8852 -35.2955 -47.2510 0.215 -0.085 0.973 92 88 85
-38.1176 -35.3416 -48.1049 -0.246 0.640 0.728 94 94 88
-38.7766 -35.2755 -48.5331 -0.329 0.192 0.925 94 95 89
-41.7996 -35.3336 -50.6107 -0.065 0.322 0.945 49 56 40
-41.9925 -35.2149 -50.7047 0.811 -0.567 0.141 51 58 42
-41.7060 -34.2325 -50.2001 0.569 -0.196 0.798 78 82 68
-41.7655 -34.0508 -50.1834 0.500 -0.216 0.839 85 89 76
-41.8556 -33.8834 -50.1921 -0.103 0.056 0.993 92 93 88
-41.8598 -33.6763 -50.1298 -0.106 0.120 0.987 98 97 93
-41.9776 -33.5215 -50.1613 -0.106 0.120 0.987 106 105 101
-41.8931 -33.2747 -50.0259 0.416 -0.160 0.895 108 107 103
-42.0611 -33.1426 -50.0988 0.567 -0.139 0.812 109 108 104
-42.0691 -32.9384 -50.0399 0.942 0.198 0.271 114 113 109
-42.0882 -32.7395 -49.9903 0.949 0.170 0.266 121 120 116
-42.4200 -32.2636 -50.0665 0.584 -0.092 0.807 135 133 136
-42.4135 -32.0542 -49.9961 0.589 -0.115 0.800 145 143 146
-42.4139 -31.8483 -49.9315 0.678 -0.168 0.716 158 156 159
-42.4607 -31.6624 -49.9048 0.589 -0.115 0.800 117 114 117
-43.6683 -26.4860 -49.0972 0.316 -0.010 0.949 102 95 89
-43.8259 -26.3406 -49.1587 0.145 -0.284 0.948 102 95 89
-43.8039 -26.1372 -49.0797 0.245 -0.408 0.880 102 95 89
-43.8535 -25.9570 -49.0567 0.144 -0.297 0.944 102 95 89
-43.8522 -25.7610 -48.9942 0.682 -0.036 0.730 88 81 75
-43.8537 -25.5663 -48.9338 0.703 0.004 0.711 88 81 75
-43.9351 -25.3966 -48.9359 0.654 -0.079 0.752 90 83 77
-43.9490 -25.2063 -48.8854 0.477 0.532 0.700 90 84 78
-44.1907 -25.0848 -49.0117 0.465 0.552 0.692 85 80 74
-44.0824 -24.8582 -48.8666 0.421 0.451 0.787 84 79 73
-44.2091 -24.7017 -48.9036 0.725 -0.217 0.654 81 76 71
-44.2610 -24.5232 -48.8828 0.704 -0.322 0.633 80 75 69
-44.2923 -24.3388 -48.8461 0.616 -0.303 0.727 92 87 81
-44.2861 -24.1440 -48.7804 0.623 -0.295 0.724 92 87 81
-44.2923 -23.9532 -48.7246 0.653 -0.239 0.718 91 86 81
-44.8052 -23.9035 -49.0584 0.084 0.112 0.990 90 85 81
-47.1551 -17.4148 -48.6156 0.830 -0.256 0.496 128 123 119
-47.2331 -17.2424 -48.6144 0.903 -0.034 0.428 124 120 115
-47.2776 -17.0645 -48.5887 0.924 0.072 0.375 114 110 105
-47.2115 -16.8695 -48.4823 0.941 0.126 0.314 100 96 91
-47.1761 -16.6800 -48.3985 0.919 0.100 0.381 90 88 79
-47.2374 -16.5057 -48.3853 0.926 -0.077 0.369 77 75 65
-47.5994 -16.3757 -48.5909 0.418 0.564 0.713 71 71 60
-47.7420 -16.2123 -48.6366 0.418 0.564 0.713 67 67 57
-47.8849 -16.0485 -48.6824 0.418 0.564 0.713 63 64 55
-47.9530 -15.8739 -48.6738 0.418 0.560 0.716 89 90 80
-47.1596 -14.8598 -47.8140 0.278 -0.485 0.829 79 74 69
-46.8627 -14.4657 -47.4875 0.161 0.659 0.735 78 73 69
-48.0502 -13.8834 -48.1131 -0.035 -0.306 0.951 84 79 75
-48.1110 -13.7099 -48.0999 -0.107 -0.272 0.956 84 79 75
-48.4426 -12.6668 -47.9973 -0.111 -0.113 0.987 48 45 41
-47.6332 -11.7189 -47.1474 0.129 0.182 0.975 44 46 35
-46.1727 -9.7571 -45.5346 0.829 -0.356 0.430 42 41 39
-45.9413 -9.5810 -45.3215 0.223 0.298 0.928 39 38 34
-46.0525 -9.4199 -45.3465 0.223 0.298 0.928 32 31 27
-46.2090 -9.2602 -45.4029 0.160 0.297 0.941 26 25 23
-46.4536 -8.4419 -45.3117 0.094 0.125 0.988 62 61 57
-46.5459 -8.2793 -45.3234 0.094 0.125 0.988 72 71 68
-47.5228 -6.3188 -45.3715 0.005 -0.204 0.979 164 166 160
-47.8904 -5.3369 -45.3126 -0.072 -0.125 0.990 74 82 75
-47.8350 -5.1766 -45.2244 0.089 -0.261 0.961 67 73 67
-48.0140 -5.0097 -45.2937 0.071 -0.209 0.975 73 81 71
-47.6895 -4.8591 -45.0253 0.133 0.954 0.270 82 91 73
-47.8277 -4.6937 -45.0673 0.206 0.938 0.280 78 91 61
-48.2888 -4.5155 -45.3253 0.206 0.938 0.280 78 92 54
-48.6723 -4.1767 -45.4799 0.899 -0.179 -0.400 79 91 53
-48.6610 -4.0157 -45.4215 0.861 -0.317 -0.399 84 96 57
-48.6889 -3.8531 -45.3892 0.854 -0.364 -0.371 85 97 58
-48.3462 -3.3904 -45.0100 0.856 -0.362 -0.369 68 84 45
-48.2257 -3.2383 -44.8801 0.856 -0.362 -0.369 70 87 49
-48.0123 -3.0927 -44.6889 0.855 -0.365 -0.369 68 88 47
-57.6604 8.4260 -47.6335 0.805 0.013 -0.593 66 91 51
-55.7905 8.1912 -46.4337 -0.073 0.741 0.667 63 88 48
-55.6290 8.3129 -46.2854 -0.004 0.832 0.555 58 84 45
-25.3678 -90.1828 -56.9479 0.719 -0.455 0.525 85 92 85
-25.1414 -89.3876 -56.5414 0.685 -0.482 0.546 92 99 91
-25.1532 -88.3965 -56.2359 0.072 0.466 0.882 132 139 131
-25.2700 -88.2905 -56.2824 0.072 0.466 0.882 132 139 131
-25.3930 -88.1961 -56.3367 0.121 0.440 0.890 132 139 131
-28.5157 -78.3544 -55.3618 0.680 -0.463 0.569 117 120 113
-28.3640 -77.8069 -55.0848 0.699 -0.499 0.512 112 115 108
-28.7006 -75.6269 -54.6258 0.906 -0.246 0.345 120 123 116
-29.2655 -74.7037 -54.7205 0.534 0.372 0.759 87 90 83
-29.3872 -74.5898 -54.7678 0.389 0.108 0.915 84 87 80
-29.2836 -74.1416 -54.5551 0.371 -0.428 0.824 84 87 80
-29.2136 -73.7452 -54.3818 0.366 -0.417 0.832 90 93 86
-29.2118 -73.4508 -54.2875 0.312 -0.358 0.880 99 102 95
-29.1826 -73.1173 -54.1620 0.312 -0.358 0.880 107 110 103
-30.2456 -71.7485 -54.4568 -0.000 0.314 0.949 120 123 116
-31.1097 -71.5032 -54.9709 0.264 0.582 0.770 126 128 123
-30.9926 -68.5095 -53.9438 0.751 -0.471 0.463 121 124 117
-30.6371 -67.2177 -53.2918 -0.133 0.391 0.911 115 117 106
-30.6741 -66.7179 -53.1590 -0.054 -0.165 0.985 82 84 73
-30.6694 -66.4395 -53.0678 -0.025 -0.251 0.968 87 89 78
-30.6253 -66.1119 -52.9339 0.056 -0.406 0.912 88 90 79
-32.4928 -66.8021 -54.4309 0.069 -0.355 0.932 71 73 62
-32.5488 -66.0436 -54.2293 0.078 -0.239 0.968 70 72 59
-32.8209 -65.8238 -54.3461 -0.112 0.656 0.746 68 70 57
-34.6713 -65.2451 -55.4299 0.213 0.229 0.950 37 49 27
-34.7519 -49.8391 -50.6122 0.969 -0.243 -0.032 46 45 43
-34.7190 -49.5787 -50.5073 0.989 -0.102 -0.106 52 50 51
-34.6207 -49.2646 -50.3407 0.991 0.082 0.109 57 55 56
-34.6645 -49.0700 -50.3091 0.995 0.081 0.053 62 60 61
-34.8197 -48.9676 -50.3830 0.972 0.209 -0.104 71 69 70
-33.0051 -47.2478 -48.5966 0.923 0.146 -0.355 80 78 79
-33.0155 -47.0345 -48.5362 0.822 0.404 -0.400 80 78 79
-33.0483 -46.8399 -48.4971 0.827 0.394 -0.400 81 79 80
-32.9381 -46.3105 -48.2542 0.874 -0.380 0.301 91 87 88
-32.9196 -45.8581 -48.0985 0.783 -0.491 0.381 103 96 98
-32.8586 -45.5922 -47.9726 0.785 -0.479 0.393 111 103 105
-32.8172 -45.3427 -47.8654 0.768 -0.418 0.485 109 100 103
-32.3362 -44.7510 -47.3489 0.989 -0.078 -0.122 106 97 100
-33.9826 -43.2101 -47.9887 0.929 -0.322 0.185 108 98 97
-33.8149 -42.8760 -47.7682 0.715 -0.217 0.665 108 98 97
-33.9322 -42.7478 -47.8080 0.693 -0.192 0.694 107 98 96
-33.9315 -41.6924 -47.4737 0.655 -0.425 0.625 111 102 101
-33.9832 -41.5188 -47.4542 0.634 -0.319 0.705 111 102 99
-33.9811 -41.3083 -47.3861 0.677 -0.227 0.700 111 102 99
-33.9624 -41.0871 -47.3034 0.744 -0.107 0.660 110 101 99
-33.9176 -40.8488 -47.1973 0.676 0.099 0.730 111 102 100
-33.9686 -40.6761 -47.1776 0.655 -0.067 0.753 84 75 73
-33.9789 -40.4761 -47.1214 0.698 -0.210 0.685 69 59 57
-34.0106 -40.2909 -47.0846 0.858 -0.285 0.428 56 47 45
-33.9791 -40.0642 -46.9913 0.706 -0.206 0.677 44 37 33
-34.0057 -39.6715 -46.8853 0.737 -0.200 0.645 37 31 26
-33.9244 -39.4144 -46.7483 0.938 -0.112 0.328 38 31 26
-33.9395 -39.2206 -46.6973 0.940 -0.096 0.327 36 31 25
-34.2186 -38.3849 -46.6241 0.735 -0.229 0.638 44 40 35
-36.3681 -36.8320 -47.6046 0.938 -0.198 0.285 65 62 57
-36.5042 -36.7060 -47.6580 0.991 -0.012 0.136 65 61 58
-36.8292 -36.6856 -47.8740 0.882 0.409 -0.235 64 60 57
-36.9044 -36.5238 -47.8743 0.882 0.409 -0.235 70 66 63
-36.9796 -36.3619 -47.8746 0.882 0.409 -0.235 71 67 64
-37.0306 -36.1867 -47.8541 0.879 0.374 -0.296 71 67 64
-36.5241 -35.3064 -47.2289 0.545 -0.337 0.768 84 80 77
-37.7077 -35.1306 -47.9837 -0.239 0.638 0.732 86 88 79
-38.3988 -35.0835 -48.4420 -0.328 0.189 0.926 85 88 81
-41.4654 -35.1706 -50.5692 -0.070 0.325 0.943 46 53 37
-41.6407 -35.0443 -50.6492 -0.073 0.323 0.944 46 53 35
-40.6186 -34.1320 -49.6608 0.885 -0.248 0.394 51 58 40
-41.2997 -34.2489 -50.1642 0.537 -0.561 0.630 62 69 53
-41.3939 -34.0845 -50.1767 -0.135 0.162 0.977 75 79 64
-41.3893 -33.8736 -50.1068 -0.132 0.164 0.978 82 86 71
-41.4540 -33.6954 -50.0947 -0.111 0.158 0.981 90 91 86
-41.5795 -33.5453 -50.1332 -0.111 0.158 0.981 96 95 91
-41.6175 -33.3548 -50.0989 -0.106 0.148 0.983 103 102 98
-41.7628 -33.2132 -50.1536 0.094 0.414 0.906 107 106 102
-41.8979 -33.0664 -50.1997 0.567 -0.139 0.812 111 110 106
-41.9508 -32.8825 -50.1777 0.945 0.179 0.275 116 115 111
-41.6513 -32.5427 -49.8652 0.243 0.944 0.222 123 122 118
-42.2623 -32.1912 -50.1724 0.584 -0.092 0.807 137 135 138
-42.2558 -31.9820 -50.1017 0.589 -0.115 0.800 152 150 153
-42.2723 -31.7832 -50.0501 0.678 -0.168 0.716 174 172 175
-42.3031 -31.5908 -50.0104 0.589 -0.115 0.800 186 184 187
-42.3268 -31.3956 -49.9649 0.589 -0.115 0.800 137 135 138
-43.0757 -28.0514 -49.4199 0.231 -0.027 0.973 55 47 44
-43.4009 -26.5816 -49.1776 0.312 -0.324 0.893 113 103 101
-43.4138 -26.3896 -49.1257 0.312 -0.012 0.950 109 100 95
-43.5038 -26.2229 -49.1346 0.116 -0.235 0.965 109 100 95
-43.5210 -26.0328 -49.0862 0.116 -0.235 0.965 109 100 95
-43.4736 -25.8226 -48.9873 0.148 -0.252 0.956 109 100 95
-43.1800 -25.5361 -48.6957 0.504 -0.007 0.864 93 84 79
-43.6260 -25.4810 -48.9836 0.455 -0.053 0.889 91 82 77
-43.7026 -25.1163 -48.9207 0.174 0.667 0.724 88 80 74
-43.9234 -24.9889 -49.0316 0.169 0.676 0.718 70 65 59
-43.9392 -24.7998 -48.9826 0.415 0.455 0.788 75 70 64
-44.1379 -24.6646 -49.0759 0.347 -0.121 0.930 86 82 73
-44.1256 -24.4674 -49.0051 0.704 -0.322 0.633 93 89 80
-44.1194 -24.2724 -48.9391 0.709 -0.234 0.666 92 88 79
-44.2031 -24.1035 -48.9430 0.671 0.046 0.740 89 84 78
-44.3849 -23.9619 -49.0227 0.613 0.517 0.598 86 81 75
-44.1624 -23.5159 -48.7293 -0.009 0.155 0.988 87 79 76
-44.6132 -23.2549 -48.9554 0.636 -0.261 0.726 97 89 87
-44.6677 -23.0776 -48.9366 0.602 -0.248 0.759 103 95 93
-44.7172 -22.8991 -48.9141 0.594 -0.254 0.763 112 104 102
-44.6416 -22.6884 -48.7957 0.614 -0.254 0.747 114 106 104
-44.6344 -22.4960 -48.7299 0.609 -0.245 0.755 114 106 104
-46.8752 -17.3415 -48.6337 0.242 -0.291 0.926 110 105 102
-47.2850 -17.2232 -48.8769 0.914 -0.119 0.387 115 107 105
-47.2269 -17.0286 -48.7756 0.926 0.088 0.366 104 96 94
-47.1084 -16.6415 -48.5719 0.919 0.100 0.381 80 76 71
-47.2023 -16.4719 -48.5827 0.927 -0.078 0.366 82 79 74
-47.5961 -16.3463 -48.8126 0.143 0.500 0.854 83 80 75
-47.7875 -16.1897 -48.8941 0.150 0.500 0.853 81 80 75
-47.7281 -15.9969 -48.7924 0.166 0.380 0.910 81 80 75
-47.9948 -15.8500 -48.9285 0.003 -0.174 0.985 84 83 79
-46.6804 -14.4135 -47.5742 0.161 0.659 0.735 105 96 96
-46.2700 -8.7299 -45.4955 0.364 -0.001 0.931 31 30 26
-46.3348 -8.4021 -45.4362 0.458 0.076 0.886 31 30 26
-46.3640 -8.2384 -45.4044 0.470 0.101 0.877 30 29 25
-48.5170 -4.7892 -45.7876 -0.280 0.030 0.959 85 90 78
-48.6660 -4.6211 -45.8364 -0.280 0.030 0.959 81 88 66
-48.1943 -4.4769 -45.4678 -0.145 0.125 0.981 81 89 59
-48.0661 -4.3211 -45.3307 -0.115 0.087 0.990 80 90 58
-47.6828 -4.1775 -45.0229 0.943 -0.121 -0.310 80 90 58
-47.8250 -4.0117 -45.0678 0.938 -0.209 -0.275 85 95 61
-47.8956 -3.3724 -44.9139 0.900 -0.283 -0.332 69 82 50
-47.3671 -2.9326 -44.4130 0.974 0.181 -0.134 70 86 52
-53.3229 7.4236 -45.2151 0.210 0.965 0.159 59 84 45
-54.7347 8.0258 -45.9912 -0.061 0.807 0.587 60 85 46
-54.9673 8.2296 -46.0860 -0.004 0.834 0.551 55 80 41
-54.8800 8.5186 -45.9349 -0.104 0.757 0.645 48 72 33
-25.0416 -89.6722 -56.8185 0.897 -0.375 0.233 130 137 130
-24.8089 -88.8650 -56.4019 0.903 -0.367 0.224 130 137 129
-24.9944 -88.8976 -56.5399 0.747 -0.267 0.609 124 131 123
-25.0400 -88.6505 -56.4928 0.532 -0.177 0.828 126 133 125
-25.0546 -88.3422 -56.4049 0.137 0.520 0.843 134 141 133
-24.9801 -87.8593 -56.2002 0.064 0.530 0.845 133 140 132
-25.1577 -87.8738 -56.3271 0.063 0.506 0.860 129 136 128
-28.2410 -80.8053 -56.2035 0.539 -0.304 0.785 90 92 79
-28.3799 -75.2315 -54.5284 0.542 -0.476 0.692 102 105 98
-28.6927 -75.1175 -54.7075 -0.219 0.457 0.862 99 102 95
-28.8143 -74.7106 -54.6619 -0.150 0.572 0.806 82 85 78
-29.0952 -74.5426 -54.8018 0.389 0.122 0.913 91 94 87
-29.2044 -74.4107 -54.8351 0.387 0.096 0.917 98 101 94
-29.1103 -73.9768 -54.6325 0.461 -0.508 0.727 99 102 95
-28.9619 -73.4649 -54.3677 0.315 -0.360 0.878 103 106 99
-28.9833 -73.2055 -54.3000 0.306 -0.345 0.887 109 112 105
-28.9579 -72.8782 -54.1786 0.156 -0.231 0.960 114 117 110
-29.1956 -71.2121 -53.8129 -0.203 0.500 0.842 87 90 83
-29.9336 -71.6830 -54.4703 0.265 0.440 0.858 88 91 84
-30.1011 -71.6308 -54.5691 0.298 0.360 0.884 114 117 110
-30.8099 -71.1754 -54.9122 0.037 0.176 0.984 126 128 123
-30.9115 -71.0270 -54.9349 0.037 0.176 0.984 126 128 123
-30.8203 -68.3596 -54.0248 0.762 -0.448 0.467 120 123 116
-30.7937 -68.0468 -53.9072 0.758 -0.451 0.472 110 112 103
-30.7547 -67.7190 -53.7762 0.230 0.836 0.498 104 106 95
-30.8037 -67.5061 -53.7422 0.712 -0.209 0.670 94 96 85
-30.0249 -60.7245 -51.0521 0.080 -0.446 0.892 43 55 33
-29.6952 -60.0881 -50.6230 0.997 0.015 0.077 39 51 29
-35.0344 -50.3442 -51.2019 0.988 -0.139 -0.068 30 31 24
-34.9980 -50.0783 -51.0924 0.995 -0.085 -0.046 39 40 35
-32.6419 -47.4208 -48.6269 0.897 -0.417 0.149 55 53 54
-33.1286 -46.9327 -48.8067 0.791 0.389 -0.472 66 66 64
-32.8400 -46.4780 -48.4637 0.908 -0.326 0.262 70 70 68
-32.8418 -46.2599 -48.3957 0.885 -0.386 0.260 78 77 75
-32.8497 -46.0470 -48.3335 0.778 -0.496 0.387 88 84 83
-32.8191 -45.8042 -48.2353 0.783 -0.491 0.381 100 96 95
-32.7479 -45.5301 -48.0992 0.787 -0.477 0.391 110 106 105
-32.3612 -44.7949 -47.5995 0.989 -0.088 -0.117 110 104 106
-32.2302 -44.2662 -47.3414 0.974 -0.196 -0.113 111 105 105
-32.1615 -44.0011 -47.2099 0.974 -0.196 -0.113 109 103 103
-32.3132 -43.6938 -47.2167 0.942 -0.128 0.309 103 95 93
-32.9126 -43.2974 -47.5033 0.777 0.136 0.614 101 93 91
-33.0934 -43.0078 -47.5357 0.812 0.099 0.576 103 93 92
-33.1355 -42.8273 -47.5073 0.812 0.099 0.576 105 95 94
-33.2416 -42.6935 -47.5378 0.812 0.098 0.575 107 97 96
-33.5778 -42.0921 -47.5782 0.425 0.331 0.842 112 100 100
-33.8406 -41.2286 -47.4847 0.744 -0.145 0.652 113 102 99
-33.7600 -40.7580 -47.2797 0.741 0.168 0.650 113 102 98
-33.8374 -40.6034 -47.2839 0.763 -0.088 0.640 106 93 90
-33.9081 -40.4440 -47.2819 0.825 -0.219 0.521 101 87 84
-33.9236 -40.2480 -47.2303 0.858 -0.285 0.428 90 79 75
-33.8853 -40.0167 -47.1305 0.706 -0.226 0.672 83 72 66
-33.9036 -39.8235 -47.0817 0.708 -0.222 0.671 74 66 59
-33.9025 -39.6180 -47.0157 0.774 -0.174 0.609 65 56 49
-33.8771 -39.3972 -46.9281 0.940 -0.096 0.327 50 43 35
-33.8796 -39.1952 -46.8656 0.972 -0.017 0.232 36 31 22
-33.8895 -38.9984 -46.8099 0.972 -0.017 0.232 32 28 18
-34.0677 -38.3022 -46.7114 0.741 -0.249 0.624 50 47 38
-34.0588 -38.0954 -46.6395 0.741 -0.249 0.624 47 47 38
-33.9830 -37.8479 -46.5088 0.772 -0.363 0.522 47 46 41
-33.9462 -37.6254 -46.4128 0.772 -0.369 0.517 47 46 41
-33.9477 -37.4270 -46.3508 0.771 -0.366 0.521 47 46 41
-35.4555 -36.7207 -47.1640 0.944 0.313 -0.104 55 52 47
-36.5890 -36.5573 -47.8921 0.831 0.495 -0.253 60 56 53
-36.7358 -36.4361 -47.9546 0.852 0.460 -0.250 68 64 61
-37.4602 -35.0046 -47.9984 -0.238 0.636 0.734 80 82 73
-39.1658 -34.0447 -48.8672 1.000 -0.011 -0.022 47 54 36
-40.8156 -34.6436 -50.1928 0.169 0.618 0.768 46 53 35
-41.1695 -34.1865 -50.2910 0.516 -0.564 0.645 57 64 46
-41.0887 -33.9397 -50.1570 0.516 -0.566 0.643 64 68 53
-41.1110 -33.3277 -49.9780 -0.102 0.144 0.984 90 89 85
-41.2312 -33.1761 -50.0126 -0.102 0.144 0.984 96 95 91
-41.3715 -33.0333 -50.0637 -0.100 0.142 0.985 102 101 97
-41.4474 -32.8610 -50.0612 -0.069 0.263 0.962 111 110 106
-41.8871 -32.2306 -50.1636 0.475 0.875 0.095 142 140 142
-42.1050 -32.1189 -50.2780 0.584 -0.092 0.807 134 132 135
-42.1220 -31.9201 -50.2266 0.708 -0.066 0.703 142 140 143
-42.1477 -31.7254 -50.1824 0.708 -0.066 0.703 163 161 164
-42.1460 -31.5193 -50.1157 0.589 -0.115 0.800 206 204 207
-42.1697 -31.3244 -50.0702 0.589 -0.115 0.800 188 186 189
-41.5937 -28.8837 -48.8985 -0.204 0.776 0.597 123 115 113
-42.5430 -28.6443 -49.4757 0.048 -0.197 0.979 122 114 111
-42.5022 -28.4303 -49.3796 0.040 -0.159 0.986 86 78 75
-42.6202 -28.2747 -49.4114 0.057 -0.189 0.980 78 70 67
-42.6516 -28.0876 -49.3735 0.057 -0.189 0.980 67 59 56
-42.7881 -27.9381 -49.4200 0.355 -0.069 0.932 59 51 48
-42.8313 -27.7554 -49.3917 0.360 -0.082 0.929 85 75 73
-42.7510 -27.5296 -49.2647 0.003 -0.161 0.987 95 85 83
-42.8312 -26.9672 -49.1412 -0.017 -0.163 0.986 126 116 114
-43.0067 -26.8302 -49.2185 0.331 0.148 0.932 126 116 114
-43.0480 -26.6480 -49.1891 0.318 -0.204 0.926 126 116 114
-43.1723 -26.4932 -49.2254 0.312 -0.324 0.893 125 115 113
-43.1360 -26.2857 -49.1345 0.330 -0.181 0.927 122 113 108
-43.2819 -26.1376 -49.1879 0.150 -0.192 0.970 122 113 108
-43.3084 -25.9510 -49.1468 0.150 -0.192 0.970 122 113 108
-43.2490 -25.7374 -49.0381 0.193 -0.185 0.964 122 113 108
-43.2319 -25.5379 -48.9630 0.194 -0.162 0.967 101 92 87
-43.2817 -24.9734 -48.8179 0.132 -0.250 0.959 80 72 67
-43.5929 -24.6812 -48.9392 0.169 0.669 0.724 71 67 58
-43.7545 -24.5360 -49.0043 0.143 0.552 0.822 87 83 74
-43.9753 -24.4073 -49.1154 0.699 -0.321 0.639 100 96 87
-44.0258 -24.2289 -49.0935 0.721 -0.004 0.693 136 132 123
-44.1695 -24.0769 -49.1441 0.613 0.517 0.598 123 119 110
-44.2810 -23.9155 -49.1695 0.613 0.517 0.598 93 88 82
-44.5408 -23.2171 -49.1264 0.632 -0.268 0.727 91 83 81
-44.4159 -22.9923 -48.9691 0.610 -0.248 0.753 96 88 86
-44.4144 -22.8010 -48.9073 0.610 -0.248 0.753 106 98 96
-44.4128 -22.6101 -48.8456 0.610 -0.248 0.753 108 100 98
-44.4790 -22.4370 -48.8361 0.609 -0.245 0.755 109 101 99
-46.3091 -17.4048 -48.4969 0.462 0.534 0.708 111 103 101
-46.3786 -17.2327 -48.4901 0.433 0.539 0.722 111 103 101
-46.4458 -17.0603 -48.4815 0.204 0.686 0.698 107 99 97
-46.7681 -16.9282 -48.6614 0.060 0.756 0.651 102 94 92
-47.0810 -16.7931 -48.8338 0.106 0.729 0.677 94 86 84
-47.4718 -16.2992 -48.9458 -0.060 0.029 0.998 88 84 82
-47.5932 -16.1325 -48.9765 -0.062 0.029 0.998 87 83 82
-47.6978 -15.9632 -48.9946 -0.076 -0.028 0.997 88 84 82
-47.5734 -15.7621 -48.8451 -0.097 0.019 0.995 87 83 82
-46.6755 -14.5605 -47.8456 0.204 0.051 0.978 104 95 98
-46.5749 -14.3704 -47.7159 0.139 0.706 0.695 103 94 97
-46.9722 -14.2384 -47.9474 0.123 0.745 0.656 111 102 104
-45.8384 -9.1749 -45.5587 0.161 -0.053 0.985 30 29 25
-45.9314 -9.0131 -45.5713 0.241 -0.233 0.942 30 29 25
-46.1364 -8.6895 -45.6095 0.476 0.086 0.875 30 29 25
-46.1916 -8.5262 -45.5956 0.476 0.086 0.875 30 29 25
-46.1812 -8.3616 -45.5362 0.450 0.084 0.889 31 30 26
-46.2136 -8.1981 -45.5066 0.456 0.086 0.886 32 31 27
-47.6604 -4.4559 -45.3134 -0.119 0.077 0.990 87 90 73
-47.6671 -4.1359 -45.2164 -0.002 -0.173 0.985 96 100 84
-47.4801 -3.9854 -45.0399 0.966 -0.133 -0.221 97 101 85
-47.4964 -3.8260 -45.0005 0.961 -0.145 -0.234 98 103 86
-47.5092 -3.5090 -44.9086 0.964 -0.135 -0.227 83 91 71
-47.5244 -3.3505 -44.8687 0.963 -0.130 -0.238 66 75 55
-47.4559 -3.1971 -44.7729 0.937 -0.204 -0.283 72 82 61
-47.2181 -2.8989 -44.5145 0.977 -0.175 -0.118 66 79 55
-47.2022 -2.7443 -44.4544 0.976 -0.183 -0.115 63 76 52
-54.1669 7.9627 -45.8459 -0.061 0.807 0.587 61 86 47
-54.5608 8.2003 -46.0415 0.002 0.831 0.556 56 81 42
-24.7762 -89.2825 -56.7668 0.775 -0.338 0.534 145 152 144
-24.7900 -88.6320 -56.5688 0.743 -0.285 0.606 139 146 138
-24.9265 -88.2293 -56.5347 0.144 0.514 0.845 135 142 134
-24.9863 -88.0115 -56.5066 0.135 0.518 0.844 133 140 132
-27.4740 -80.8844 -55.9534 0.598 0.777 0.199 107 109 96
-27.6623 -80.8893 -56.0852 0.564 0.812 0.147 107 109 96
-27.7934 -80.7964 -56.1463 0.591 0.790 0.160 107 109 96
-27.8036 -80.4998 -56.0586 0.577 0.754 0.315 108 110 97
-27.6913 -79.9997 -55.8214 0.682 -0.328 0.654 108 110 97
-28.0690 -74.8501 -54.4398 0.433 -0.467 0.771 100 103 96
-28.1479 -74.6766 -54.4390 -0.181 0.019 0.983 98 101 94
-28.0891 -74.2931 -54.2760 -0.130 0.504 0.854 93 96 89
-28.7470 -74.1146 -54.6741 -0.041 0.492 0.870 96 99 92
-28.8564 -73.9849 -54.7084 0.425 -0.267 0.865 108 111 104
-28.7006 -73.1698 -54.3406 0.315 -0.360 0.878 118 121 114
-28.7250 -72.9158 -54.2764 0.306 -0.345 0.887 117 120 113
-28.7069 -72.6000 -54.1631 0.181 -0.204 0.962 115 118 111
-29.4990 -72.0161 -54.5247 -0.182 0.605 0.775 83 85 80
-29.7742 -71.5437 -54.5644 0.254 0.360 0.898 77 80 73
-29.8963 -71.4283 -54.6120 0.233 0.370 0.900 103 106 99
-30.4451 -71.0439 -54.8689 -0.038 0.583 0.811 122 124 119
-30.6031 -70.9743 -54.9560 0.037 0.176 0.984 126 128 123
-30.7043 -70.8261 -54.9786 0.037 0.176 0.984 126 128 123
-30.6852 -67.9802 -54.0575 0.753 -0.445 0.484 102 104 93
-30.6867 -67.7050 -53.9708 0.703 -0.216 0.677 87 89 76
-30.6868 -67.4288 -53.8827 0.703 -0.216 0.677 72 74 61
-29.5331 -64.3367 -52.0983 -0.145 0.291 0.946 55 57 46
-29.6767 -60.1250 -50.8540 0.997 0.015 0.077 37 49 27
-35.1473 -50.7092 -51.6337 0.894 0.447 0.011 29 33 20
-35.1217 -50.4506 -51.5335 0.922 0.380 0.077 29 32 23
-34.8216 -49.4937 -51.0206 0.949 0.300 -0.096 43 43 41
-32.5015 -47.3332 -48.7267 0.933 -0.353 0.069 48 48 46
-32.7816 -46.4579 -48.6412 0.908 -0.326 0.262 77 77 75
-32.8070 -46.2585 -48.5951 0.880 -0.392 0.269 74 73 71
-32.7470 -45.9912 -48.4684 0.778 -0.496 0.387 78 77 75
