ply
format ascii 1.0
element vertex 532
property float x
property float y
property float z
property float nx
property float ny
property float nz
property uchar diffuse_red
property uchar diffuse_green
property uchar diffuse_blue
end_header
116.4561 454.4585 58.2010 0.616 -0.703 -0.355 117 120 163
126.8533 466.4752 59.0096 0.930 -0.063 -0.363 103 111 150
127.3438 523.4450 67.2325 0.968 -0.095 -0.234 87 92 134
132.5600 506.7061 64.4050 0.969 -0.214 -0.121 82 87 127
133.3142 507.4615 64.4952 0.838 -0.546 0.006 78 83 123
130.5533 512.2427 64.5555 0.180 -0.959 -0.221 56 63 102
99.7674 302.8922 30.6004 0.315 -0.169 0.934 156 158 194
100.3590 306.1653 31.0531 0.333 -0.173 0.927 156 159 194
120.0666 478.4657 55.2299 0.122 -0.803 -0.583 159 161 199
128.0420 441.1306 33.4609 0.781 -0.409 -0.472 190 194 231
129.6851 445.3159 33.8612 0.779 -0.416 -0.469 183 189 223
126.6539 427.4192 30.8211 0.853 -0.170 0.494 134 138 175
99.0070 503.4063 37.1364 0.411 -0.128 0.903 152 158 174
98.2545 499.2344 35.9263 0.211 -0.959 0.187 133 139 155
125.5742 409.9483 22.9319 0.725 -0.192 0.661 112 115 146
118.5797 401.1312 -1.0691 0.443 -0.839 -0.317 67 59 74
128.9839 407.1932 -1.8273 0.293 -0.065 0.954 65 56 77
29.7945 474.5052 -8.3065 0.713 0.089 0.696 36 34 45
62.6829 218.9564 -7.4411 0.317 -0.541 0.779 43 33 42
112.1409 285.5629 -6.6880 0.109 -0.052 0.993 65 63 64
111.8737 285.6438 -7.1243 0.685 -0.156 -0.712 63 62 60
37.6230 419.2791 -16.8167 0.796 -0.386 0.466 44 43 48
111.6939 275.4463 -7.6277 -0.283 -0.368 0.886 73 72 67
93.6764 299.6931 -10.6277 0.116 -0.897 -0.427 65 51 67
17.5876 490.7588 -24.2524 0.574 -0.242 0.782 75 72 64
102.0086 368.1242 -13.2206 -0.229 -0.646 0.728 62 57 61
25.7513 440.8412 -23.3525 0.980 -0.166 0.108 80 77 69
35.4615 407.2385 -21.1432 0.892 0.027 0.452 81 76 73
101.0548 366.2763 -14.4152 0.872 -0.067 0.485 82 82 83
106.4448 390.2541 -17.0009 -0.215 -0.956 -0.199 76 74 75
97.4162 334.3407 -15.9762 0.632 -0.764 0.132 81 78 72
118.3144 365.6956 -17.1578 0.460 -0.459 -0.760 79 77 78
119.0435 325.3013 -14.7263 -0.146 -0.529 0.836 96 97 91
95.5321 492.0877 -27.3473 -0.125 -0.943 -0.307 77 80 71
124.7791 417.3278 -20.3332 0.187 -0.485 -0.855 84 82 83
73.1071 357.7376 -21.6936 0.160 -0.661 -0.734 27 29 26
74.4663 387.8812 -24.8375 0.987 -0.000 -0.161 76 84 70
42.3182 375.5869 -27.5361 0.383 0.016 0.924 96 90 113
42.5846 378.3919 -27.7065 0.809 -0.097 0.580 102 98 118
50.4339 430.6363 -30.6220 0.615 0.090 0.784 20 17 24
71.8616 379.5921 -25.1794 0.331 -0.442 -0.834 62 64 59
74.2521 379.0537 -24.9290 0.961 -0.015 -0.275 65 71 60
112.6110 282.1651 -14.8044 0.977 -0.132 0.166 109 110 104
36.8022 361.4159 -27.7199 0.736 -0.482 0.475 84 69 92
43.2112 384.1275 -28.7604 0.840 -0.061 0.538 62 63 67
98.9181 310.5010 -18.4780 0.612 -0.660 -0.435 95 94 90
53.0843 397.6984 -29.5667 0.642 0.101 0.760 26 26 29
54.4201 390.6809 -28.9293 0.631 0.100 0.769 28 25 32
55.3564 387.6353 -28.6200 0.459 -0.790 0.406 30 24 34
101.8960 272.0717 -15.8764 0.680 -0.140 -0.720 57 54 61
40.9049 337.3376 -26.8680 0.648 -0.600 -0.469 82 70 92
54.8799 355.8174 -26.9682 0.539 -0.162 0.827 51 50 50
69.4456 362.0301 -26.0872 0.523 -0.109 0.845 25 27 27
71.1408 362.1774 -25.9412 0.195 -0.916 -0.351 54 59 52
71.8405 359.2129 -25.6524 0.276 -0.895 -0.351 63 68 62
58.8096 335.2861 -26.2401 0.673 -0.599 0.433 36 38 35
120.0735 333.4912 -20.2724 0.619 -0.692 -0.372 83 84 70
43.2879 354.1872 -29.8760 0.626 -0.227 0.746 74 75 64
39.0331 336.4227 -30.0731 0.816 -0.540 -0.207 87 93 84
54.4946 410.0238 -34.8862 -0.154 -0.619 0.771 42 41 48
71.7346 265.7173 -20.7586 -0.376 -0.914 0.154 32 31 26
37.2678 337.0873 -31.5557 0.038 -0.907 -0.420 76 67 75
69.9309 353.8759 -30.3964 0.554 -0.811 -0.187 61 60 56
107.9826 359.3519 -27.0135 0.534 -0.293 -0.793 64 72 48
111.4127 376.6557 -28.2634 0.027 -0.677 -0.736 81 86 62
34.3254 350.8474 -34.4155 0.866 0.135 0.481 104 93 104
79.1459 280.7631 -23.1494 0.783 -0.188 -0.593 52 62 53
35.9276 335.6778 -33.4408 0.859 0.083 0.506 61 48 57
35.2521 360.4737 -35.9104 0.234 -0.972 0.004 75 83 70
38.3365 346.3969 -34.8727 0.130 -0.239 0.962 75 83 70
95.3421 336.0843 -27.8219 0.232 -0.809 -0.539 84 90 76
106.0931 350.4078 -28.1008 0.750 -0.087 0.655 85 91 79
110.2144 365.5019 -29.1574 0.452 0.001 0.892 60 66 55
36.5708 336.1343 -34.6723 0.643 -0.066 0.763 94 85 96
73.4850 225.6058 -19.5572 0.385 -0.917 0.108 64 72 51
81.4508 329.2779 -29.1778 0.664 -0.606 -0.438 68 73 66
90.7225 363.7693 -31.6700 -0.607 -0.785 0.122 83 91 76
82.8710 343.1357 -31.0134 0.888 -0.116 -0.445 83 84 78
85.8283 319.2635 -28.2309 0.421 -0.880 -0.220 77 77 72
115.3619 329.0952 -26.0498 -0.236 -0.968 -0.080 89 92 83
75.2358 315.1692 -29.4921 0.760 -0.123 -0.638 79 83 69
81.8964 345.6996 -31.9782 0.795 -0.498 -0.345 82 83 77
85.4894 347.6180 -31.7871 -0.399 -0.819 0.412 79 80 74
86.3530 318.6267 -28.6400 0.422 -0.865 -0.271 77 78 72
124.6085 359.9461 -28.8059 0.781 -0.596 0.184 86 90 76
124.5141 355.9474 -28.3952 0.665 -0.563 0.491 84 88 74
38.6196 332.3797 -35.9286 0.602 0.032 0.798 91 90 94
76.6335 332.7704 -31.7666 -0.233 -0.896 0.378 75 78 67
80.2841 353.7860 -33.6207 0.860 -0.226 -0.457 85 88 81
81.9664 346.2448 -32.6244 0.820 -0.548 -0.169 86 87 81
82.4934 345.1438 -32.4479 0.939 -0.265 -0.220 85 86 80
86.4209 318.4205 -29.1425 0.444 -0.850 -0.285 77 78 72
37.8269 333.8930 -36.8025 0.393 -0.540 0.744 91 91 91
38.3301 334.3900 -36.8007 0.381 -0.554 0.740 92 92 92
73.4342 253.9243 -24.0590 0.181 -0.866 0.467 77 86 67
82.0207 348.2944 -33.4400 0.488 -0.744 0.456 85 86 80
82.5438 348.0523 -33.3550 0.498 -0.744 0.446 80 81 75
86.4936 319.0248 -29.7327 0.286 -0.862 -0.419 89 90 84
116.9722 337.1728 -28.3140 0.598 -0.090 0.797 81 84 75
117.7863 336.7995 -28.1821 -0.264 -0.536 0.802 93 96 85
78.3703 329.3787 -32.3411 -0.454 -0.837 0.306 55 57 52
115.1690 328.4327 -28.0773 0.615 -0.049 0.787 90 93 84
115.5591 328.1966 -28.0069 0.578 -0.106 0.809 88 91 82
38.4170 334.6343 -38.0685 0.056 -0.660 0.749 93 95 83
75.9040 346.1786 -35.1020 0.736 -0.222 -0.639 49 51 38
77.4078 330.8408 -33.1838 0.775 -0.174 -0.608 48 49 42
79.0850 345.4552 -34.6564 0.988 0.007 0.151 49 52 45
84.2341 355.2753 -35.1866 0.941 -0.058 -0.334 86 87 81
106.8873 373.4759 -34.6721 -0.323 -0.935 0.144 96 102 90
108.1338 363.1089 -33.3493 0.845 -0.057 0.532 90 96 86
112.6423 353.9306 -31.7893 0.877 -0.070 0.475 69 74 68
77.4286 332.5960 -33.9561 0.771 -0.186 -0.609 42 45 36
84.3258 349.8609 -35.1632 0.309 0.018 0.951 86 87 81
124.4936 349.6158 -30.4992 0.296 -0.163 0.941 62 64 53
100.2408 321.1644 -30.5205 0.447 -0.834 -0.324 83 88 81
106.9634 352.2619 -33.4114 0.894 -0.062 0.444 87 92 85
110.6223 372.9922 -35.4344 0.713 -0.243 0.658 80 82 81
75.0539 332.3281 -35.3550 0.876 -0.052 -0.480 38 49 29
86.2701 411.5544 -43.5662 0.494 0.095 0.864 82 85 78
107.3965 384.2361 -37.7901 -0.357 -0.934 0.006 83 88 81
78.7365 309.8699 -32.7448 -0.042 -0.796 -0.604 45 52 44
85.1408 324.4724 -34.3211 0.405 0.057 0.912 53 56 49
87.3713 367.9651 -39.4736 0.508 0.090 0.857 74 77 70
109.9784 351.2711 -34.6748 0.817 -0.163 -0.553 59 59 61
124.5362 350.6970 -32.8529 0.382 -0.864 -0.327 68 68 60
71.8379 339.7813 -38.4284 0.341 -0.820 -0.459 80 93 68
71.4015 360.4741 -41.1051 -0.086 -0.557 0.826 76 88 67
72.3230 352.5602 -39.9897 -0.149 -0.585 0.798 73 84 67
83.7022 343.1271 -37.4118 0.820 -0.563 0.099 61 64 55
71.5509 358.9487 -41.5356 -0.059 -0.532 0.845 83 95 74
101.0515 343.7556 -35.9580 0.519 -0.806 -0.283 89 92 85
101.5360 343.9008 -35.9173 0.510 -0.814 -0.277 78 83 76
108.7005 362.7848 -37.4737 0.841 -0.148 -0.521 74 76 74
105.4988 322.2652 -33.1635 0.880 -0.041 0.473 76 76 75
110.1386 355.6831 -36.9704 -0.272 -0.822 0.500 62 60 65
114.0188 313.0474 -30.8995 -0.306 -0.715 0.629 82 80 81
114.0027 309.6541 -30.4566 -0.057 -0.388 0.920 79 77 78
102.4166 326.6098 -34.6507 0.342 -0.848 -0.405 79 83 76
103.8707 341.1807 -36.4109 -0.458 -0.861 0.219 79 83 76
104.3830 335.4431 -35.5821 -0.568 -0.788 0.238 79 82 75
113.8469 314.3279 -31.5841 0.091 -0.326 0.941 90 88 89
113.9164 302.1624 -29.9540 -0.135 -0.397 0.908 77 75 76
80.5162 336.4543 -39.2865 -0.142 -0.795 -0.590 82 92 80
102.2758 344.3542 -37.6083 0.541 -0.827 0.150 77 85 74
102.4518 332.6987 -36.0074 0.077 -0.987 -0.144 77 84 76
102.6916 323.1581 -34.6848 0.102 -0.903 -0.418 77 84 74
103.0791 322.4948 -34.5460 0.106 -0.903 -0.417 77 84 73
102.3620 344.4690 -38.1886 0.427 -0.902 0.067 81 92 78
101.8482 329.2271 -36.1566 0.156 -0.958 -0.241 84 96 82
102.5282 307.1768 -33.5304 -0.063 -0.998 -0.011 86 99 83
102.7704 305.0062 -33.1958 0.607 -0.143 0.781 83 96 80
101.9596 343.1134 -39.2013 0.003 -0.898 -0.441 80 95 76
106.9009 310.2466 -33.8934 0.940 -0.205 -0.274 77 89 75
107.9011 308.0887 -33.4571 0.769 -0.327 0.549 70 84 69
104.9320 273.0053 -29.2812 0.477 0.049 0.878 76 88 74
112.3427 309.4314 -35.5195 0.010 -0.756 0.654 83 84 79
48.5317 255.8507 -41.4664 0.628 -0.113 0.770 78 83 63
50.5253 236.7354 -39.8072 0.162 -0.466 -0.870 53 53 39
50.0359 239.5145 -41.2559 0.150 -0.508 -0.848 67 68 56
50.0384 239.7035 -41.7149 0.112 -0.683 -0.722 67 67 56
50.4659 239.5590 -41.6177 0.037 -0.691 -0.722 72 74 60
52.5157 234.8520 -43.6446 0.618 0.196 0.762 73 83 57
74.0002 232.1643 -39.7769 0.187 -0.130 0.974 65 77 55
52.7912 230.0241 -43.3628 0.557 0.096 0.825 62 72 45
53.0137 230.7977 -43.4939 0.550 0.093 0.830 67 77 50
52.8781 227.9292 -43.2853 0.555 0.090 0.827 69 77 55
53.4788 230.5474 -43.7605 0.557 0.087 0.826 74 83 56
55.7035 227.4722 -44.2640 0.301 -0.913 0.276 78 88 63
56.1447 227.0544 -44.0884 0.340 -0.882 0.326 79 89 64
55.9866 224.2159 -43.8488 0.042 -0.887 0.460 73 86 60
72.4132 228.7646 -43.4439 0.962 0.091 0.259 75 87 63
71.8717 232.4635 -45.2133 0.983 0.073 0.170 79 91 67
59.3769 213.1572 -43.8914 -0.155 -0.560 0.814 68 76 52
59.1622 212.7077 -44.1787 -0.143 -0.548 0.824 73 81 57
59.5289 212.5056 -44.0561 -0.135 -0.555 0.821 74 82 58
59.5488 212.5971 -44.4351 -0.134 -0.530 0.837 78 86 62
57.0653 204.2110 -44.1347 0.326 -0.100 0.940 71 80 52
67.3113 214.3219 -45.8508 0.061 -0.606 0.793 79 93 68
68.9137 214.0643 -45.4536 -0.001 -0.687 0.726 77 93 67
68.6219 214.2202 -45.9100 -0.144 -0.934 0.327 76 92 65
72.9131 207.6816 -45.9054 -0.494 -0.727 0.477 75 94 64
73.3110 206.8802 -45.9178 -0.489 -0.727 0.483 73 89 60
74.1760 203.3318 -44.6766 0.519 -0.675 0.525 74 91 59
74.4486 203.4402 -44.6497 0.518 -0.675 0.526 74 91 59
74.6402 204.6056 -44.9542 0.623 -0.223 0.749 76 93 61
74.8671 205.3532 -45.1270 0.549 -0.286 0.785 80 97 65
73.3751 206.5659 -46.1443 -0.460 -0.734 0.499 67 83 54
74.0533 201.8479 -44.5845 -0.413 -0.848 0.332 68 85 53
74.3040 202.1959 -44.6340 -0.186 -0.922 0.340 68 85 53
74.3494 202.0837 -44.9129 -0.186 -0.922 0.340 63 80 46
74.6537 201.7545 -44.7468 -0.201 -0.914 0.352 63 80 48
74.1762 201.2337 -45.0155 -0.194 -0.924 0.331 56 73 41
74.6991 201.6383 -45.0230 -0.201 -0.914 0.352 56 73 41
74.2392 200.9049 -45.2220 -0.186 -0.924 0.335 57 74 42
74.6640 199.0443 -44.5580 0.655 0.097 0.750 57 74 42
85.6856 218.1804 -47.9705 0.275 -0.873 -0.402 64 84 47
73.7107 204.3455 -46.7224 -0.472 -0.740 0.479 63 79 50
74.3486 200.0042 -45.2404 -0.237 -0.898 0.370 62 79 47
74.6856 199.2209 -44.9235 0.841 0.036 0.540 63 78 47
74.4363 199.3643 -45.3406 -0.227 -0.921 0.316 68 85 53
74.9527 199.7599 -45.3475 0.379 -0.664 0.644 67 84 52
75.2002 200.1034 -45.3987 0.977 -0.196 0.088 67 84 52
75.4220 200.8133 -45.5696 0.976 -0.201 0.088 62 79 47
75.7257 200.3967 -45.3718 0.979 -0.169 0.116 64 81 49
75.9821 200.6348 -45.3882 0.954 -0.138 0.264 69 86 54
74.0595 204.4702 -47.3424 0.159 -0.726 0.669 70 87 55
74.7584 199.2035 -45.5349 -0.326 -0.940 0.102 70 87 55
75.0304 199.2134 -45.4765 -0.327 -0.940 0.098 70 87 55
75.7620 200.3952 -45.6813 0.979 -0.169 0.116 64 81 49
75.9941 200.9923 -45.8159 0.987 0.026 0.161 67 84 52
75.6446 202.5889 -46.7187 0.449 -0.429 0.784 73 90 58
68.8547 193.5835 -46.0443 0.449 -0.807 -0.385 81 96 75
74.4003 202.0609 -47.8091 0.493 -0.241 0.836 85 102 70
69.2053 200.6506 -49.2135 0.675 0.035 0.737 72 85 59
74.9666 196.7188 -47.2052 0.281 -0.129 0.951 74 93 61
86.0221 203.6347 -48.7812 -0.225 -0.414 0.882 69 93 57
86.5292 202.8728 -48.3935 -0.121 -0.361 0.925 69 94 55
87.0311 202.2941 -48.0705 -0.127 -0.376 0.918 70 95 56
87.4941 188.2903 -43.1100 -0.056 -0.681 0.730 71 96 57
85.8017 203.5147 -49.1103 -0.206 -0.408 0.890 71 92 59
86.0588 203.3235 -48.9805 -0.226 -0.411 0.883 67 91 55
87.7470 186.4896 -42.9731 -0.047 -0.998 0.041 61 86 47
87.7812 186.4773 -43.2347 -0.047 -0.998 0.041 57 82 43
62.7185 186.3024 -49.7066 0.713 -0.664 0.226 71 84 58
63.1703 186.8644 -49.7936 0.702 -0.674 0.229 70 83 57
62.9881 186.5084 -50.0205 0.276 -0.888 0.367 75 88 62
63.2193 186.7621 -50.0533 0.255 -0.857 0.447 74 87 61
62.5312 186.1341 -50.3093 -0.205 -0.909 0.364 76 89 63
63.1686 185.7045 -49.9936 0.125 -0.662 0.739 74 87 61
63.3427 186.2577 -50.1490 -0.174 -0.847 0.503 74 87 61
64.1220 185.0053 -49.5010 -0.586 -0.791 0.175 80 93 67
64.4280 184.8187 -49.3565 -0.586 -0.792 0.173 80 93 67
76.5622 184.3834 -46.1367 0.052 -0.487 0.872 79 95 69
88.4951 201.0464 -49.1298 0.402 -0.877 -0.264 56 81 42
63.2154 185.6133 -50.2551 0.106 -0.664 0.740 70 83 57
63.3837 186.1977 -50.4244 0.052 -0.673 0.738 71 84 58
64.2085 184.6896 -49.6680 -0.542 -0.769 0.339 76 89 63
64.5304 184.4093 -49.4847 -0.542 -0.768 0.341 76 89 63
65.1333 184.0511 -49.2017 -0.378 -0.769 0.515 76 89 63
77.1139 183.8741 -46.0974 -0.053 -0.486 0.873 78 94 68
62.0826 185.8703 -50.9445 0.496 -0.785 -0.370 68 81 55
64.2755 184.4822 -49.8782 -0.248 -0.895 0.372 70 83 57
65.2823 183.3602 -49.2117 -0.392 -0.761 0.516 70 83 57
65.8936 181.3399 -48.3180 -0.020 -0.661 0.750 73 86 60
69.2153 185.3128 -48.9214 0.829 0.117 0.548 56 72 46
69.2715 186.8496 -49.4682 0.824 0.121 0.553 61 77 51
77.1663 183.5774 -46.2595 -0.053 -0.486 0.873 78 94 68
77.3868 183.8694 -46.3099 0.217 -0.523 0.824 78 94 68
61.9957 183.6560 -50.4618 0.037 -0.829 -0.558 65 78 52
62.1586 185.6334 -51.1469 0.418 -0.854 -0.309 65 78 52
64.9849 182.1788 -49.1524 -0.548 -0.772 0.322 65 78 52
65.3427 183.1816 -49.4292 -0.392 -0.761 0.516 65 78 52
65.9999 180.8859 -48.4169 -0.046 -0.641 0.766 68 81 55
69.4770 187.5384 -49.9704 0.818 0.102 0.567 58 74 48
76.2531 180.2416 -45.5509 0.124 -0.408 0.905 56 75 47
77.2184 183.2819 -46.4208 -0.053 -0.486 0.873 75 91 65
77.4485 183.4209 -46.4128 0.216 -0.534 0.818 76 92 66
62.2257 184.0327 -50.8460 0.129 -0.900 -0.416 59 72 46
62.1973 185.5863 -51.4280 0.318 -0.908 -0.273 60 73 47
65.5099 182.3819 -49.3887 -0.480 -0.802 0.354 61 74 48
66.0457 180.7869 -48.6606 -0.023 -0.649 0.761 63 76 50
66.7552 181.2186 -48.6374 -0.091 -0.795 0.599 68 81 55
67.0124 181.2347 -48.5770 -0.091 -0.795 0.599 68 81 55
69.2116 185.7974 -49.6980 0.548 -0.090 0.832 58 74 48
69.3363 186.8347 -50.0496 0.682 -0.060 0.729 54 70 44
69.9947 187.8884 -50.2697 0.815 -0.019 0.579 54 70 44
65.8924 180.3273 -48.8212 0.367 -0.336 0.867 59 72 46
66.3174 179.3556 -48.3493 0.523 0.046 0.851 60 73 47
66.8158 181.0260 -48.8421 0.526 0.070 0.847 65 78 52
68.4006 184.3038 -49.6519 0.199 -0.516 0.834 67 79 57
69.1272 184.7206 -49.6188 0.732 -0.225 0.644 65 79 54
69.3166 185.2509 -49.7672 0.718 -0.213 0.663 62 76 51
69.4572 186.1614 -50.0697 0.685 -0.069 0.726 57 73 47
69.6344 186.8184 -50.2684 0.865 0.047 0.500 51 67 41
77.5331 183.1074 -46.8401 0.209 -0.545 0.812 66 82 56
68.7748 183.7270 -49.6359 0.718 -0.196 0.667 71 83 63
69.0275 183.7797 -49.5898 0.748 -0.275 0.604 71 83 61
69.2476 184.0670 -49.6401 0.838 -0.111 0.534 68 82 59
69.4490 184.4986 -49.7494 0.849 -0.201 0.489 65 79 56
69.5933 185.3711 -50.0388 0.773 -0.118 0.623 64 78 55
77.0180 180.7058 -46.3568 -0.203 -0.780 0.592 59 75 49
67.1964 177.4843 -47.9909 0.382 -0.197 0.903 55 68 42
67.5170 180.2354 -48.9445 1.000 0.002 0.025 58 70 48
67.6321 181.1461 -49.2578 0.998 -0.033 -0.053 64 76 54
69.1196 183.3370 -49.6946 0.854 -0.188 0.485 76 88 68
67.3880 178.0316 -48.4316 0.950 0.033 0.311 50 63 37
67.4351 179.3197 -48.9081 0.950 0.039 0.309 51 64 38
67.6147 179.7990 -49.0428 0.997 -0.037 -0.069 57 69 47
67.6404 181.2823 -49.5989 0.997 -0.036 -0.074 70 82 60
67.7892 183.7257 -50.4871 0.887 -0.330 -0.324 79 91 71
68.1553 183.0258 -50.1251 0.710 -0.505 -0.490 82 94 74
68.5180 182.3236 -49.7632 -0.265 -0.598 0.756 82 94 74
68.9140 181.3627 -49.2943 -0.297 -0.610 0.735 82 94 74
69.3133 184.0355 -50.2036 0.949 0.170 0.266 81 93 73
68.6126 181.8796 -49.8622 -0.269 -0.606 0.749 82 94 74
68.9700 181.1796 -49.5003 -0.238 -0.593 0.769 83 95 75
68.9134 183.3916 -50.3601 0.866 0.063 0.496 84 96 76
69.1876 183.2856 -50.2471 0.988 0.073 0.137 84 96 76
61.3275 173.8756 -49.0154 0.455 -0.587 -0.670 67 82 51
61.5389 174.0904 -49.0417 0.459 -0.587 -0.667 67 82 51
61.7052 174.5111 -49.1592 0.439 -0.766 -0.470 65 78 48
68.9916 183.0520 -50.5047 0.861 0.063 0.504 68 80 60
69.2527 183.0351 -50.4288 0.987 0.074 0.141 69 81 61
69.4986 183.1242 -50.3976 0.958 0.161 0.239 70 82 60
69.3489 186.1697 -51.6079 0.976 0.148 0.161 63 77 54
61.2752 174.2216 -49.4467 0.554 -0.729 -0.402 68 83 54
61.4597 174.5611 -49.5287 0.538 -0.736 -0.410 67 82 53
68.2551 183.1682 -51.3384 0.619 -0.192 0.762 67 79 59
69.4047 182.3729 -50.7203 0.977 0.092 0.191 68 80 60
69.7707 181.5665 -50.3082 0.978 0.123 0.169 68 80 60
74.3679 177.9306 -47.6589 -0.041 -0.855 0.517 62 74 54
81.7061 185.6155 -48.9635 -0.360 -0.777 -0.517 58 74 47
97.5675 189.3425 -46.1420 0.586 -0.642 -0.495 63 83 48
97.6401 187.7280 -45.7589 0.526 -0.640 -0.561 59 79 44
74.1684 178.4592 -48.7522 0.280 -0.934 -0.223 86 99 79
88.9892 184.1226 -46.9570 0.994 -0.039 0.104 63 83 48
74.0819 179.6396 -49.5253 0.607 -0.497 -0.620 57 70 50
73.3853 182.3089 -51.3593 0.197 -0.887 -0.419 58 71 51
74.0661 180.4207 -50.4088 0.156 -0.763 -0.627 56 69 49
74.7121 181.2979 -50.5842 0.519 -0.574 -0.633 54 67 47
80.3410 177.0995 -47.3322 0.301 -0.501 -0.811 70 84 61
81.7822 180.6185 -48.3539 0.850 -0.249 0.464 67 81 56
81.9976 180.9999 -48.4483 0.859 -0.250 0.447 68 82 58
82.2235 180.9935 -48.3832 0.955 -0.094 0.280 70 84 59
70.1307 173.3456 -48.9143 0.205 -0.628 0.751 57 71 48
80.1218 177.7182 -47.9121 -0.083 -0.937 -0.339 65 78 58
80.3795 176.9222 -47.5173 0.260 -0.727 -0.636 67 80 60
80.5994 176.9611 -47.4719 0.260 -0.727 -0.636 65 78 58
81.2184 178.1992 -47.8026 0.266 -0.520 -0.812 53 66 46
81.4471 177.9964 -47.6566 0.289 -0.513 -0.808 49 62 41
81.7908 181.4484 -48.9628 -0.457 -0.860 0.227 57 70 49
80.6126 177.4001 -47.9148 0.261 -0.736 -0.625 59 72 54
80.8087 178.0754 -48.1359 0.090 -0.846 -0.526 55 68 50
81.4485 178.9291 -48.3059 0.081 -0.693 -0.717 49 62 44
81.6535 179.5285 -48.4934 -0.314 -0.927 0.206 51 64 46
100.8057 185.6286 -45.6344 0.014 -0.843 -0.538 62 84 48
101.9313 186.7005 -45.7578 0.266 -0.526 -0.808 62 86 50
69.9610 173.2522 -49.4694 0.060 -0.716 0.696 67 81 58
70.2049 173.2154 -49.3858 0.066 -0.696 0.715 67 81 58
70.4949 172.8444 -49.1520 0.167 -0.644 0.747 65 79 56
80.8433 177.9893 -48.3608 0.271 -0.744 -0.611 51 64 46
81.0322 178.9312 -48.6948 -0.195 -0.970 -0.145 46 59 41
81.2562 178.9363 -48.6340 -0.163 -0.975 -0.150 43 56 38
81.4771 179.0230 -48.6076 0.073 -0.997 -0.001 48 61 43
100.8889 185.9719 -46.0132 -0.008 -0.825 -0.565 57 79 43
100.9459 184.9679 -45.5846 0.018 -0.831 -0.556 58 80 44
101.7181 186.3168 -45.9221 0.236 -0.525 -0.818 60 82 46
101.9199 186.3667 -45.8860 0.261 -0.521 -0.813 60 82 46
101.9316 185.1195 -45.3702 0.191 -0.678 -0.710 62 84 48
80.1788 178.5432 -49.0472 0.278 -0.743 -0.608 59 72 52
80.4073 178.4726 -48.9536 0.270 -0.743 -0.612 53 66 48
80.6565 177.8593 -48.6298 0.057 -0.844 -0.533 51 64 46
81.0826 178.4066 -48.7358 0.070 -0.990 -0.125 43 56 38
81.3086 178.3215 -48.6368 0.881 -0.111 0.460 40 53 35
81.4923 179.5461 -49.0912 0.787 0.092 0.610 46 59 41
82.1484 180.1679 -49.1631 0.886 -0.059 0.460 60 73 55
101.0034 185.1212 -45.8914 0.040 -0.817 -0.575 52 74 38
101.3927 185.1366 -45.7879 0.253 -0.654 -0.713 55 75 40
101.5763 185.0716 -45.7092 0.309 -0.618 -0.723 56 76 41
102.0395 185.6073 -45.8000 0.188 -0.679 -0.710 57 79 43
80.4271 178.7495 -49.3351 0.261 -0.760 -0.595 44 57 37
81.5285 179.4103 -49.2976 0.769 0.103 0.631 40 53 35
101.9265 183.3051 -45.1346 0.051 -0.843 -0.535 55 77 41
78.7348 177.0512 -49.3798 -0.367 -0.678 0.637 54 67 47
80.4454 179.0705 -49.7371 0.261 -0.760 -0.595 44 57 37
84.6492 181.4430 -49.5319 -0.382 -0.906 0.183 65 80 61
85.0926 182.5137 -49.8534 -0.335 -0.936 0.105 65 80 61
81.8380 178.6683 -49.4433 0.791 0.076 0.607 38 51 33
82.2815 178.6934 -49.3269 0.906 0.018 0.422 55 68 50
82.6864 180.5013 -49.9715 0.931 0.011 0.366 68 83 64
84.4700 179.3560 -48.9793 -0.040 -0.978 -0.203 64 79 60
84.9031 182.3313 -50.1069 -0.357 -0.930 0.086 54 69 50
85.1256 182.1679 -49.9745 -0.371 -0.926 0.072 52 67 48
85.3416 180.3603 -49.1523 -0.375 -0.926 0.029 48 63 42
82.9410 180.6047 -50.2167 -0.078 -0.975 -0.206 67 82 63
83.1790 179.7330 -49.7795 -0.209 -0.950 -0.231 66 81 62
84.9365 182.2952 -50.3581 -0.357 -0.930 0.086 52 67 48
87.4955 178.7700 -48.1307 0.599 -0.136 0.789 71 86 63
100.5323 183.4507 -46.3620 0.088 -0.379 0.921 55 77 41
101.2411 185.7828 -47.1448 0.725 -0.533 0.436 52 74 38
82.7168 182.2246 -51.2457 0.982 -0.187 -0.026 70 83 65
82.9589 181.4167 -50.8319 0.299 -0.611 -0.733 68 81 63
83.2045 180.1578 -50.2252 -0.217 -0.939 -0.268 67 81 63
83.4567 178.0329 -49.2481 -0.194 -0.928 -0.318 66 81 62
100.5204 184.5224 -47.0791 0.183 -0.458 0.870 61 83 47
68.7632 174.4782 -52.2607 -0.316 -0.899 0.303 67 81 56
69.0752 174.0354 -51.9806 -0.273 -0.935 0.226 67 81 56
82.6193 177.7381 -49.6332 0.867 0.125 0.483 56 66 49
82.7576 181.8249 -51.3422 0.993 -0.081 0.086 62 72 55
86.8791 176.0419 -47.6705 0.704 -0.047 0.709 61 76 55
69.0762 169.5834 -50.3423 0.619 -0.624 0.477 60 74 49
70.0163 174.4303 -52.1544 -0.291 -0.878 0.380 59 73 47
70.5975 173.7172 -51.6779 0.079 -0.971 0.226 60 74 48
70.8323 173.7489 -51.6231 0.079 -0.971 0.226 66 80 54
76.3533 177.2033 -51.4996 0.142 -0.882 -0.450 58 69 52
82.8140 180.6184 -51.0850 0.995 -0.053 0.086 50 57 41
86.3121 177.9026 -48.8956 -0.236 -0.850 0.471 59 74 53
86.6879 175.0285 -47.5489 0.677 -0.083 0.731 58 73 54
70.2501 174.6899 -52.4766 0.270 -0.873 -0.406 60 74 48
70.5548 174.2330 -52.1895 0.405 -0.787 -0.465 60 74 48
76.6172 177.1882 -51.6921 0.241 -0.847 -0.475 58 69 52
86.1317 177.8107 -49.1731 -0.111 -0.911 0.397 51 64 46
86.3140 175.4795 -48.1105 0.284 -0.338 0.897 52 66 48
86.5107 174.7923 -47.7554 0.181 -0.422 0.888 55 70 51
86.7140 174.6976 -47.6549 0.635 -0.114 0.764 57 71 53
88.1412 174.9371 -47.3402 -0.145 -0.987 -0.063 73 92 63
86.7391 174.3167 -47.7379 0.188 -0.425 0.885 56 67 51
86.5735 174.7869 -48.2482 -0.068 -0.805 0.590 50 61 45
87.8348 176.2340 -48.5086 0.570 -0.564 -0.597 73 86 68
70.5775 172.9483 -52.4499 0.798 -0.206 0.566 65 77 53
87.0066 174.3787 -48.1970 0.247 -0.455 0.856 59 70 54
87.9026 177.5569 -49.3299 0.384 -0.539 -0.750 73 86 68
88.3270 176.8240 -49.1411 0.220 -0.592 -0.776 76 92 67
88.9788 172.5206 -47.0413 0.441 -0.560 -0.701 77 93 67
84.3616 178.5775 -51.3715 -0.457 -0.866 -0.203 58 64 50
87.1009 175.9608 -49.3848 0.760 -0.394 -0.517 58 69 53
88.5406 176.0998 -49.0149 -0.161 -0.837 -0.522 76 92 66
88.7328 175.7790 -48.8144 -0.144 -0.848 -0.510 77 93 67
89.0430 173.3637 -47.6461 0.443 -0.562 -0.699 76 92 66
70.3842 169.9115 -51.9745 0.622 -0.207 0.755 59 67 43
88.7718 175.9719 -49.1464 -0.144 -0.848 -0.510 70 86 60
88.9278 174.7196 -48.5388 -0.089 -0.939 -0.331 72 88 62
89.2906 173.8288 -48.0307 0.758 -0.525 -0.386 73 89 63
86.3444 176.7267 -50.4791 -0.034 -0.682 -0.731 53 64 48
88.8020 175.9149 -49.3697 -0.176 -0.940 0.293 57 73 47
89.1559 174.6237 -48.6813 0.064 -0.998 -0.011 57 73 47
89.3299 174.0109 -48.3528 0.886 -0.457 -0.076 62 78 52
89.5244 173.9340 -48.2593 0.808 -0.515 -0.285 67 83 57
99.7702 177.7863 -46.8916 0.450 -0.875 -0.178 54 78 42
86.3722 176.3979 -50.5853 -0.008 -0.700 -0.715 58 69 53
86.6067 178.0902 -51.2799 0.713 -0.673 -0.196 57 68 52
88.6785 177.2998 -50.2922 -0.272 -0.915 0.297 57 72 49
88.8302 175.8009 -49.5676 -0.168 -0.937 0.306 57 73 47
88.9909 174.7015 -49.0212 -0.028 -0.999 0.034 58 74 48
89.1880 174.6285 -48.9282 0.064 -0.998 -0.011 57 73 47
89.3634 174.0520 -48.6139 0.886 -0.456 -0.087 60 76 50
89.5679 174.2014 -48.6194 0.808 -0.515 -0.285 66 82 56
70.5326 164.8245 -50.4207 0.337 -0.505 0.795 72 80 56
89.5710 173.5480 -48.5742 0.349 -0.937 0.006 67 81 55
70.2631 163.8470 -50.3127 0.351 -0.936 -0.030 83 92 65
84.3409 172.7925 -50.0853 -0.430 -0.622 0.655 52 63 46
97.9689 178.9506 -48.7206 -0.193 -0.895 0.403 56 69 49
97.9135 176.9120 -47.8048 0.181 -0.814 0.553 57 70 50
97.9619 175.7857 -47.2746 0.768 -0.401 0.499 58 71 51
98.2332 176.4977 -47.5172 0.757 -0.404 0.514 58 73 50
98.3463 175.9300 -47.2227 0.338 -0.934 -0.113 60 75 52
76.1899 167.3909 -50.3706 -0.425 -0.891 -0.160 57 64 46
84.1694 172.1603 -50.1047 -0.426 -0.623 0.657 45 56 39
97.9516 178.5147 -48.7791 -0.146 -0.751 0.644 51 64 44
97.9229 176.7092 -47.9573 0.172 -0.823 0.541 51 64 44
75.4998 168.1262 -51.1799 0.298 -0.477 0.827 64 72 51
75.7052 168.2587 -51.1776 0.298 -0.477 0.827 63 70 52
97.8532 178.9969 -49.2854 0.150 -0.605 0.782 47 60 40
97.9284 178.0319 -48.8158 -0.114 -0.697 0.707 47 60 40
98.4700 174.9409 -47.2185 -0.054 -0.711 0.701 59 74 51
84.6377 173.4257 -51.0602 0.694 0.137 0.707 40 51 34
96.9937 177.8265 -49.2630 0.461 0.003 0.887 59 72 52
97.8612 178.7716 -49.4326 0.158 -0.598 0.785 40 53 33
97.9165 177.6453 -48.8917 -0.102 -0.699 0.707 41 54 34
98.3384 175.0700 -47.5630 0.267 -0.489 0.831 54 69 46
98.4718 174.6950 -47.3472 -0.062 -0.713 0.698 58 73 50
84.6700 172.9901 -51.1058 0.695 0.094 0.713 41 52 35
96.9531 177.1537 -49.2142 0.456 -0.007 0.890 59 72 52
97.3784 177.5788 -49.2801 0.730 0.057 0.682 52 65 45
97.9322 177.4916 -49.0663 -0.085 -0.708 0.701 43 56 36
98.3428 174.8413 -47.6990 0.267 -0.489 0.831 47 61 38
98.4746 174.4576 -47.4785 -0.061 -0.712 0.700 51 66 43
98.8601 176.0376 -48.0966 0.718 0.057 0.693 54 69 46
96.9239 176.5879 -49.2091 0.454 -0.009 0.891 59 72 52
97.3091 176.6792 -49.1312 0.730 0.057 0.682 56 69 49
97.9034 176.9680 -49.0804 -0.085 -0.735 0.672 47 60 40
98.0000 176.2319 -48.7041 0.265 -0.721 0.640 46 59 39
98.8108 175.4009 -48.0591 0.706 0.054 0.706 54 69 46
85.3503 172.8457 -51.3402 0.398 -0.055 0.916 52 63 46
97.2410 175.7939 -48.9846 0.730 0.057 0.682 58 71 51
97.7967 175.7997 -48.8121 0.416 -0.419 0.807 53 66 46
97.9325 175.4027 -48.5818 0.350 -0.517 0.781 52 65 45
83.7248 172.7026 -52.0446 0.104 -0.958 0.269 42 50 35
84.9697 170.4188 -50.5657 0.717 0.094 0.690 41 52 35
85.5695 169.9573 -50.1566 0.278 -0.652 -0.705 60 68 53
85.7742 170.6759 -50.4331 0.144 -0.758 -0.637 59 70 53
96.8850 174.0029 -48.4951 0.696 0.038 0.717 60 76 50
97.6269 175.6424 -49.0388 0.332 -0.697 0.636 56 70 47
83.7557 172.6764 -52.2821 0.043 -0.985 0.167 52 60 45
84.1938 169.9519 -50.8420 0.109 -0.967 0.231 46 57 40
84.4109 167.3896 -49.5496 0.648 -0.761 0.014 43 54 37
85.5978 169.6522 -50.2523 0.297 -0.647 -0.702 63 74 57
97.5888 175.0421 -49.0120 0.454 -0.666 0.591 64 82 55
84.4418 167.0671 -49.6307 0.642 -0.767 -0.007 47 58 41
97.5801 174.6896 -49.0921 0.445 -0.672 0.592 64 85 53
84.0440 170.6997 -51.7561 -0.208 -0.910 0.358 56 64 49
84.4709 167.0727 -49.8694 0.638 -0.770 -0.014 51 62 45
85.6670 171.0034 -51.3819 0.711 0.094 0.697 59 72 52
98.8410 175.7388 -49.4395 -0.159 -0.980 -0.117 61 81 53
98.9465 174.9022 -49.2468 -0.130 -0.986 -0.107 62 82 55
99.5583 173.8852 -48.7980 0.910 -0.130 0.393 64 84 59
65.9306 178.0273 -62.9005 0.007 -0.333 0.943 69 81 57
98.6365 181.4508 -53.8340 0.617 -0.049 0.786 58 79 46
98.5961 180.8287 -53.7994 0.619 -0.047 0.784 56 77 44
93.6027 168.5229 -49.5357 0.746 -0.152 0.648 48 65 46
93.3829 167.6944 -49.4287 0.733 -0.147 0.664 43 61 39
93.9606 166.2432 -48.5031 0.818 -0.130 0.560 61 76 55
93.5788 167.5396 -49.5212 0.687 -0.171 0.707 43 61 39
93.9637 165.9487 -48.5847 0.792 -0.143 0.593 61 76 53
80.4058 154.5685 -47.5716 0.190 -0.177 0.966 66 76 51
94.1620 165.8859 -48.7176 0.496 -0.258 0.829 57 72 49
86.0082 161.8699 -51.7502 0.975 -0.001 0.220 74 88 62
86.2708 163.4804 -52.9987 0.978 -0.006 0.210 79 92 66
85.9075 161.8219 -52.4661 -0.344 -0.938 -0.039 62 76 51
86.2974 163.3312 -53.1476 0.976 -0.018 0.216 78 91 65
85.5669 162.0912 -52.9703 -0.344 -0.939 -0.027 52 68 42
85.7502 161.7742 -52.7320 -0.360 -0.930 -0.071 52 68 42
85.9356 161.8210 -52.6915 -0.344 -0.938 -0.039 67 81 56
86.3234 163.1470 -53.2770 0.978 -0.030 0.208 73 86 60
76.5888 155.3966 -52.7491 0.014 -0.801 0.598 64 78 45
85.5951 162.0874 -53.1955 -0.344 -0.939 -0.027 52 68 42
85.7787 161.8104 -52.9779 -0.373 -0.927 -0.046 52 68 42
85.9638 161.8193 -52.9166 -0.356 -0.934 -0.016 63 77 52
86.3558 163.4059 -53.6463 0.930 -0.019 0.366 69 82 56
76.6788 154.7234 -52.5792 0.172 -0.728 0.663 66 77 45
86.1975 163.4351 -53.9590 0.974 -0.218 0.063 63 77 51
86.3802 163.1205 -53.7201 0.755 -0.516 0.404 65 78 52
76.3064 154.8368 -53.0080 -0.176 -0.749 0.638 79 88 57
72.8265 157.3682 -55.9084 0.282 -0.356 0.891 77 88 56
77.1912 153.8529 -52.3731 0.660 -0.218 0.719 59 73 40
73.5977 156.3886 -55.3253 0.876 -0.394 0.279 78 92 59
77.0051 152.0954 -51.6882 0.678 -0.069 0.732 69 83 50
77.2340 153.6506 -52.4737 0.660 -0.218 0.719 59 73 40
73.1844 156.6106 -55.8419 0.403 -0.382 0.832 62 78 42
73.4666 156.0257 -55.4106 0.941 -0.333 -0.054 68 83 50
73.5391 155.6609 -55.4190 0.949 -0.284 0.135 66 83 47
73.6634 156.2566 -55.7093 0.875 -0.388 0.289 69 86 50
