ply
format ascii 1.0
element vertex 184
property float x
property float y
property float z
property float nx
property float ny
property float nz
property uchar diffuse_red
property uchar diffuse_green
property uchar diffuse_blue
end_header
-146.4134 213.3154 67.1044 0.977 -0.210 0.022 63 58 80
-132.6910 147.6968 48.4140 0.642 -0.766 0.032 92 88 113
-142.3025 156.0753 49.9896 0.308 -0.444 0.841 121 118 147
-172.7526 237.4024 57.6735 0.858 -0.424 0.289 50 43 64
-291.8961 307.6043 71.3539 0.520 -0.793 0.315 114 109 129
-294.1507 309.3052 69.6442 0.386 -0.824 0.415 54 49 69
-118.2484 197.0461 34.1691 0.783 -0.153 0.603 55 48 66
-281.9610 306.0734 46.6046 -0.040 -0.994 0.097 41 37 52
-289.6668 313.1408 47.4981 0.061 -0.974 0.220 38 34 49
-288.6179 312.3466 46.3576 0.317 -0.872 0.374 31 27 42
-294.1924 297.0498 10.2027 0.303 -0.896 -0.325 33 32 37
-267.4659 284.3382 -9.1946 0.605 -0.626 0.492 46 44 47
-304.7026 239.1047 -15.9167 0.054 -0.786 -0.616 61 56 63
-294.9286 237.8553 -19.8718 0.782 -0.381 0.493 68 63 70
-168.4467 225.9017 -11.0123 -0.137 -0.358 0.924 23 23 23
-319.4208 268.1047 -33.6589 -0.030 -0.851 -0.525 41 39 44
-305.9379 225.8261 -33.7083 0.055 -0.916 0.396 46 42 43
-307.7374 227.6143 -33.9055 0.124 -0.961 0.249 44 40 41
-308.1984 228.6976 -33.9674 0.078 -0.969 0.236 44 40 41
-302.2726 230.5416 -34.3864 0.129 -0.981 0.145 53 49 48
-307.2092 234.0979 -34.9157 -0.384 -0.915 0.124 49 45 44
-299.4467 222.3291 -35.7733 0.056 -0.903 0.426 50 46 46
-299.3655 229.7648 -35.9496 -0.432 -0.858 0.279 52 48 47
-297.4395 221.2468 -36.4609 0.066 -0.903 0.424 63 60 60
-299.0318 222.9085 -36.6579 0.015 -0.951 0.309 72 71 68
-138.6196 203.4504 -25.7336 0.186 -0.882 -0.434 29 18 22
-138.9839 203.7462 -26.4913 0.186 -0.882 -0.434 34 23 27
-175.6372 214.4489 -31.5407 0.318 -0.712 0.626 26 28 25
-211.5984 244.3479 -36.7049 0.782 -0.623 -0.006 23 25 22
-149.6207 207.2282 -28.4769 0.474 -0.831 0.290 39 33 35
-171.8154 201.3886 -31.2680 0.865 -0.474 -0.166 38 43 36
-210.6605 242.7196 -37.3986 0.659 -0.726 -0.196 29 31 28
-170.1004 200.2021 -31.7618 0.834 -0.507 -0.219 45 50 43
-128.1508 198.3673 -31.3106 0.874 -0.436 0.217 51 36 39
-126.8508 156.6261 -35.6511 0.795 -0.607 0.002 47 48 43
-126.7144 155.9460 -36.1704 0.763 -0.637 0.113 38 39 35
-128.0349 157.3706 -37.0734 0.787 -0.617 -0.001 32 36 35
-128.2531 156.3212 -37.6027 0.693 -0.706 -0.145 24 30 32
-129.1863 154.5537 -38.7484 0.215 -0.976 0.020 35 45 37
-129.9888 155.6373 -38.9638 0.170 -0.976 -0.138 34 44 36
-108.0320 159.6931 -36.5083 0.895 -0.440 0.074 32 40 45
-108.2996 170.0974 -37.6049 0.948 -0.307 -0.081 48 44 45
-108.4476 160.6024 -37.2469 0.484 -0.859 -0.168 35 41 41
-128.1315 153.8877 -39.7371 0.775 -0.382 0.503 42 52 41
-110.8298 148.0808 -36.8215 0.827 -0.212 0.521 57 68 52
-112.3166 150.1700 -37.2414 0.902 -0.235 0.363 57 68 52
-108.5413 160.6693 -37.8584 0.484 -0.859 -0.168 55 62 53
-33.7108 107.0794 -39.8108 0.449 -0.178 0.876 50 61 53
-34.1604 105.7414 -40.0185 0.320 -0.284 0.904 50 58 51
-34.8443 103.7784 -40.1321 0.319 -0.264 0.910 51 62 48
-35.3631 102.5351 -40.3615 -0.003 -0.325 0.946 56 67 53
-34.9633 102.6643 -40.3160 -0.003 -0.325 0.946 53 65 51
-34.5628 102.7928 -40.2703 -0.010 -0.365 0.931 53 64 50
-34.1913 102.9404 -40.2340 0.066 -0.345 0.936 53 64 50
-33.8060 103.0786 -40.1931 0.411 -0.059 0.910 52 63 49
-33.6713 103.3859 -40.2340 0.411 -0.059 0.910 51 63 49
-33.5765 102.5271 -40.4293 0.066 -0.345 0.936 65 73 60
-35.9220 99.0317 -40.4975 0.122 -0.226 0.966 50 65 44
-35.7356 99.2917 -40.5197 0.110 -0.235 0.966 51 66 45
-35.4407 99.4828 -40.5068 0.110 -0.235 0.966 49 64 43
-35.1457 99.6741 -40.4940 0.110 -0.235 0.966 48 63 42
-33.5417 101.7159 -40.6423 0.035 -0.329 0.944 124 136 122
-32.9663 102.1169 -40.6233 0.066 -0.345 0.936 127 135 122
-32.8458 102.4304 -40.6693 0.411 -0.059 0.910 119 130 116
-32.7105 102.7350 -40.7106 0.411 -0.059 0.910 108 120 106
-30.4135 106.8339 -41.1787 0.081 -0.563 0.823 75 63 65
-36.0600 98.3626 -40.7666 -0.106 -0.288 0.952 37 52 31
-34.8866 98.3691 -40.5500 0.085 -0.236 0.968 41 56 35
-34.8625 98.7305 -40.6251 0.099 -0.235 0.967 43 57 37
-34.5630 98.9166 -40.6104 0.099 -0.235 0.967 49 63 44
-33.2280 101.1159 -40.8463 -0.002 -0.361 0.933 134 143 131
-33.0120 101.3622 -40.8603 0.041 -0.325 0.945 96 106 94
-32.5878 101.4701 -40.8052 0.001 -0.362 0.932 69 76 65
-32.3607 101.7098 -40.8158 0.066 -0.345 0.936 57 62 51
-32.3698 102.1090 -40.9053 0.411 -0.059 0.910 40 48 37
-32.2342 102.4123 -40.9469 0.411 -0.059 0.910 25 34 23
-30.0004 106.9570 -41.5318 0.314 -0.236 0.920 54 42 49
-29.7708 107.2109 -41.5450 0.314 -0.236 0.920 50 38 46
-29.8745 107.7063 -41.6733 0.306 -0.236 0.922 45 33 41
-35.1909 97.0664 -40.7056 0.002 -0.302 0.953 38 51 32
-34.8952 97.2512 -40.6914 -0.003 -0.309 0.951 38 51 32
-34.6617 97.4754 -40.6976 -0.001 -0.306 0.952 67 79 62
-34.3661 98.0348 -40.7667 0.095 -0.235 0.967 108 120 103
-34.2017 98.3052 -40.7961 0.099 -0.235 0.967 131 141 126
-32.8648 100.4864 -41.0312 0.072 -0.340 0.938 72 74 72
-32.5620 100.6731 -41.0162 -0.002 -0.361 0.933 66 67 64
-32.3291 100.9066 -41.0246 0.001 -0.362 0.932 53 52 52
-31.9301 101.0297 -40.9774 0.001 -0.362 0.932 46 45 46
-31.7595 101.3056 -41.0068 0.066 -0.345 0.936 45 44 45
-31.8965 101.7895 -41.1400 0.411 -0.059 0.910 43 40 42
-31.7607 102.0915 -41.1818 0.411 -0.059 0.910 38 35 37
-32.4948 115.8219 -44.3717 0.932 -0.343 -0.121 57 47 56
-36.3800 93.4474 -40.5019 0.162 -0.345 0.925 50 62 44
-35.8356 94.1866 -40.5656 0.265 -0.204 0.942 47 59 43
-35.6209 94.4142 -40.5764 0.267 -0.204 0.942 47 58 43
-35.4266 95.0153 -40.6749 0.237 -0.270 0.933 51 61 46
-35.2473 95.9948 -40.8613 0.038 -0.303 0.952 48 57 44
-35.0719 96.2520 -40.8861 0.004 -0.309 0.951 67 75 62
-34.8560 96.4846 -40.8978 -0.003 -0.301 0.954 90 100 86
-34.4236 96.5819 -40.8383 -0.004 -0.307 0.952 113 122 111
-34.1140 96.7561 -40.8193 0.000 -0.306 0.952 124 132 121
-33.8746 96.9749 -40.8234 0.007 -0.306 0.952 133 140 130
-33.7424 97.2621 -40.8631 0.010 -0.316 0.949 129 135 125
-33.5801 97.5312 -40.8931 0.008 -0.319 0.948 115 122 113
-33.4433 97.8175 -40.9317 0.161 -0.316 0.935 99 105 97
-28.9378 108.7261 -42.5354 0.421 -0.191 0.887 56 46 55
-29.1042 109.2773 -42.6905 0.397 -0.196 0.897 59 49 58
-34.0179 95.9575 -41.0041 0.002 -0.313 0.950 121 123 119
-33.8290 96.2057 -41.0247 0.009 -0.309 0.951 104 107 104
-33.5414 96.3925 -41.0127 0.007 -0.306 0.952 88 91 89
-33.1691 96.5259 -40.9726 0.007 -0.306 0.952 54 56 54
-33.0525 96.8215 -41.0177 0.010 -0.316 0.949 43 44 42
-31.3160 99.4610 -41.2885 0.069 -0.369 0.927 57 50 57
-28.5261 108.4257 -42.7957 0.421 -0.191 0.887 81 71 80
-34.2184 94.9874 -41.2023 0.133 -0.327 0.935 103 102 102
-33.9699 95.1958 -41.2028 0.033 -0.306 0.951 79 77 78
-33.6561 95.3639 -41.1817 0.004 -0.309 0.951 58 57 58
-33.3149 95.5150 -41.1515 0.002 -0.313 0.950 37 37 38
-33.1318 95.7653 -41.1741 0.009 -0.309 0.951 25 25 27
-32.7618 95.8985 -41.1343 0.009 -0.309 0.951 18 18 20
-27.4663 107.2272 -42.7248 0.421 -0.197 0.885 95 85 94
-33.6720 94.6464 -41.3996 0.133 -0.327 0.935 34 32 35
-33.3034 94.7791 -41.3598 0.033 -0.306 0.951 36 34 37
-27.5376 107.2811 -43.1527 0.412 -0.192 0.891 98 88 97
-33.4591 93.4383 -41.4557 0.226 -0.271 0.936 30 30 30
-33.8472 94.0323 -41.6692 0.735 -0.268 0.623 40 40 40
-33.7135 94.3087 -41.7081 0.735 -0.268 0.623 42 42 42
-27.2185 106.6295 -43.3411 0.222 -0.348 0.911 93 83 92
-33.3670 93.3783 -41.8005 0.683 -0.271 0.678 34 34 34
-23.9735 103.0476 -42.2682 -0.549 -0.762 0.343 82 72 81
-38.4493 85.8135 -41.3610 0.085 -0.218 0.972 55 66 50
-33.6289 90.3925 -41.5160 0.284 -0.252 0.925 18 19 21
-33.6342 90.7387 -41.5996 0.256 -0.253 0.933 19 19 21
-33.0272 92.8133 -41.9764 0.737 -0.634 0.233 31 31 31
-33.9744 88.5584 -41.5122 0.083 -0.244 0.966 44 43 41
-33.6829 88.7251 -41.4953 0.083 -0.244 0.966 40 41 38
-33.3914 88.8918 -41.4785 0.083 -0.244 0.966 37 38 36
-33.2510 89.8241 -41.6756 0.311 -0.253 0.916 25 24 26
-33.1352 90.0968 -41.7186 0.281 -0.251 0.926 26 24 27
-33.5215 90.6675 -41.9316 0.567 -0.298 0.768 26 24 27
-33.8322 91.1967 -42.1198 0.960 -0.242 -0.142 27 25 28
-33.6259 92.8199 -42.4704 0.935 -0.294 -0.200 35 33 34
-34.9246 87.1058 -41.7125 0.212 -0.161 0.964 47 45 41
-34.7654 87.3448 -41.7393 0.221 -0.175 0.960 26 24 20
-34.6605 87.6153 -41.7845 0.206 -0.183 0.961 20 17 14
-34.3709 87.7816 -41.7680 0.163 -0.265 0.950 30 27 24
-34.1110 87.9649 -41.7615 0.163 -0.265 0.950 40 37 34
-33.8427 88.1437 -41.7522 0.167 -0.265 0.950 50 46 43
-32.8092 88.5487 -41.6475 0.159 -0.269 0.950 56 54 52
-34.4873 93.3379 -43.1420 0.957 -0.290 -0.003 56 56 56
-33.0335 96.7905 -43.6957 -0.059 -0.594 0.802 40 38 39
-32.7634 96.9901 -43.6911 0.377 -0.311 0.872 40 38 39
-34.1100 87.2974 -41.9632 0.206 -0.183 0.961 59 51 49
-34.0109 87.5711 -42.0107 0.338 -0.238 0.911 61 52 49
-29.1368 92.8821 -42.3510 0.330 -0.555 0.764 49 45 49
-32.1356 88.1477 -42.1458 0.601 -0.408 -0.687 57 51 52
-32.0038 88.4052 -42.1835 0.601 -0.408 -0.687 55 51 53
-28.8345 91.2854 -42.2672 0.775 -0.346 0.529 58 52 57
-27.9944 91.8137 -42.2312 0.658 -0.397 0.640 60 53 59
-27.9599 91.4391 -42.4991 0.658 -0.397 0.640 68 56 66
-27.7876 91.6819 -42.5254 0.658 -0.397 0.640 68 57 66
-33.2284 88.1031 -43.0834 0.822 -0.555 -0.130 47 41 48
-35.0436 83.9217 -42.7508 0.597 -0.788 0.150 47 46 57
-35.5363 83.5514 -43.1141 0.634 -0.755 0.169 56 51 63
-34.8107 87.6678 -44.0252 0.392 -0.914 0.105 38 36 45
-33.5602 87.6184 -43.7585 0.510 -0.831 0.224 36 35 41
-30.0155 91.6478 -44.0745 0.127 -0.179 0.976 81 71 80
-31.7526 87.9010 -43.8284 0.271 -0.047 0.961 61 55 65
-29.1712 88.7288 -43.5160 0.087 -0.264 0.960 76 68 79
-29.1071 90.0513 -43.8461 0.163 -0.144 0.976 91 85 95
-29.3974 91.6146 -44.3109 0.232 -0.149 0.961 91 79 89
-35.1594 84.6002 -44.0284 0.479 -0.227 0.848 50 44 54
-31.7985 86.9291 -43.9480 0.265 -0.047 0.963 68 65 72
-31.6474 87.8351 -44.1542 0.286 -0.039 0.958 79 73 83
-34.9605 82.9095 -43.9017 0.305 -0.185 0.934 43 37 47
-35.7324 85.2274 -44.6732 0.562 -0.125 0.818 39 36 43
-30.4777 85.5161 -43.6649 0.035 -0.230 0.972 85 84 90
-30.5379 85.8748 -43.7721 0.087 -0.199 0.976 97 94 101
-31.2525 86.6106 -44.1139 0.265 -0.047 0.963 106 103 110
-35.7585 85.2355 -45.0440 0.694 -0.055 0.718 55 52 59
-29.5595 84.9880 -43.6919 0.036 -0.227 0.973 89 88 94
-29.9074 85.5092 -43.9029 0.087 -0.199 0.976 96 95 100
-35.0923 84.8641 -45.1687 0.562 -0.125 0.818 75 72 79
-33.2497 85.7703 -45.3902 0.440 -0.256 0.861 102 99 106
