ply
format ascii 1.0
element vertex 839
property float x
property float y
property float z
property float nx
property float ny
property float nz
property uchar diffuse_red
property uchar diffuse_green
property uchar diffuse_blue
end_header
155.1770 -12.8089 -55.3503 -0.455 0.024 0.890 137 127 125
155.4855 -13.4715 -55.5135 -0.683 -0.397 0.613 135 127 124
155.5596 -13.7962 -55.5616 -0.667 -0.422 0.614 130 122 120
155.6995 -14.1274 -55.6372 -0.667 -0.422 0.614 118 113 110
156.1049 -14.8035 -55.8412 -0.812 -0.133 0.569 98 93 90
150.9965 -17.6521 -53.8839 -0.153 0.180 0.972 124 118 118
158.5970 -28.1838 -57.5925 -0.958 0.175 0.227 162 165 171
168.4327 -37.2118 -62.1437 -0.314 -0.434 0.845 205 216 237
148.5805 78.3341 -48.0805 -0.873 -0.452 0.182 66 86 52
143.7471 71.9945 -46.4091 -0.463 0.791 0.400 96 103 87
144.6050 72.1817 -46.7560 -0.334 0.591 0.734 116 125 108
143.6227 65.6555 -46.6967 -0.298 0.039 0.954 135 131 122
143.7220 65.3671 -46.7535 -0.280 0.064 0.958 142 138 129
143.5556 64.9268 -46.7078 -0.290 0.053 0.956 146 142 133
144.1438 62.1547 -47.1010 -0.187 -0.062 0.980 103 101 88
151.5248 60.7153 -50.2486 -0.527 -0.810 0.257 113 109 106
146.6096 56.5218 -48.4283 -0.718 0.444 0.535 113 109 106
146.5124 56.1289 -48.4089 -0.745 0.378 0.550 119 115 112
150.3730 18.3326 -52.0384 -0.574 -0.565 0.593 138 128 127
150.7398 14.7908 -52.3806 -0.967 -0.099 -0.233 129 119 120
150.8191 14.4752 -52.4304 -0.971 -0.078 -0.228 133 123 124
150.6989 14.1337 -52.3987 -0.973 -0.102 -0.207 135 125 126
149.5118 12.0496 -52.0164 -0.881 0.413 -0.230 116 112 109
149.4058 10.7561 -52.0416 -0.273 -0.577 0.769 132 128 125
150.4925 10.2231 -52.5222 -0.311 -0.587 0.748 128 122 122
149.9204 8.5659 -52.3729 -0.685 0.631 -0.366 119 113 113
154.7576 -10.8587 -55.4251 -0.273 0.228 0.934 108 98 96
155.1584 -14.3856 -55.7807 -0.152 -0.546 0.824 111 106 103
155.2859 -15.3485 -55.8853 -0.225 -0.125 0.966 112 107 104
165.5645 -36.8379 -61.3117 -0.152 -0.361 0.920 197 208 230
147.1100 75.2884 -47.9976 -0.311 0.380 0.871 72 85 59
142.5251 63.7370 -46.6914 -0.297 0.054 0.953 114 110 99
142.5659 63.4185 -46.7255 -0.303 0.062 0.951 106 102 93
142.7155 62.4782 -46.8381 -0.150 -0.047 0.988 121 119 106
143.3539 62.1461 -47.1231 -0.188 -0.070 0.980 107 105 90
143.5691 61.9210 -47.2252 -0.187 -0.062 0.980 102 100 85
146.3782 56.8289 -48.6722 -0.703 0.440 0.559 108 104 101
146.0820 56.3389 -48.5743 -0.720 0.407 0.562 113 109 106
145.6515 55.7858 -48.4234 -0.595 -0.267 0.758 119 115 112
145.6954 55.4636 -48.4589 -0.597 -0.268 0.756 124 120 119
145.7720 55.1570 -48.5072 -0.597 -0.268 0.756 129 128 126
146.4000 53.7349 -48.8458 -0.608 -0.265 0.749 93 91 92
146.1430 24.7034 -50.2812 -0.795 -0.248 -0.554 145 141 140
146.8357 23.8871 -50.6147 -0.828 -0.161 -0.536 142 138 137
149.9297 18.6238 -52.1902 -0.574 -0.565 0.593 127 117 116
150.1212 18.3282 -52.2861 -0.574 -0.565 0.593 132 122 121
151.5449 14.9327 -53.0628 -0.994 -0.100 0.049 129 119 120
151.3184 14.5744 -52.9870 -0.996 -0.057 0.065 133 123 124
148.9061 13.9344 -52.0108 -0.745 -0.666 0.044 135 125 126
148.7374 11.3539 -52.0773 -0.266 -0.669 0.694 114 110 107
148.1936 10.9775 -51.8695 -0.263 -0.592 0.762 118 114 111
149.2325 10.1286 -52.3497 -0.270 -0.580 0.769 128 122 122
147.7415 6.8390 -51.9001 -0.492 0.693 0.527 115 109 109
152.2215 1.3537 -54.0679 -0.263 0.247 0.933 117 111 113
154.7257 -10.8459 -55.7651 -0.680 0.725 0.112 108 98 96
173.9252 126.2505 -56.9800 -0.760 -0.649 0.028 45 77 30
148.1240 76.7621 -48.7138 -0.295 -0.713 0.636 85 102 68
145.8612 74.5825 -47.8748 -0.283 0.491 0.824 97 109 83
144.4354 72.9620 -47.3593 -0.293 0.518 0.803 131 134 122
142.2414 63.9985 -46.9072 -0.607 0.146 0.781 102 98 89
142.8475 61.9479 -47.2710 -0.174 -0.067 0.982 110 108 92
145.5934 61.3620 -48.4595 -0.122 0.158 0.980 99 96 87
145.2652 56.0145 -48.6033 -0.597 -0.268 0.756 113 109 106
145.3415 55.7087 -48.6516 -0.597 -0.268 0.756 120 116 113
146.0156 55.0018 -48.9731 -0.749 -0.609 0.261 120 118 119
146.5496 53.5309 -49.2758 -0.450 -0.578 0.681 93 91 92
144.6740 24.7369 -50.0044 -0.352 -0.141 0.925 140 136 135
144.4011 24.0403 -49.9261 -0.494 -0.138 0.858 140 136 135
144.0902 23.6555 -49.8153 -0.593 -0.204 0.779 140 136 135
137.5522 18.0741 -47.3535 -0.929 0.246 0.278 124 115 114
149.4651 18.5834 -52.3489 -0.672 -0.548 0.497 122 113 111
149.8700 18.3237 -52.5333 -0.574 -0.565 0.593 127 117 116
148.2344 13.2407 -52.1120 -0.828 0.388 0.404 135 125 126
148.7972 12.9901 -52.3625 -0.810 0.438 0.391 135 125 126
146.3295 11.4349 -51.4042 -0.885 0.461 -0.069 111 107 104
147.3050 10.9126 -51.8430 -0.994 -0.034 -0.105 113 109 106
151.5124 3.2754 -54.0198 -0.247 0.072 0.966 116 110 107
151.7245 1.3619 -54.2101 -0.263 0.247 0.933 119 111 114
150.9990 0.7075 -53.9388 -0.381 0.505 0.775 116 109 111
153.8172 -11.0887 -55.7493 -0.715 0.698 0.043 110 100 98
152.9072 -11.6511 -55.3953 -0.269 0.187 0.945 122 112 110
154.0406 -14.8916 -56.0441 -0.220 -0.149 0.964 115 109 107
154.4451 -15.5627 -56.2501 -0.230 -0.115 0.966 113 107 104
151.6364 -20.4681 -55.3248 -0.161 0.464 0.871 134 130 120
155.5998 -21.3682 -57.0432 -0.129 0.454 0.882 134 130 121
134.2823 -29.7752 -48.4997 -0.701 0.711 0.052 203 214 238
146.5520 76.2021 -48.4465 -0.344 -0.723 0.599 69 83 54
135.8384 67.2662 -44.3679 -0.529 0.519 0.671 135 138 125
140.9958 64.3856 -46.7075 -0.170 -0.163 0.972 110 106 95
141.7618 63.1266 -47.0985 -0.312 0.116 0.943 100 96 84
145.0353 61.1442 -48.5915 -0.121 0.151 0.981 98 95 87
141.6062 54.9687 -47.4597 -0.571 -0.815 -0.099 103 102 100
142.2409 54.6124 -47.7478 -0.560 -0.803 -0.204 107 106 104
143.9433 54.4256 -48.4800 -0.657 -0.226 0.719 112 111 109
145.7677 54.6125 -49.2445 -0.656 0.166 0.736 99 98 96
145.5264 53.4711 -49.2019 -0.656 0.166 0.736 94 93 91
144.4175 24.4031 -50.2538 -0.407 0.077 0.910 138 132 132
144.3179 24.0633 -50.2293 -0.379 -0.072 0.923 138 132 132
143.0090 18.7818 -49.9505 -0.542 -0.082 0.836 122 115 115
148.1664 13.9031 -52.3947 -0.770 -0.624 0.134 124 113 117
147.2524 13.1498 -52.0463 -0.864 0.321 0.388 124 113 117
148.2471 12.9544 -52.4786 -0.782 0.436 0.445 123 113 116
145.9743 11.4250 -51.5942 -0.891 0.454 -0.012 119 113 113
150.6821 0.7213 -54.1527 -0.266 0.240 0.934 124 113 114
152.5470 -11.3007 -55.5739 -0.446 0.433 0.783 116 106 104
151.9660 -11.8807 -55.3577 -0.465 0.653 0.597 125 115 113
192.5311 -38.5119 -73.9675 -0.629 0.544 0.556 156 161 163
143.7143 80.8584 -47.3587 -0.401 -0.342 0.850 53 77 36
143.5171 80.3615 -47.3003 -0.439 -0.374 0.817 63 77 47
137.8050 70.6047 -45.3675 -0.305 0.669 0.677 85 92 70
137.7003 68.5284 -45.4307 -0.816 -0.412 0.405 134 134 122
138.7731 65.1799 -46.0631 -0.434 0.480 0.762 134 133 117
141.0290 63.4698 -47.1156 -0.272 0.252 0.929 112 109 94
141.3509 62.6363 -47.2965 -0.159 -0.031 0.987 115 113 100
141.0711 61.8041 -47.2202 -0.203 -0.230 0.952 98 96 83
141.1565 61.5141 -47.2718 -0.210 -0.212 0.954 94 92 80
141.2536 60.8930 -47.3456 -0.163 0.064 0.985 86 84 72
141.7064 55.0901 -47.8407 -0.566 -0.820 -0.091 106 105 103
142.4047 54.4287 -48.1734 -0.424 -0.878 0.223 110 109 107
143.3302 53.8659 -48.5980 -0.590 0.245 0.769 100 99 97
141.9611 52.8799 -48.0644 -0.580 0.359 0.731 94 93 91
141.6715 52.4107 -47.9651 -0.420 0.045 0.906 88 87 85
143.9145 23.6993 -50.4160 -0.358 -0.147 0.922 143 137 137
142.6383 19.3717 -50.0958 -0.603 -0.081 0.794 116 110 110
142.6755 18.7587 -50.1436 -0.554 -0.096 0.827 111 105 105
145.0686 18.2372 -51.1930 -0.414 0.037 0.910 121 115 115
138.2798 14.7119 -48.4763 -0.635 -0.761 -0.132 120 110 111
145.1049 13.8488 -51.4366 -0.545 -0.769 -0.334 120 109 113
149.7925 3.5658 -53.9737 -0.196 -0.046 0.979 118 108 107
147.3518 2.5261 -52.9852 -0.166 -0.652 0.740 139 127 127
143.3803 80.3643 -47.6015 -0.446 -0.389 0.806 92 103 78
142.5148 79.4009 -47.2791 -0.593 -0.395 0.702 104 97 92
138.5362 65.1206 -46.3053 -0.454 0.464 0.761 126 128 106
139.9557 52.9812 -47.5422 -0.565 -0.801 -0.196 107 106 104
143.2826 53.9141 -48.9245 -0.621 0.304 0.723 96 95 93
141.6427 52.7986 -48.2769 -0.580 0.359 0.731 95 94 92
136.6269 35.7375 -47.0007 -0.833 0.302 0.464 102 96 98
136.6773 35.4477 -47.0373 -0.840 0.297 0.453 103 97 99
136.7258 35.1572 -47.0732 -0.841 0.304 0.448 106 100 102
135.6451 25.4829 -47.1077 -0.412 -0.886 0.213 123 117 120
143.5108 23.9679 -50.5680 -0.379 -0.072 0.923 111 105 105
143.5062 23.6512 -50.5823 -0.358 -0.147 0.922 111 105 105
141.5307 21.0534 -49.8670 -0.020 -0.235 0.972 126 121 118
142.1752 19.9421 -50.2014 -0.969 0.156 0.192 123 118 115
142.3727 18.7409 -50.3483 -0.554 -0.096 0.827 97 91 91
137.2130 14.8779 -48.3291 -0.916 0.340 0.214 124 114 115
144.3340 14.0888 -51.4317 -0.552 -0.751 -0.362 116 105 109
148.0200 13.9487 -53.0239 -0.770 -0.624 0.134 123 112 116
146.8222 2.2193 -53.1141 -0.175 -0.649 0.740 134 122 124
146.3832 -0.2495 -53.0528 -0.015 -0.856 0.517 124 114 115
150.3775 -14.8057 -55.5214 -0.037 -0.410 0.911 112 102 103
142.2693 78.9726 -47.5525 -0.475 -0.397 0.785 103 90 95
136.4995 70.2617 -45.5015 -0.291 0.649 0.703 109 105 98
138.1623 66.6471 -46.4063 -0.089 -0.239 0.967 112 113 93
137.9076 65.1590 -46.3723 -0.407 0.519 0.752 111 113 92
136.4380 35.7247 -47.2438 -0.836 0.470 0.283 102 96 98
136.5870 35.1619 -47.3371 -0.841 0.304 0.448 106 100 102
135.6887 26.1308 -47.4109 -0.387 -0.777 0.497 123 117 121
135.2059 25.7105 -47.2235 -0.427 -0.820 0.382 123 117 121
135.5013 25.4885 -47.3627 -0.412 -0.886 0.213 123 117 120
142.1170 19.3494 -50.5403 -0.583 -0.053 0.811 119 113 113
137.2481 14.9150 -48.6602 -0.920 0.338 0.201 124 114 115
141.4953 -8.4425 -51.6946 -0.880 0.175 0.442 114 109 106
145.1682 -16.0149 -53.6720 -0.433 -0.822 0.370 120 115 112
152.7120 -22.7714 -57.2829 -0.509 -0.697 -0.504 126 126 118
249.7355 191.8173 -88.9861 -0.658 0.706 0.262 49 82 35
139.7740 60.9837 -47.7373 -0.300 -0.277 0.913 94 94 84
139.4318 60.4608 -47.6148 -0.248 0.129 0.960 88 88 80
138.9711 58.5513 -47.5112 -0.287 -0.006 0.958 77 77 69
134.9087 50.3612 -46.1579 -0.377 0.154 0.913 89 88 86
142.4871 25.7097 -50.7120 -0.809 -0.252 0.531 115 111 110
142.1718 19.3962 -50.8956 -0.956 0.285 0.076 113 107 107
139.9831 13.8597 -50.2236 -0.998 0.048 0.039 108 97 101
139.9494 12.9558 -50.2549 -0.995 0.094 0.018 122 111 115
141.3664 -8.4244 -51.9589 -0.880 0.175 0.442 111 106 103
140.1290 -12.8863 -51.6467 -0.374 0.610 0.699 126 116 117
145.7317 -16.3705 -54.2643 -0.502 -0.819 0.277 121 116 113
142.6914 81.6045 -48.3203 -0.574 0.027 0.819 77 97 60
141.1952 79.8246 -47.7541 -0.642 -0.226 0.733 61 77 41
136.1191 66.8763 -46.1818 -0.005 -0.113 0.994 93 89 80
136.1901 66.2612 -46.2439 -0.097 0.036 0.995 118 114 105
134.9078 58.3596 -46.0803 -0.409 -0.299 0.862 87 87 79
134.9162 58.0441 -46.0999 -0.466 -0.146 0.873 81 81 73
140.6812 60.8915 -48.4837 -0.753 0.658 -0.028 77 77 67
138.4983 58.3727 -47.6538 -0.287 -0.006 0.958 57 57 49
138.4831 56.0652 -47.7635 -0.116 0.200 0.973 66 67 61
136.4622 35.2226 -47.9288 -0.973 0.229 0.002 118 112 114
140.4303 26.5032 -50.1083 -0.720 -0.108 0.686 103 99 98
142.5604 25.7701 -51.0791 -0.430 -0.353 0.831 115 111 110
142.0765 25.3406 -50.8886 -0.453 -0.330 0.828 115 111 110
142.3419 19.4644 -51.3014 -0.953 0.294 0.070 113 107 107
136.8387 14.6231 -49.1329 -0.442 0.564 0.697 105 95 96
142.9706 -7.9191 -52.9582 -0.857 0.499 0.128 99 94 91
145.1321 -8.9231 -53.9564 -0.980 -0.185 -0.067 116 111 108
145.0363 -11.5834 -54.0486 -0.277 0.689 0.669 116 106 104
144.8488 -15.6758 -54.1728 -0.385 -0.916 0.112 110 105 102
146.2853 -16.1378 -54.8259 -0.378 -0.914 0.149 116 111 108
142.9348 81.8800 -48.7748 -0.594 0.042 0.803 67 87 50
141.1299 79.8766 -48.0787 -0.631 -0.221 0.744 68 85 49
141.6292 79.8783 -48.2989 -0.578 -0.291 0.762 66 88 48
140.4001 77.6072 -47.8703 -0.608 -0.269 0.747 63 72 51
141.4318 25.2310 -50.9469 -0.625 -0.288 0.726 115 111 110
139.4205 16.2443 -50.5092 -0.897 -0.263 -0.354 125 115 116
139.8440 13.0027 -50.8583 -0.996 0.085 0.025 122 111 115
136.7152 9.3979 -49.6582 -0.775 0.418 0.474 123 117 117
138.5924 8.1229 -50.5503 -0.977 -0.034 -0.212 127 119 117
142.9459 -4.9680 -53.1264 -0.223 -0.445 0.867 121 109 111
144.5192 -8.8761 -54.0162 -0.973 -0.227 -0.027 115 110 107
139.0101 -13.0445 -51.7940 -0.373 0.794 0.479 122 112 113
141.0006 -13.5248 -52.6963 -0.324 0.658 0.680 114 104 105
144.2735 92.1178 -49.2232 -0.765 -0.588 0.265 45 72 27
134.5215 66.0409 -46.1877 -0.002 0.002 1.000 136 132 123
133.7924 57.8887 -46.2687 -0.492 -0.311 0.813 76 76 66
132.0295 37.3840 -46.5041 -0.887 0.417 -0.196 107 105 106
130.0693 33.7426 -45.8145 -0.456 -0.861 0.226 116 110 112
136.2979 26.4580 -48.9421 -0.728 -0.333 -0.599 118 112 114
139.2201 25.0575 -50.3093 -0.745 -0.469 -0.473 115 111 110
138.0696 19.3471 -50.0820 -0.768 0.333 0.547 119 114 112
139.3787 16.2710 -50.8161 -0.414 -0.854 0.315 125 115 116
139.6809 12.4130 -51.1419 -0.994 0.098 0.044 122 112 114
141.1155 -13.8145 -53.0813 -0.265 0.607 0.749 111 101 102
134.1305 -30.0616 -50.7864 -0.864 -0.290 -0.411 202 211 226
131.6211 -31.6443 -49.7506 -0.856 -0.411 0.314 65 72 100
132.0412 -32.2602 -49.9677 -0.812 -0.490 0.316 126 133 162
146.0846 93.6763 -50.3266 -0.443 -0.511 0.737 50 77 32
151.9781 94.4455 -52.9224 -0.435 -0.656 0.617 55 80 40
154.6083 95.6630 -54.0378 -0.884 0.465 -0.056 55 80 40
133.2545 57.9799 -46.3516 -0.521 -0.382 0.763 76 76 66
137.7684 55.5871 -48.4867 -0.117 0.166 0.979 66 67 61
135.2068 51.4054 -47.5479 -0.197 -0.227 0.954 90 89 85
135.0197 50.9977 -47.4844 -0.194 -0.228 0.954 94 93 89
132.8353 39.5437 -47.0725 -0.727 0.153 0.669 100 96 97
131.1808 38.3057 -46.3941 -0.390 0.220 0.894 109 105 106
136.6183 26.5838 -49.4016 -0.728 -0.333 -0.599 116 110 110
139.3513 26.3636 -50.6338 -0.760 -0.438 -0.479 104 98 98
138.3834 16.7419 -50.6753 -0.572 -0.639 -0.515 109 99 100
141.8390 11.8023 -52.4630 -0.966 -0.036 -0.256 120 114 114
138.6745 7.5945 -51.2561 -0.913 0.207 -0.351 119 109 108
138.2445 6.3908 -51.1232 -0.826 -0.492 0.274 118 107 103
140.6647 -3.4301 -52.6886 -0.183 -0.380 0.907 120 112 110
140.9004 -3.7243 -52.8085 -0.187 -0.380 0.906 111 103 101
143.3883 -7.3163 -54.0973 -0.849 0.516 0.112 111 102 103
139.7376 -14.5084 -52.8201 -0.283 0.635 0.719 109 100 101
134.1330 -29.8156 -51.0696 -0.774 0.525 0.355 174 186 200
131.7082 -31.9278 -50.0900 -0.815 -0.457 0.355 118 125 154
131.9712 -32.2513 -50.2235 -0.813 -0.467 0.349 131 138 166
134.4855 -37.0224 -51.5822 -0.856 0.394 0.334 67 69 81
140.0630 88.2615 -48.2603 -0.530 -0.779 0.337 56 83 38
151.7965 94.4216 -53.2361 -0.456 -0.655 0.603 55 80 40
154.7596 95.8955 -54.4967 -0.884 0.465 -0.056 55 80 40
154.3951 95.2186 -54.3658 -0.884 0.465 -0.056 55 80 40
134.4909 51.1221 -47.5695 -0.336 0.011 0.942 94 90 87
132.0226 39.8822 -47.0088 -0.596 -0.128 0.793 92 88 89
138.4071 19.1828 -50.8918 -0.889 0.195 0.414 113 107 109
138.6040 18.9182 -50.9933 -0.962 0.214 0.171 106 96 97
138.0432 17.6155 -50.8048 -0.864 0.337 0.373 112 102 103
137.9285 8.1401 -51.2163 -0.153 -0.559 0.815 118 108 107
136.5636 6.0022 -50.7069 -0.971 -0.082 0.226 123 112 106
141.2903 -3.7153 -53.3076 -0.243 -0.297 0.924 113 105 103
134.9144 -12.3522 -50.8623 -0.542 0.764 0.349 128 118 119
138.1503 -15.1568 -52.4547 -0.290 0.594 0.750 114 106 104
137.3074 -26.9396 -52.6515 -0.978 0.141 -0.154 158 159 162
136.7228 -27.0724 -52.3951 -0.928 -0.007 -0.372 159 160 162
134.9146 -29.5108 -51.7011 -0.777 0.549 0.309 145 154 168
129.5831 -31.5769 -49.4043 -0.898 0.434 0.071 123 130 156
150.9080 94.6340 -53.2180 -0.479 -0.674 0.563 58 85 42
152.2702 94.5079 -53.8406 -0.453 -0.690 0.564 60 82 43
155.7232 96.7480 -55.2948 -0.961 0.196 -0.196 60 82 43
155.3984 96.0974 -55.1793 -0.938 -0.006 -0.345 60 82 43
131.0167 71.0960 -45.3570 -0.172 -0.191 0.966 80 90 65
130.0810 59.7476 -45.4837 -0.298 -0.178 0.938 88 89 71
130.5920 52.3246 -46.0749 -0.267 0.677 0.686 63 64 58
132.1023 39.6690 -47.3720 -0.704 0.176 0.688 106 102 103
130.2663 38.0619 -46.6189 -0.472 0.453 0.756 116 112 113
138.1053 19.1621 -51.0830 -0.922 0.155 0.354 113 107 109
137.2383 7.5226 -51.2549 -0.301 -0.525 0.796 119 109 108
135.7115 5.6791 -50.6533 -0.773 -0.628 0.088 127 116 110
140.0641 -3.9706 -53.0910 -0.299 -0.015 0.954 108 103 100
137.1415 -26.9082 -52.8804 -0.941 -0.204 -0.270 162 163 167
137.2166 -27.1910 -52.9281 -0.941 -0.204 -0.270 162 163 166
148.2855 97.3254 -52.2869 -0.044 0.190 0.981 66 95 47
146.6725 93.3533 -51.7433 -0.708 0.707 -0.004 73 100 55
147.6202 91.0585 -52.2852 -0.445 -0.190 0.875 68 90 51
130.4702 70.4828 -45.4643 -0.173 -0.175 0.969 123 127 107
132.1121 60.3995 -46.6970 0.015 -0.192 0.981 85 88 71
133.1232 60.6761 -47.1441 -0.362 -0.310 0.879 85 88 71
133.3180 60.4706 -47.2427 -0.362 -0.305 0.881 86 89 72
133.2415 59.7878 -47.2407 -0.373 -0.316 0.873 72 75 58
133.1831 59.4356 -47.2311 -0.396 0.116 0.911 73 76 59
133.1123 59.0768 -47.2161 -0.396 0.116 0.911 72 75 58
132.2183 57.6212 -46.8789 -0.474 0.269 0.839 69 70 62
131.6882 57.0101 -46.6669 -0.531 0.326 0.782 65 66 60
131.5219 56.6050 -46.6106 -0.531 0.326 0.782 59 60 54
136.7460 9.8252 -51.2394 -0.856 -0.082 0.510 115 109 109
135.4556 5.6843 -50.8509 -0.926 -0.318 0.206 127 116 110
138.2688 -7.3284 -52.7578 -0.477 -0.586 0.656 108 100 98
138.5227 -7.6237 -52.8876 -0.771 0.095 0.630 109 99 98
136.9394 -26.6029 -53.0793 -0.969 -0.041 -0.245 168 169 174
132.0199 -32.5482 -51.1248 -0.989 -0.047 0.140 165 173 192
150.3451 94.8183 -53.7372 -0.700 -0.652 0.291 73 100 55
151.4763 94.5226 -54.2696 -0.698 -0.623 0.353 73 95 56
153.5252 94.9073 -55.1902 -0.626 -0.124 0.770 74 96 57
153.2134 94.2733 -55.0776 -0.627 -0.116 0.770 73 95 56
128.2357 68.3884 -44.8657 -0.927 0.161 -0.338 157 160 141
129.1708 63.6989 -45.5179 -0.092 -0.036 0.995 123 125 100
129.3434 63.1850 -45.6215 -0.441 0.539 0.718 100 102 77
133.0550 60.7136 -47.4403 -0.303 -0.046 0.952 85 88 71
133.0025 60.3637 -47.4329 -0.326 0.102 0.940 86 89 72
132.5033 59.7549 -47.2332 -0.307 -0.001 0.952 84 87 70
131.0280 56.0921 -46.7318 -0.531 0.326 0.782 56 57 51
130.8640 55.6912 -46.6758 -0.531 0.326 0.782 61 62 56
129.0165 45.9399 -46.2942 -0.989 0.039 0.145 104 100 99
130.0164 38.3678 -47.1136 -0.532 0.665 0.525 116 112 113
134.7970 12.2260 -50.5512 -0.539 0.649 0.537 120 109 107
135.8847 9.7604 -51.1673 -0.772 0.154 0.617 117 111 111
135.5182 6.2821 -51.1652 -0.220 0.084 0.972 116 105 99
136.1987 2.6176 -51.6518 -0.839 -0.496 0.225 107 102 98
137.2889 -6.7088 -52.5963 -0.487 -0.579 0.653 116 110 110
136.5573 -13.8616 -52.6022 -0.038 -0.314 0.949 103 93 94
138.0900 -14.5823 -53.3389 -0.050 -0.322 0.945 99 89 88
139.2431 -19.4463 -54.0993 -0.737 0.490 0.465 127 119 117
132.1716 -32.6037 -51.4863 -0.992 -0.060 0.113 143 152 169
147.0867 97.3522 -52.5072 -0.130 -0.079 0.988 67 96 48
146.8790 96.7985 -52.4376 -0.134 -0.091 0.987 65 97 47
151.3887 94.9638 -54.6039 -0.708 -0.602 0.369 79 102 60
129.4260 63.9425 -45.9437 -0.031 -0.090 0.996 93 96 65
131.1462 57.7900 -47.0279 -0.467 -0.378 0.799 90 92 78
131.2495 57.5361 -47.0876 -0.467 -0.378 0.799 79 81 70
131.3952 57.3058 -47.1657 -0.465 -0.375 0.802 71 72 64
131.2323 55.9666 -47.1539 -0.272 0.313 0.910 65 66 60
130.9446 55.4975 -47.0434 -0.295 0.324 0.899 64 65 60
128.9828 46.8811 -46.5463 -0.964 0.091 0.249 112 108 107
128.7002 46.4490 -46.4365 -0.944 -0.319 0.084 110 106 105
129.9152 46.4212 -46.9980 -0.900 0.332 0.282 111 107 106
128.5094 45.4684 -46.3949 -0.998 -0.027 0.056 110 106 105
128.8979 45.3511 -46.5795 -0.999 -0.025 0.047 108 104 103
129.3382 23.4895 -47.8167 -0.664 -0.655 -0.362 115 109 109
135.0536 -6.8762 -51.8885 -0.572 -0.783 -0.245 124 118 118
138.3720 -14.8873 -53.7976 -0.062 -0.315 0.947 110 100 99
148.8183 -17.0057 -58.7149 -0.298 -0.929 -0.220 108 96 96
139.4276 -19.1965 -54.4882 -0.775 0.509 0.374 113 108 105
137.0703 -26.9100 -53.7661 -0.976 0.047 -0.214 161 162 167
132.2392 -32.8848 -51.8209 -0.801 0.347 0.487 166 175 192
131.3340 -33.3628 -51.4262 -0.248 -0.936 0.249 198 210 234
142.0226 98.1115 -50.5067 -0.696 0.680 0.232 59 92 47
128.8882 63.9910 -46.0129 -0.032 -0.106 0.994 91 96 57
130.6913 60.1045 -47.0318 -0.372 -0.482 0.793 91 92 74
130.7335 57.6290 -47.1676 -0.640 -0.379 0.669 93 95 81
130.8690 57.3944 -47.2414 -0.347 -0.304 0.887 79 81 70
130.8914 57.0954 -47.2658 -0.277 -0.261 0.925 72 73 65
130.8367 52.1115 -47.4742 -0.370 -0.173 0.913 80 81 75
130.6118 34.5717 -48.1926 -0.390 -0.812 0.434 112 108 107
134.4657 12.2409 -51.0282 -0.556 0.694 0.458 129 118 116
133.2531 10.9466 -50.5263 -0.631 0.529 0.568 101 95 95
136.0209 -3.5609 -52.4910 -0.016 -0.465 0.885 120 115 112
135.9007 -4.3978 -52.4744 0.089 -0.272 0.958 105 100 97
135.8839 -4.6765 -52.4797 0.067 -0.195 0.979 103 98 95
136.0826 -6.3551 -52.6507 -0.671 -0.720 -0.176 123 117 117
136.2810 -7.1987 -52.7823 -0.635 -0.731 -0.250 132 124 122
135.4736 -12.9180 -52.6759 -0.328 0.573 0.751 114 104 105
184.1082 -35.2437 -76.2889 -0.164 -0.948 0.271 196 199 208
135.0384 -26.7192 -53.1213 -0.325 -0.632 0.703 161 162 166
132.6176 -26.9335 -52.0082 -0.265 -0.539 0.799 163 164 168
134.0069 -29.0654 -52.7528 -0.845 0.530 0.069 155 163 174
140.4796 102.0662 -49.9737 -0.145 -0.562 0.814 49 77 36
141.6850 101.6655 -50.5550 -0.205 -0.525 0.826 48 76 36
148.3376 92.4437 -54.0897 -0.545 0.766 0.342 85 106 67
123.9600 60.3063 -44.2037 -0.002 -0.100 0.995 89 95 49
130.7682 57.7232 -47.5022 -0.651 -0.372 0.662 87 89 75
130.8930 57.1700 -47.5862 -0.343 -0.384 0.857 72 73 65
130.4671 55.6885 -47.4563 -0.271 0.316 0.909 81 82 75
129.9179 55.0766 -47.2284 -0.295 0.324 0.899 87 88 83
129.7204 54.6607 -47.1555 -0.461 0.359 0.811 92 93 87
130.7253 50.2804 -47.8284 -0.070 0.247 0.967 107 103 100
130.4862 46.8134 -47.8780 -0.925 0.178 0.337 122 118 117
126.7494 21.0022 -47.3339 -0.702 0.548 0.455 115 111 108
129.4882 13.8184 -48.9467 -0.332 0.129 0.935 113 101 103
132.0709 11.1123 -50.2783 -0.724 0.651 0.228 124 117 116
134.0892 7.9428 -51.3679 -0.938 -0.071 -0.338 120 110 109
135.3499 -3.5364 -52.4904 -0.016 -0.465 0.885 120 114 111
133.5671 -5.4245 -51.7458 -0.015 -0.687 0.726 117 111 111
136.9256 -7.4982 -53.4103 -0.672 -0.654 -0.349 129 119 118
136.6233 -7.7621 -53.2814 -0.729 -0.558 -0.397 122 112 111
136.4777 -8.0329 -53.2260 -0.667 -0.705 -0.242 117 107 106
133.6918 -12.4646 -52.1315 -0.598 0.663 0.450 102 92 93
134.4394 -27.6284 -53.1858 -0.656 -0.747 -0.104 165 166 170
131.4653 -32.1846 -52.0092 -0.745 -0.606 0.279 197 206 221
144.6721 99.8862 -52.4126 -0.754 0.646 0.120 67 100 55
148.7717 92.8937 -54.6607 -0.551 0.774 0.312 79 103 64
126.9982 58.9676 -45.9976 -0.503 0.051 0.863 94 93 73
130.0969 59.9044 -47.4099 -0.397 -0.469 0.789 86 89 70
129.9333 55.4650 -47.5377 -0.271 0.316 0.909 92 93 87
129.5203 54.9291 -47.3685 -0.478 0.273 0.835 100 101 96
129.3331 54.5196 -47.2994 -0.577 0.345 0.740 113 114 108
129.1363 54.1062 -47.2260 -0.547 0.392 0.739 123 124 118
134.3164 7.7044 -51.7990 -0.963 0.048 -0.264 118 108 107
134.5426 -5.1679 -52.4988 0.065 -0.253 0.965 114 105 106
134.5439 -5.4436 -52.5121 -0.020 -0.478 0.878 118 109 110
134.9834 -5.7344 -52.7319 -0.017 -0.481 0.877 120 111 112
136.4317 -8.0197 -53.5176 -0.670 -0.704 -0.238 119 109 108
133.0264 -12.3932 -52.1198 -0.625 0.662 0.414 100 91 92
135.7518 -14.2982 -53.4878 0.035 -0.573 0.819 131 121 119
131.3547 -31.9152 -52.2348 -0.642 -0.723 0.255 193 202 217
131.7831 -32.2874 -52.4532 -0.641 -0.719 0.268 178 188 200
142.0143 104.4719 -51.3278 -0.903 -0.275 -0.331 56 84 43
124.9228 70.4959 -44.8035 -0.087 0.209 0.974 88 107 83
125.2906 67.3846 -45.1196 -0.340 -0.118 0.933 80 83 63
128.1975 53.6643 -47.1206 -0.302 0.331 0.894 123 122 117
127.9825 53.2448 -47.0382 -0.302 0.331 0.894 122 121 116
127.9891 52.0419 -47.0962 -0.049 -0.233 0.971 96 95 90
129.4863 51.9212 -47.8093 -0.061 -0.168 0.984 101 100 95
131.6036 52.0942 -48.8021 -0.128 -0.212 0.969 112 109 102
126.6046 21.3167 -47.8465 -0.426 -0.626 0.653 111 102 103
127.9003 14.1801 -48.7851 -0.912 -0.081 0.401 119 109 108
133.3110 11.3215 -51.4729 -0.760 0.646 0.063 126 116 115
132.8850 10.9854 -51.2870 -0.772 0.635 0.044 123 113 112
131.4933 9.9789 -50.6753 -0.436 0.452 0.778 108 98 97
134.4050 7.7372 -52.1538 -0.970 0.058 -0.235 120 110 109
133.8570 7.4049 -51.9100 -0.780 0.134 0.611 124 114 113
133.4019 -5.1210 -52.2676 0.068 -0.202 0.977 113 104 105
134.7752 -5.7146 -52.9437 -0.013 -0.492 0.870 116 107 108
134.7666 -11.7426 -53.2152 -0.420 0.591 0.688 107 98 99
133.7901 -12.7306 -52.7989 -0.685 0.581 0.440 109 101 102
133.5490 -29.4880 -53.4510 -0.934 0.215 0.287 162 169 179
133.0810 -32.6725 -53.3754 -0.629 -0.728 -0.275 178 187 200
141.6839 104.6722 -51.5373 -0.957 -0.267 -0.116 61 89 48
145.8525 108.1339 -53.3625 -0.948 -0.185 -0.257 61 89 48
145.9290 107.8134 -53.4134 -0.948 -0.185 -0.257 61 89 48
145.8167 107.3200 -53.3824 -0.950 -0.022 -0.311 61 89 48
144.4130 104.8813 -52.8255 -0.849 0.411 -0.331 68 96 55
134.3351 89.8248 -48.7159 -0.818 0.239 0.524 68 97 50
123.0507 70.1141 -44.2436 -0.621 0.744 0.246 76 92 67
124.4181 70.5191 -44.8754 -0.085 0.209 0.974 86 102 78
123.6907 56.5246 -45.1637 -0.298 0.588 0.753 84 84 73
128.1042 51.8697 -47.4732 -0.088 -0.206 0.974 103 102 97
127.7752 36.9466 -47.9930 -0.450 -0.636 0.627 108 104 103
125.9782 34.8388 -47.2341 -0.537 0.225 0.813 116 110 110
126.4049 16.1307 -48.2848 -0.873 -0.487 -0.018 120 105 108
128.6960 12.6894 -49.5301 -0.503 0.540 0.675 126 116 115
130.8107 3.0553 -50.9722 -0.856 -0.344 0.385 115 105 104
130.3619 2.7627 -50.7721 -0.917 -0.257 0.306 115 105 104
132.5453 -4.8116 -52.1535 0.063 -0.104 0.993 114 104 105
133.9440 -11.9312 -53.1412 -0.686 0.569 0.454 104 98 98
133.3022 -12.6756 -52.8697 -0.539 0.527 0.657 107 101 101
135.9442 -27.2149 -54.7849 -0.301 -0.640 0.707 180 183 190
133.5409 -29.4946 -53.7455 -0.946 0.185 0.267 165 169 178
141.6711 104.7881 -51.9015 -0.958 -0.258 -0.121 67 95 54
148.5838 110.3839 -54.9569 -0.950 -0.199 -0.242 67 95 54
146.2345 107.0502 -53.9829 -0.800 0.592 -0.096 68 96 55
123.5125 70.5460 -44.7530 -0.660 0.706 0.257 84 90 70
124.4751 66.3731 -45.4009 -0.349 -0.144 0.926 95 100 69
127.2062 56.8862 -47.1335 -0.160 0.213 0.964 80 80 72
126.3455 53.6863 -46.8655 -0.137 -0.279 0.950 118 117 115
124.5900 48.6231 -46.2532 -0.787 0.163 -0.595 113 110 101
124.4283 35.7147 -46.7557 -0.450 -0.575 0.683 107 103 102
124.7703 35.2840 -46.9386 -0.453 -0.582 0.676 103 99 98
125.1660 34.8703 -47.1465 -0.438 -0.585 0.683 116 110 110
127.6017 16.3790 -49.1423 -0.422 -0.755 0.502 120 105 108
131.0431 6.3804 -51.2376 -0.045 0.054 0.998 120 116 113
129.1690 2.7283 -50.5052 -0.945 -0.247 0.215 114 104 103
129.2292 2.4627 -50.5459 -0.945 -0.247 0.215 107 97 96
133.8989 -11.9202 -53.4258 -0.587 0.413 0.696 103 99 98
124.1442 66.2260 -45.5594 -0.298 -0.166 0.940 91 97 63
126.5192 56.2570 -47.1462 -0.172 0.149 0.974 81 81 71
125.8529 53.4820 -46.9490 -0.106 -0.130 0.986 120 116 115
126.1386 53.3428 -47.0927 -0.142 -0.290 0.946 121 115 115
126.3079 52.8396 -47.1966 -0.374 0.086 0.923 122 117 114
126.1736 52.4683 -47.1485 -0.472 0.453 0.756 115 110 107
126.0471 52.1022 -47.1039 -0.471 0.447 0.760 113 108 104
125.7998 51.6720 -47.0040 -0.471 0.447 0.760 113 108 104
127.9438 51.0170 -48.0650 -0.155 -0.439 0.885 117 114 107
124.7993 48.7953 -46.6506 -0.797 0.154 -0.583 112 109 100
127.1365 35.0811 -48.3860 -0.458 -0.566 0.685 121 115 115
124.7213 18.0278 -47.9828 -0.920 -0.009 -0.391 124 118 118
127.3553 16.3666 -49.3244 -0.431 -0.743 0.512 116 101 104
126.6538 14.8832 -49.0529 -0.805 -0.283 0.522 123 112 111
124.2271 9.2303 -48.1366 -0.975 0.203 -0.089 112 102 101
128.0340 9.1238 -49.9735 -0.308 -0.438 0.845 114 104 103
129.9668 8.7838 -50.9188 -0.308 -0.480 0.822 126 116 115
132.4449 7.0749 -52.1875 -0.263 0.120 0.957 117 108 107
129.9607 3.0545 -51.1709 -0.629 -0.604 0.490 119 109 108
132.0757 -3.6889 -52.4890 -0.102 -0.557 0.824 120 108 110
133.7879 -11.6331 -53.6667 -0.357 -0.487 0.797 107 101 101
130.7392 -12.6682 -52.2455 0.049 -0.531 0.846 111 107 106
131.1598 -12.9740 -52.4616 0.049 -0.531 0.846 116 112 111
131.2158 -15.3358 -52.5937 -0.162 0.329 0.930 110 107 98
131.0222 -20.9975 -52.7526 -0.752 0.131 0.646 133 124 118
137.3124 -28.8821 -56.1308 -0.882 -0.229 -0.412 178 180 192
131.4230 -29.7226 -53.3339 -0.755 0.480 0.447 153 154 159
131.3777 -29.9620 -53.3227 -0.759 0.477 0.442 147 148 153
131.7982 -30.3263 -53.5413 -0.906 0.406 -0.119 143 144 149
131.4948 -30.4959 -53.4029 -0.910 0.393 -0.132 134 137 142
131.2212 -30.6720 -53.2790 -0.906 0.411 -0.100 129 132 136
131.2252 -31.1734 -53.3032 -0.780 0.616 -0.105 134 139 142
130.8646 -32.0681 -53.1696 -0.506 -0.802 -0.319 173 178 180
143.0091 88.2402 -54.0324 -0.601 0.512 0.613 75 82 67
123.6358 66.8612 -45.5958 -0.258 -0.030 0.966 85 91 55
125.3124 48.5389 -47.2159 -0.940 -0.302 -0.157 99 97 85
121.6352 26.6499 -46.4013 -0.965 0.134 -0.226 120 114 116
124.0166 27.0909 -47.5348 -0.679 -0.425 0.599 120 114 116
123.3238 24.9912 -47.2920 -0.797 -0.277 0.537 111 107 104
128.7013 20.5491 -50.0916 -0.525 -0.780 0.340 123 113 114
129.4502 20.4312 -50.4594 -0.652 -0.695 0.303 123 113 114
126.3479 18.3919 -49.0473 -0.932 0.030 -0.361 125 119 119
125.5461 17.9585 -48.6782 -0.942 0.274 -0.192 117 111 111
126.1192 16.7161 -49.0105 -0.281 -0.773 0.569 117 105 107
127.2523 16.3801 -49.5739 -0.435 -0.744 0.507 119 104 107
126.3782 15.4086 -49.1936 -0.805 -0.283 0.522 122 107 110
127.5330 9.3637 -50.0194 -0.220 -0.441 0.870 113 103 102
129.8991 8.5273 -51.2019 -0.111 -0.471 0.875 126 116 115
128.7866 7.0583 -50.7280 -0.914 0.035 0.405 120 110 109
129.2724 3.0412 -51.1405 -0.590 -0.642 0.489 119 109 108
129.6732 1.9811 -51.3813 -0.686 0.013 0.727 115 105 103
126.6241 0.5604 -49.9677 -0.824 -0.172 0.539 122 111 109
127.1047 -0.2123 -50.2345 -0.667 -0.442 0.600 123 113 111
126.7946 -0.4780 -50.0961 -0.848 0.004 0.530 115 105 103
132.0313 -0.9494 -52.6523 -0.679 -0.677 -0.284 91 81 79
128.5482 -5.1889 -51.1529 0.111 -0.131 0.985 111 101 102
124.2651 -5.3030 -49.0843 -0.980 -0.046 -0.191 120 110 111
130.5467 -14.9874 -52.5528 -0.292 0.607 0.739 117 113 102
130.2155 -15.2047 -52.4020 -0.287 0.596 0.750 106 103 94
126.7248 -27.2847 -51.2449 -0.928 -0.083 0.363 171 172 177
126.7634 -27.5358 -51.2747 -0.728 -0.469 0.501 171 172 177
126.8895 -27.8094 -51.3478 -0.728 -0.469 0.501 172 171 177
131.7820 -29.5742 -53.7945 -0.741 0.490 0.459 164 165 170
131.5488 -29.7652 -53.6900 -0.745 0.482 0.461 159 160 165
131.4340 -29.9865 -53.6442 -0.745 0.482 0.461 154 155 160
131.6502 -30.5480 -53.7736 -0.916 0.386 -0.106 146 147 151
131.2470 -30.6891 -53.5846 -0.906 0.411 -0.100 143 147 150
131.0305 -31.1297 -53.4992 -0.866 0.496 -0.055 138 142 143
137.8244 97.5857 -51.4733 -0.821 0.363 0.442 69 95 56
118.5194 67.0730 -43.4046 -0.731 0.035 0.681 121 125 108
124.4282 47.2819 -47.1477 -0.913 -0.367 0.176 104 101 92
124.5456 47.0509 -47.2150 -0.982 -0.187 0.019 109 106 97
121.9687 26.7917 -46.8455 -0.960 0.105 -0.261 120 114 116
124.0506 27.1434 -47.8442 -0.680 -0.466 0.566 120 114 116
122.8680 24.9046 -47.3661 -0.983 -0.164 0.077 111 107 104
123.9703 23.5832 -47.9607 -0.220 -0.822 0.525 109 105 102
125.0187 17.8861 -48.7204 -0.928 0.362 0.094 109 103 103
124.8637 17.3178 -48.6698 -0.967 0.230 -0.107 102 93 94
126.3578 14.8949 -49.5034 -0.805 -0.283 0.522 108 97 96
128.2716 7.3063 -50.7673 -0.890 0.057 0.453 120 110 109
128.1580 7.0265 -50.7242 -0.894 0.055 0.444 120 110 109
129.1091 5.2114 -51.2668 -0.715 -0.620 -0.321 122 118 115
129.0729 3.0513 -51.3436 -0.605 -0.603 0.520 119 109 108
130.4031 -10.0010 -52.5621 0.124 -0.073 0.990 125 115 114
131.2779 -13.2387 -53.1297 0.044 -0.491 0.870 110 106 104
129.9440 -15.1667 -52.5643 -0.295 0.611 0.734 107 103 94
135.6103 -17.5211 -55.4271 -0.155 0.263 0.952 103 104 99
135.4858 -17.7742 -55.3775 -0.155 0.263 0.952 111 112 107
126.5357 -27.0037 -51.4218 -0.930 -0.079 0.360 172 172 180
126.4496 -27.7044 -51.4104 -0.921 -0.094 0.378 172 173 178
126.6196 -27.9890 -51.5057 -0.849 -0.072 0.523 170 171 175
131.1733 -31.4302 -53.8741 -0.810 0.572 -0.130 136 140 143
137.6591 97.5577 -51.7577 -0.821 0.363 0.442 76 101 62
137.5493 88.8334 -52.0818 -0.592 -0.793 -0.147 80 99 67
120.0609 65.6660 -44.5165 -0.063 0.071 0.996 80 84 58
119.5093 60.6371 -44.4641 -0.611 0.473 0.635 86 90 55
124.1421 52.4422 -47.0890 -0.127 -0.177 0.976 111 107 106
123.5739 48.0676 -47.0001 0.075 0.051 0.996 107 104 97
124.3684 47.3150 -47.4219 -0.983 -0.181 0.010 103 100 91
124.3299 47.0061 -47.4165 -0.988 -0.157 0.007 109 106 97
122.0331 43.8853 -46.4262 -0.852 0.099 -0.514 122 118 115
122.0075 43.5921 -46.4264 -0.855 0.099 -0.509 113 109 106
122.3912 35.4090 -46.9689 -0.167 0.166 0.972 106 102 101
123.8872 20.6342 -48.3418 -0.451 -0.833 -0.320 108 99 100
126.3160 16.5460 -49.7090 -0.262 -0.775 0.575 129 116 118
126.1464 15.1603 -49.6859 -0.805 -0.283 0.522 130 116 118
126.5301 13.8714 -49.9297 -0.709 -0.425 0.563 115 105 104
126.6266 13.6160 -49.9881 -0.703 -0.414 0.578 101 91 90
128.2373 5.1725 -51.1430 -0.745 -0.499 -0.443 122 118 115
129.4871 2.5512 -51.8689 -0.640 -0.591 0.491 106 96 95
128.7507 -1.4784 -51.6826 -0.590 0.411 0.695 96 86 84
128.5101 -1.7438 -51.5763 -0.586 0.402 0.704 100 90 88
125.7810 -2.5197 -50.2727 -0.750 -0.547 0.372 127 115 117
129.4058 -12.5144 -52.4816 -0.478 0.443 0.758 99 95 92
130.9226 -12.9327 -53.2429 -0.804 0.210 0.557 103 99 98
130.9897 -13.2024 -53.2875 -0.810 0.205 0.549 110 106 104
129.5766 -15.3740 -52.6892 -0.281 0.657 0.700 106 102 96
129.0056 -15.8112 -52.4283 -0.282 0.610 0.740 105 104 99
130.8551 -16.5812 -53.3679 -0.220 0.514 0.829 104 105 100
136.9168 96.2915 -51.8104 -0.712 0.500 0.492 73 99 60
121.5461 71.6187 -45.2933 -0.254 0.521 0.815 72 81 64
119.5326 60.7298 -44.7681 -0.639 0.452 0.622 86 90 57
119.4069 60.3577 -44.7221 -0.636 0.439 0.634 87 90 59
122.0990 56.5822 -46.2111 -0.304 -0.418 0.856 79 80 66
121.4008 48.7098 -46.2047 -0.278 -0.801 0.531 107 104 99
124.8513 47.6212 -47.9522 -0.982 -0.186 0.010 103 100 93
122.3495 43.5320 -46.8945 -0.851 -0.090 -0.517 97 93 90
122.5835 25.1742 -47.7977 -0.483 -0.876 -0.021 115 108 106
125.1338 22.0497 -49.1887 -0.956 -0.193 0.223 107 103 104
125.1455 21.5067 -49.2178 -0.999 0.052 0.014 111 107 108
126.1206 20.9128 -49.7239 -0.932 -0.331 -0.149 116 109 109
126.3698 20.6945 -49.8561 -0.944 -0.327 -0.037 119 112 113
127.8587 8.9358 -51.0945 -0.031 -0.590 0.807 115 108 108
123.8794 -7.2501 -49.8278 0.209 -0.510 0.834 119 109 108
130.2266 -13.3759 -53.2191 -0.799 0.199 0.568 114 111 106
129.7832 -14.6226 -53.0541 -0.287 0.616 0.733 130 126 117
129.5022 -14.8461 -52.9252 -0.260 0.600 0.757 125 121 112
129.2741 -15.0746 -52.8225 -0.260 0.600 0.757 118 114 105
128.2910 -16.4734 -52.3980 -0.145 0.480 0.865 105 106 101
128.7115 -20.3317 -52.7708 -0.998 -0.046 -0.044 135 127 123
128.9786 -20.8844 -52.9262 -0.978 -0.202 0.058 137 128 121
117.9652 63.1698 -44.1845 -0.764 0.426 0.485 85 91 57
117.8077 62.7723 -44.1233 -0.753 0.487 0.442 84 89 57
121.2449 63.7257 -45.7869 -0.522 0.378 0.764 80 86 52
120.8825 62.8877 -45.6428 -0.507 0.087 0.858 79 83 50
120.9347 48.8082 -46.2672 -0.275 -0.803 0.529 110 107 102
122.0462 47.6926 -46.8658 0.078 0.024 0.997 110 107 100
121.9202 25.2948 -47.7554 -0.449 -0.884 0.128 101 93 91
123.9549 21.5307 -48.9243 -0.969 -0.192 0.158 101 97 98
121.8397 17.3449 -48.0535 -0.957 0.139 0.256 124 114 112
123.8638 9.0529 -49.4095 -0.396 -0.720 0.570 105 99 99
124.3089 6.4957 -49.7389 -0.878 -0.479 0.019 108 97 99
124.8494 6.0202 -50.0271 -0.739 -0.671 0.055 101 93 91
125.0624 5.7761 -50.1431 -0.739 -0.671 0.055 107 99 97
125.1066 5.5183 -50.1759 -0.770 -0.635 0.066 112 104 102
125.8181 1.1278 -50.7153 -0.847 -0.530 -0.043 125 113 113
126.9494 -4.5732 -51.5186 -0.909 -0.101 -0.405 115 105 104
124.3970 -6.2667 -50.3251 -0.977 -0.032 -0.209 117 107 106
130.2106 -13.3692 -53.5094 -0.795 0.193 0.576 111 104 102
129.6800 -14.3475 -53.2879 -0.160 0.519 0.839 122 115 109
129.4281 -14.5753 -53.1727 -0.137 0.468 0.873 124 117 109
129.0044 -14.7802 -52.9713 -0.093 0.484 0.870 126 118 111
138.2245 -32.9128 -58.3135 -0.875 0.271 -0.400 152 156 159
140.2206 -34.0107 -59.3498 -0.878 0.255 -0.406 154 155 159
138.2385 86.8621 -53.5917 -0.131 0.553 0.823 75 95 63
117.7057 63.0650 -44.3535 -0.835 0.537 0.118 106 112 78
117.4584 62.6043 -44.2496 -0.822 0.557 0.115 90 95 63
120.6092 63.3661 -45.7889 -0.268 0.015 0.963 86 90 57
120.5437 63.0277 -45.7705 -0.271 0.004 0.963 86 90 57
118.2088 57.1576 -44.8532 -0.066 -0.337 0.939 79 86 45
119.7815 49.3731 -45.9653 -0.786 -0.588 -0.193 110 107 100
122.3440 44.4964 -47.4486 -0.726 -0.073 -0.684 120 116 113
122.3716 37.2163 -47.7689 -0.067 0.022 0.997 120 115 112
121.8250 25.3081 -47.9978 -0.449 -0.884 0.128 113 105 103
121.0012 23.4860 -47.6636 -0.573 -0.774 0.268 123 117 117
120.5493 23.1021 -47.4544 -0.936 -0.199 0.290 123 117 117
121.1613 17.2403 -48.0064 -0.882 0.279 0.380 124 114 112
121.5514 16.0177 -48.2525 -0.967 -0.254 -0.024 125 115 114
122.4766 15.9298 -48.7176 -0.598 -0.270 0.755 132 122 121
123.2218 13.6985 -49.1832 -0.216 0.187 0.958 120 115 111
123.0892 13.4151 -49.1290 -0.230 0.169 0.958 118 113 109
126.8571 3.5503 -51.4235 -0.459 -0.164 0.873 122 110 110
127.1794 3.3027 -51.5947 -0.480 -0.145 0.865 123 111 111
124.9128 -1.4504 -50.6644 -0.406 0.219 0.887 107 97 96
127.8296 -10.0276 -52.4802 0.195 -0.462 0.865 118 108 107
129.9034 -13.5907 -53.6645 -0.126 0.525 0.842 111 101 99
129.6836 -28.5708 -54.1856 -0.530 -0.832 -0.164 169 169 177
127.9570 95.3657 -48.4430 -0.863 -0.419 0.281 58 82 46
131.0528 86.9879 -50.3453 -0.288 -0.805 0.518 69 93 59
120.2206 71.7566 -45.5466 -0.164 0.506 0.847 68 76 60
115.4646 63.2264 -43.5164 -0.756 0.164 0.633 120 122 100
117.4806 62.6993 -44.5497 -0.822 0.557 0.115 95 101 67
117.7185 62.5823 -44.6740 -0.705 -0.045 0.708 89 95 61
117.8669 52.2552 -45.1791 -0.716 -0.211 -0.666 108 107 102
121.0947 51.8717 -46.8143 -0.678 -0.712 -0.181 104 102 88
121.0895 51.5830 -46.8237 -0.689 -0.701 -0.185 100 98 85
119.4830 50.1143 -46.0790 -0.835 -0.495 -0.241 96 94 82
119.7357 49.6937 -46.2234 -0.843 -0.477 -0.250 97 93 83
119.9879 49.5517 -46.3558 -0.834 -0.498 -0.238 111 106 100
120.8736 48.3389 -46.8507 -0.062 0.100 0.993 114 109 105
120.8539 35.2838 -47.3852 -0.274 0.097 0.957 111 107 104
120.7564 34.9732 -47.3493 -0.306 0.027 0.952 118 114 111
120.7193 34.6867 -47.3426 -0.225 -0.120 0.967 122 118 115
119.1766 19.4254 -47.2051 -0.510 -0.668 0.542 117 111 111
121.0264 17.7649 -48.2023 -0.388 0.150 0.909 131 121 119
121.0186 16.4659 -48.2526 -0.983 0.020 0.183 108 98 96
121.6557 16.0686 -48.5887 -0.964 -0.264 -0.029 125 115 114
123.3871 9.0487 -49.7501 -0.416 -0.725 0.550 105 99 101
123.7997 6.4966 -50.0634 -0.609 -0.784 -0.116 109 97 100
124.8094 1.9055 -50.7614 -0.650 -0.087 0.755 98 86 86
127.4313 0.9488 -52.1166 -0.179 -0.839 0.513 131 119 119
125.6023 0.6372 -51.2121 -0.211 -0.114 0.971 131 119 119
125.0430 -0.9214 -50.9965 -0.425 0.249 0.870 122 112 111
124.6159 -1.4368 -50.8037 -0.406 0.219 0.887 105 95 94
129.2602 -13.7723 -53.6479 -0.126 0.525 0.842 123 113 111
125.6600 -16.8348 -51.9696 -0.260 -0.620 0.741 124 118 118
125.9605 -17.1276 -52.1326 -0.267 -0.616 0.741 124 120 119
127.8182 -20.4258 -53.2020 -0.400 -0.786 0.471 130 125 121
128.2054 -20.7474 -53.4097 -0.400 -0.786 0.471 130 125 121
128.4296 -21.0402 -53.5343 -0.408 -0.786 0.465 130 125 121
127.8548 95.3851 -48.7281 -0.863 -0.419 0.281 51 77 40
137.4343 89.2906 -53.8135 -0.513 -0.850 -0.118 75 91 66
118.9616 70.8570 -45.2537 -0.164 0.506 0.847 89 92 78
116.7272 67.6617 -44.2582 -0.120 0.126 0.985 121 123 109
117.8318 63.3146 -44.9951 -0.831 0.544 0.114 108 112 79
117.7704 62.6983 -44.9895 -0.688 -0.244 0.684 93 97 64
120.6260 52.2433 -46.8622 -0.694 -0.700 -0.169 98 96 83
121.1711 51.4107 -47.1716 -0.669 -0.731 -0.132 96 94 82
119.8182 50.3678 -46.5320 -0.843 -0.487 -0.228 96 94 80
119.7780 49.7826 -46.5359 -0.843 -0.477 -0.250 98 94 83
120.0463 49.6492 -46.6768 -0.852 -0.466 -0.238 112 107 100
120.0629 49.3766 -46.6964 -0.851 -0.464 -0.246 112 107 103
120.7022 48.8771 -47.0397 -0.226 -0.823 0.521 118 113 109
120.4827 48.4769 -46.9454 -0.105 -0.716 0.690 119 114 110
120.3445 48.1214 -46.8904 -0.063 0.134 0.989 115 110 106
120.8668 32.6204 -47.7941 -0.588 -0.775 -0.232 126 121 118
121.1056 32.4362 -47.9222 -0.137 -0.347 0.928 121 116 113
120.8040 25.3621 -48.0621 -0.466 -0.881 0.082 107 99 97
119.3898 21.3142 -47.5157 -0.955 -0.194 0.224 118 114 115
119.3537 16.9384 -47.6782 -0.792 -0.207 0.574 110 100 98
119.3956 16.6916 -47.7095 -0.792 -0.207 0.574 112 102 100
121.5573 16.3418 -48.8147 -0.944 0.301 -0.133 128 118 117
121.5999 16.0894 -48.8466 -0.963 -0.270 -0.021 129 119 118
118.3947 9.9900 -47.4812 -0.813 -0.539 -0.220 117 111 111
118.5982 9.5203 -47.6033 -0.819 -0.532 -0.216 98 92 94
118.7710 9.2935 -47.6998 -0.819 -0.532 -0.216 94 88 90
122.1757 8.6795 -49.4431 -0.488 0.761 0.428 107 101 103
124.4873 2.4267 -50.8678 -0.570 0.289 0.769 111 99 99
124.0193 -2.4395 -50.8326 -0.035 -0.153 0.988 101 91 90
128.4227 -14.1846 -53.5395 -0.137 0.468 0.873 139 129 127
125.5756 -17.0680 -52.2220 -0.267 -0.616 0.741 125 119 119
126.1020 -17.6444 -52.5114 -0.267 -0.616 0.741 123 119 118
126.2442 -18.4108 -52.6148 -0.544 -0.128 0.829 125 121 120
127.1955 -21.5562 -53.2247 -0.925 0.327 0.195 134 129 125
126.4143 -29.4324 -53.1558 -0.509 -0.831 -0.226 160 160 170
127.9627 95.6061 -49.1116 -0.860 -0.359 0.362 46 69 34
131.3018 88.4390 -51.0994 -0.892 0.052 0.450 78 99 70
131.3419 88.1320 -51.1323 -0.796 -0.211 0.567 78 98 70
116.6801 69.7283 -44.4436 -0.219 0.490 0.844 77 81 67
114.6162 62.4864 -43.6923 -0.690 -0.547 0.474 107 110 80
117.8526 63.4097 -45.2971 -0.831 0.544 0.114 102 106 73
117.5494 62.9072 -45.1638 -0.826 0.551 0.120 97 101 68
119.9700 49.6727 -46.9334 -0.851 -0.464 -0.246 111 106 99
121.0648 49.1374 -47.5110 -0.682 -0.559 -0.472 117 112 108
117.4287 24.6820 -46.6656 -0.756 -0.459 -0.466 114 106 104
117.5542 24.4622 -46.7382 -0.631 -0.717 -0.297 109 101 99
119.0569 24.6365 -47.4938 -0.743 -0.652 -0.151 102 94 92
119.0877 24.3849 -47.5197 -0.738 -0.653 -0.169 104 96 94
119.5182 24.2456 -47.7438 -0.861 -0.398 -0.317 116 110 110
119.7415 19.6244 -48.0462 -0.735 -0.539 0.412 120 114 114
121.4806 16.0982 -49.0729 -0.539 -0.045 0.841 120 110 109
119.2340 12.1312 -48.0950 -0.930 0.366 -0.043 119 114 110
121.9994 8.6842 -49.6394 -0.514 0.796 0.318 104 98 100
121.7547 4.8431 -49.6723 -0.846 -0.089 -0.527 126 116 115
123.9242 3.1914 -50.8409 -0.393 0.580 0.713 125 113 113
124.2399 1.9196 -51.0531 -0.515 0.430 0.741 108 96 96
123.4316 -2.6743 -50.8308 -0.578 0.097 0.810 107 97 96
128.4746 -13.9301 -53.8504 -0.127 0.510 0.851 120 110 108
128.3996 -14.1779 -53.8225 -0.371 0.336 0.866 132 122 120
125.4878 -17.3005 -52.4724 -0.297 -0.612 0.732 119 113 113
125.6123 -17.5667 -52.5464 -0.273 -0.611 0.743 123 119 118
125.9980 -19.3583 -52.8154 -0.366 -0.007 0.930 121 117 116
126.0445 -19.6131 -52.8495 -0.367 -0.009 0.930 122 116 116
125.7340 -19.8038 -52.6997 -0.350 0.035 0.936 118 113 110
124.8637 -20.3771 -52.2814 -0.128 0.217 0.968 119 114 110
124.7702 -20.6023 -52.2432 -0.128 0.217 0.968 121 116 112
124.5959 -20.8113 -52.1633 -0.128 0.212 0.969 134 129 125
128.0155 95.0964 -49.4981 -0.800 -0.184 0.571 47 66 36
129.4580 95.7862 -50.2065 -0.868 -0.346 0.355 49 69 37
115.6902 68.7434 -44.2733 -0.140 0.392 0.909 100 99 86
117.6237 63.0399 -45.4912 -0.822 0.557 0.122 95 99 64
113.6511 52.6244 -43.8850 -0.836 0.470 0.283 111 109 97
113.8918 51.9695 -44.0344 -0.773 -0.014 0.635 84 82 70
120.6281 31.8173 -48.2888 -0.261 0.115 0.959 116 111 108
121.3398 22.6699 -49.0224 -0.993 -0.107 0.039 115 111 112
119.6060 17.5669 -48.3440 -0.862 -0.022 0.507 131 121 119
119.0622 16.6880 -48.1020 -0.408 0.179 0.895 109 99 97
120.3920 16.4386 -48.7909 -0.434 -0.231 0.871 120 110 108
122.7023 12.6846 -50.1222 -0.590 -0.770 -0.244 119 114 110
119.9775 10.4984 -48.8198 -0.806 -0.591 -0.031 117 111 111
124.0689 6.5875 -51.0667 -0.694 -0.719 0.034 117 105 108
124.5026 6.3639 -51.2971 -0.686 -0.683 0.252 108 98 98
121.9859 5.3880 -50.0519 -0.846 -0.081 -0.528 104 94 93
120.6794 2.5420 -49.5002 -0.751 -0.265 0.605 114 102 102
124.4120 -14.9272 -52.1128 -0.327 0.443 0.834 136 128 126
124.9954 -16.9776 -52.4936 -0.300 -0.587 0.752 107 101 101
124.8458 -17.2002 -52.4262 -0.291 -0.778 0.556 106 100 100
125.2330 -17.5065 -52.6363 -0.273 -0.611 0.743 111 107 106
123.8688 -21.1546 -52.0876 -0.168 0.376 0.911 133 128 124
128.5727 95.7461 -50.0975 -0.887 -0.311 0.340 51 67 41
129.3283 95.7813 -50.4840 -0.875 -0.351 0.334 58 74 47
127.2674 88.1501 -49.7318 -0.665 0.197 0.720 65 91 56
127.0713 87.6442 -49.6513 -0.652 0.199 0.732 65 91 56
116.5688 61.8017 -45.2949 -0.674 -0.023 0.739 89 93 60
118.7096 24.6158 -47.8843 -0.114 -0.634 0.765 102 94 92
119.9546 24.1840 -48.5408 -0.776 -0.435 -0.456 115 109 109
117.6006 20.7197 -47.4710 -0.937 -0.140 0.319 114 110 111
117.1280 20.0970 -47.2534 -0.987 -0.047 -0.153 103 99 100
119.1645 17.7630 -48.3925 -0.971 0.170 0.167 132 122 120
118.9168 16.9451 -48.2981 -0.938 0.329 0.105 105 95 93
118.7802 16.6629 -48.2393 -0.856 0.517 -0.012 110 100 98
120.3808 12.3600 -49.2334 -0.598 -0.784 0.166 119 114 110
118.8868 8.6342 -48.6158 -0.803 -0.549 0.232 104 98 100
121.4529 -0.8979 -50.3152 -0.114 -0.252 0.961 115 105 104
121.3372 -2.6314 -50.3253 -0.368 -0.205 0.907 107 97 96
124.2668 -9.4571 -52.1030 0.106 -0.144 0.984 104 94 93
124.4109 -16.6427 -52.4649 -0.300 -0.587 0.752 102 96 96
124.6379 -16.9221 -52.5926 -0.300 -0.587 0.752 102 96 96
124.6789 -17.1736 -52.6238 -0.280 -0.617 0.736 102 96 96
124.8560 -17.4466 -52.7256 -0.273 -0.611 0.743 107 103 102
125.0995 -17.7309 -52.8620 -0.269 -0.593 0.759 107 103 102
125.2606 -18.0029 -52.9556 -0.333 -0.356 0.873 107 103 102
125.6987 -19.5542 -53.2428 -0.857 -0.475 0.201 105 100 97
127.3823 95.7393 -49.8250 -0.759 -0.522 0.390 42 56 33
129.4623 95.6831 -50.9012 -0.840 -0.381 0.386 59 79 50
128.8742 88.3484 -50.8886 -0.469 -0.251 0.847 74 97 63
130.4138 88.0013 -51.6973 -0.442 -0.377 0.814 58 78 53
130.5149 87.7486 -51.7595 -0.442 -0.377 0.814 57 77 52
117.4301 26.0882 -47.4489 -0.807 -0.000 -0.591 114 106 104
117.9697 25.7355 -47.7416 -0.816 0.022 -0.578 106 101 96
118.2435 25.5584 -47.8900 -0.983 0.183 -0.032 106 101 95
118.3567 24.5537 -47.9882 -0.114 -0.634 0.765 99 91 88
118.5862 24.3600 -48.1144 -0.114 -0.634 0.765 97 89 86
120.1239 24.2706 -48.9120 -0.776 -0.435 -0.456 114 105 108
120.3032 24.0566 -49.0131 -0.776 -0.435 -0.456 120 111 114
117.3298 20.6879 -47.6113 -0.984 -0.086 -0.155 103 97 97
117.4094 20.4538 -47.6618 -0.985 -0.064 -0.161 104 98 98
117.4732 20.2157 -47.7041 -0.970 -0.238 -0.039 106 100 100
118.8013 17.9740 -48.4788 -0.929 0.149 0.340 126 118 117
119.0733 17.7764 -48.6271 -0.995 0.076 0.062 129 121 119
119.6082 17.6326 -48.9090 -0.990 0.123 -0.063 126 118 116
119.1684 17.0284 -48.7059 -0.875 0.482 -0.046 112 104 102
118.8438 16.4528 -48.5611 -0.875 0.482 -0.046 107 99 97
120.4601 -1.1397 -50.0936 -0.452 0.173 0.875 107 97 96
120.4035 -1.3858 -50.0741 -0.452 0.173 0.875 106 96 95
120.3471 -1.6314 -50.0547 -0.452 0.173 0.875 105 95 94
123.4360 -14.7926 -52.1718 -0.396 0.520 0.756 126 118 116
122.8355 -14.9553 -51.8682 -0.627 -0.552 0.550 122 114 112
124.2824 -16.8669 -52.6912 -0.300 -0.587 0.752 101 97 96
124.7967 -17.6822 -52.9891 -0.367 -0.453 0.812 107 103 102
124.9089 -17.9457 -53.0575 -0.357 -0.421 0.834 107 103 102
125.1249 -19.4537 -53.2288 -0.760 -0.100 0.642 107 106 102
124.8063 -21.5879 -53.1490 -0.099 0.366 0.925 135 130 124
124.6314 -33.9229 -53.5479 -0.559 -0.797 -0.230 195 207 224
129.8389 97.1954 -51.3826 -0.554 -0.430 0.713 59 72 52
129.4961 96.1777 -51.2445 -0.159 0.044 0.986 66 83 56
130.6548 95.5418 -51.8712 -0.224 0.226 0.948 65 89 55
128.5561 88.1776 -51.0704 -0.557 0.002 0.830 81 96 65
119.4733 65.7765 -47.2329 -0.847 -0.261 -0.464 88 92 59
119.3112 65.3652 -47.1649 -0.832 -0.313 -0.458 88 92 57
112.9465 55.8730 -44.2322 -0.974 0.183 0.132 84 87 70
114.6637 55.9214 -45.1220 -0.156 -0.305 0.940 86 88 77
118.1744 47.0032 -47.2954 -0.088 0.136 0.987 114 109 105
120.5040 24.1515 -49.4024 -0.753 -0.462 -0.468 121 110 116
117.9620 21.3925 -48.1906 -0.639 -0.769 0.004 109 103 103
117.6075 21.0472 -48.0200 -0.884 -0.219 0.413 106 100 100
117.2810 19.9506 -47.8935 -0.920 -0.161 0.356 110 104 104
