ply
format ascii 1.0
element vertex 843
property float x
property float y
property float z
property float nx
property float ny
property float nz
property uchar diffuse_red
property uchar diffuse_green
property uchar diffuse_blue
end_header
-51.8764 178.9656 -37.9844 -0.568 -0.712 -0.414 56 72 42
-51.4817 176.4599 -37.5578 -0.386 -0.752 -0.534 58 76 47
-49.5231 174.4987 -37.3638 0.812 -0.529 0.248 61 79 50
-47.3182 177.3925 -38.0819 0.127 -0.865 0.485 62 77 49
-47.4573 174.9673 -37.6249 0.110 -0.782 0.613 63 77 49
-45.3739 181.0275 -38.9140 0.885 -0.386 -0.258 64 77 48
-38.6397 194.3650 -41.9334 0.840 -0.483 0.247 69 81 52
-32.7644 185.7453 -40.8489 0.028 -0.508 0.861 76 87 62
-32.4905 184.9839 -40.7324 -0.407 -0.462 0.788 76 87 62
-24.7718 192.3073 -42.7310 -0.227 -0.763 0.605 69 79 52
-23.4371 194.5882 -43.2629 -0.179 -0.740 0.649 69 80 50
-25.1960 183.6523 -41.1062 -0.482 -0.318 0.816 69 80 50
-24.8340 183.2264 -41.0587 -0.482 -0.318 0.816 69 79 50
-22.6033 178.2689 -40.3376 -0.063 -0.090 0.994 127 133 117
-22.8617 172.4776 -39.2525 -0.665 -0.244 0.706 136 131 121
-22.6938 171.6635 -39.1173 -0.547 -0.276 0.790 131 124 117
-22.0741 171.9942 -39.2305 -0.505 -0.271 0.820 125 120 110
-19.5538 175.8183 -40.1462 0.179 -0.042 0.983 129 123 116
-10.0291 185.1431 -42.6654 0.126 -0.192 0.973 134 124 123
-8.4474 183.9662 -42.5834 0.213 -0.189 0.959 115 104 110
-7.6636 184.5534 -42.7576 0.216 -0.189 0.958 117 106 112
-6.7077 185.5183 -43.0158 -0.521 -0.233 0.821 118 107 113
-5.2682 186.3695 -43.2941 0.136 -0.157 0.978 112 101 107
-9.5290 173.6489 -40.5976 -0.632 -0.101 0.769 83 72 75
-2.7995 183.7249 -43.0178 -0.531 -0.126 0.838 65 56 56
-3.2884 180.4912 -42.3827 -0.660 -0.146 0.737 50 41 41
-3.5685 178.8256 -42.0532 -0.663 -0.147 0.734 48 38 38
-2.6536 178.5993 -42.0892 -0.623 -0.140 0.769 39 30 28
-2.9385 176.9594 -41.7640 -0.631 -0.144 0.762 37 29 27
-2.4722 176.8744 -41.7879 -0.628 -0.148 0.764 33 29 25
-2.0143 176.7729 -41.8081 -0.627 -0.146 0.765 32 29 24
-0.9183 174.9072 -41.5584 -0.642 -0.077 0.763 50 47 44
-1.2194 172.3251 -41.0589 -0.625 -0.100 0.774 69 66 61
-2.0509 169.7162 -40.5095 -0.028 -0.046 0.999 78 76 71
-1.6596 169.5226 -40.5071 -0.027 -0.047 0.999 85 87 74
-1.7910 167.3721 -40.1012 -0.172 -0.080 0.982 91 102 66
14.6664 158.6653 -39.8976 -0.072 -0.704 0.706 70 93 51
-335.2915 345.8705 -45.4707 0.256 -0.275 0.927 55 55 64
-346.6439 381.0073 -51.0447 -0.326 -0.146 0.934 121 128 123
-342.4198 375.6305 -50.4029 -0.317 -0.145 0.937 113 120 115
-231.4741 280.4044 -42.1064 0.546 -0.627 -0.556 10 15 8
-226.2050 274.6037 -41.4745 0.511 -0.622 -0.594 10 15 8
-224.3578 273.4331 -41.4136 -0.572 -0.672 0.470 14 19 12
-222.5545 270.7966 -41.0762 -0.502 -0.686 0.527 15 20 13
-231.6842 298.7389 -45.5002 0.655 -0.697 0.291 16 24 14
-263.3835 384.9064 -58.8417 0.178 -0.757 0.629 16 26 15
-265.9193 393.3950 -60.2058 0.028 -0.579 0.815 18 28 17
-183.2835 242.4633 -39.1394 0.673 -0.740 -0.007 44 55 38
-181.7821 255.4027 -41.6746 0.523 -0.676 0.519 36 48 28
-181.2542 255.7650 -41.7869 0.623 -0.652 0.432 38 47 28
-182.7556 262.8664 -42.9808 0.745 -0.614 0.260 38 47 28
-123.2829 174.0449 -31.5043 -0.325 -0.725 0.607 49 41 39
-113.8673 196.4445 -36.4720 0.154 -0.909 0.387 43 35 32
-112.6431 193.7121 -36.0675 -0.425 -0.733 0.531 47 39 36
-107.5955 195.2881 -36.7895 -0.130 -0.463 0.877 67 68 63
-105.9605 193.0589 -36.5136 0.047 -0.456 0.889 45 43 46
-105.4479 193.0356 -36.5528 0.047 -0.456 0.889 39 37 40
-104.4523 193.9574 -36.8088 0.327 -0.887 0.327 49 47 50
-103.0411 199.6220 -37.9827 0.410 -0.223 0.884 50 48 51
-102.0109 201.1008 -38.3454 0.418 -0.137 0.898 65 60 64
-94.9258 175.9582 -34.2687 -0.292 -0.863 -0.412 41 42 43
-86.7949 185.6599 -36.7645 0.310 -0.874 0.375 50 63 35
-71.4609 176.3481 -36.3342 -0.808 -0.521 0.274 61 78 42
-59.1021 177.5517 -37.6078 0.101 -0.980 -0.171 54 73 43
-52.0777 176.0955 -37.9334 -0.565 -0.725 -0.395 55 75 40
-49.7003 184.0280 -39.6114 -0.520 -0.695 -0.496 58 78 43
-50.3692 173.1233 -37.5255 0.812 -0.529 0.248 59 81 45
-45.8402 179.3278 -39.0647 0.882 -0.390 -0.265 64 81 44
-41.4283 184.4150 -40.3860 0.907 -0.311 0.285 68 85 49
-38.0985 192.5444 -42.1815 0.905 -0.343 0.250 69 86 50
-37.1264 186.8097 -41.1970 0.794 -0.465 0.393 68 87 50
-25.5270 182.7621 -41.4289 -0.479 -0.333 0.812 68 82 47
-25.0690 182.6070 -41.4390 -0.482 -0.318 0.816 70 81 48
-24.6811 182.2612 -41.4076 -0.389 -0.273 0.880 70 81 51
-24.0985 177.0021 -40.4785 -0.066 -0.089 0.994 71 78 60
-23.2264 176.6635 -40.4895 -0.067 -0.089 0.994 103 110 92
-22.5579 177.1005 -40.6276 -0.438 -0.225 0.871 120 124 107
-22.3199 171.3947 -39.5861 -0.624 -0.419 0.660 117 113 102
-21.6851 171.7619 -39.7084 -0.622 -0.417 0.663 117 113 104
-20.5160 172.2333 -39.8954 -0.564 -0.314 0.764 126 122 111
-19.4366 173.6758 -40.2555 -0.575 -0.311 0.757 126 122 111
-10.6364 183.7469 -42.8769 0.133 -0.195 0.972 135 125 124
-21.4630 157.6037 -37.0927 0.148 -0.192 0.970 135 125 124
-8.6422 183.5342 -43.0067 0.139 -0.152 0.979 122 111 115
-8.1596 183.4457 -43.0312 0.177 -0.142 0.974 122 111 115
-7.0451 183.6024 -43.1550 0.107 -0.120 0.987 127 116 120
-5.7896 179.5532 -42.5082 -0.739 -0.231 0.633 89 78 82
-5.5159 173.7098 -41.4441 -0.383 -0.155 0.911 51 39 42
-4.0961 173.5496 -41.5349 -0.655 -0.143 0.742 38 32 32
-3.1266 173.4903 -41.6062 -0.747 -0.146 0.649 37 33 33
-2.6790 173.3857 -41.6248 -0.746 -0.151 0.649 38 34 33
-2.8434 167.2059 -40.4609 -0.026 -0.048 0.999 74 75 64
-3.2788 165.4183 -40.0913 -0.099 -0.056 0.993 87 91 67
-2.7031 165.6037 -40.1746 -0.116 -0.055 0.992 86 95 61
-3.0254 163.1465 -39.6901 -0.207 -0.078 0.975 86 95 64
14.4404 158.2918 -40.2701 -0.068 -0.717 0.694 71 93 55
14.3904 157.4788 -40.1146 0.028 -0.745 0.666 74 96 58
-335.5569 346.0261 -46.3453 0.551 -0.660 0.511 64 66 79
-340.6320 372.4716 -50.9003 0.443 -0.332 0.833 77 87 77
-204.2973 210.0388 -31.8729 -0.814 -0.358 0.457 15 23 12
-230.0679 280.0595 -42.8836 0.529 -0.643 -0.554 14 22 11
-265.0290 390.8506 -60.8002 0.024 -0.571 0.820 24 35 21
-157.2862 143.3096 -23.2906 0.642 -0.640 0.422 27 40 23
-183.8402 275.2476 -45.9104 0.502 -0.641 0.580 49 58 37
-129.0296 157.0434 -28.2852 0.745 -0.647 0.164 52 37 40
-112.6396 192.9620 -36.4533 -0.460 -0.695 0.552 45 40 36
-110.2570 187.2277 -35.5748 -0.673 -0.733 -0.100 55 55 50
-106.9580 191.3887 -36.6402 -0.489 -0.767 -0.416 63 64 60
-105.4909 192.9603 -37.0614 0.500 -0.696 0.516 39 37 40
-96.8558 176.4678 -34.6863 -0.605 -0.724 -0.332 53 55 52
-50.3435 177.2769 -38.7973 -0.534 -0.715 -0.452 57 79 41
-22.7421 175.3533 -40.7836 -0.424 -0.232 0.875 105 108 91
-23.1906 171.6794 -40.0526 -0.632 -0.419 0.651 107 103 92
-22.8654 171.2669 -40.0025 -0.632 -0.419 0.651 111 104 94
-22.4818 171.0061 -39.9860 -0.624 -0.419 0.660 110 106 95
-22.0279 170.9236 -40.0091 -0.622 -0.418 0.662 114 110 99
-21.4334 171.1907 -40.1100 -0.624 -0.423 0.657 126 122 111
-21.1748 170.6258 -40.0255 -0.621 -0.421 0.661 126 122 111
-21.1257 169.5547 -39.8277 -0.634 -0.426 0.646 126 122 111
-20.8066 169.1536 -39.7792 -0.634 -0.426 0.646 129 122 112
-18.1043 174.5216 -41.0214 -0.637 -0.273 0.721 134 127 122
-11.2534 182.3282 -43.0766 0.133 -0.195 0.972 136 126 125
-9.3789 181.8755 -43.1508 0.136 -0.152 0.979 128 117 121
-8.9036 181.7797 -43.1731 0.164 -0.142 0.976 128 117 121
-12.9526 168.3184 -40.2901 -0.657 -0.230 0.718 134 123 127
-8.9602 173.8118 -41.6658 -0.739 -0.199 0.643 113 102 106
-4.5695 177.8011 -42.7918 -0.361 -0.118 0.925 72 60 64
-5.7873 173.1464 -41.8104 -0.412 -0.166 0.896 62 50 55
-3.8640 171.9955 -41.7570 -0.639 -0.152 0.754 44 38 41
-3.3001 171.1379 -41.6433 -0.625 -0.151 0.766 43 37 41
-2.8185 171.1133 -41.6797 -0.623 -0.145 0.769 44 38 39
-2.6137 170.5394 -41.5889 -0.622 -0.153 0.768 48 42 42
-4.1024 163.8133 -40.1938 -0.107 -0.057 0.993 69 72 51
-3.9958 162.1870 -39.8962 -0.774 -0.192 0.603 76 85 56
-3.6938 160.9639 -39.6913 -0.348 -0.862 -0.370 88 94 66
-2.9886 161.4115 -39.8357 -0.140 -0.958 0.249 105 111 84
-0.8744 161.8419 -40.0968 -0.311 -0.015 0.950 86 97 61
-0.8352 161.0409 -39.9491 -0.284 -0.018 0.959 82 95 55
0.9147 163.3965 -40.5422 -0.328 -0.011 0.944 81 96 52
0.6849 162.1024 -40.2786 -0.227 -0.028 0.973 81 96 52
15.6955 165.6214 -42.2197 -0.454 -0.888 -0.070 55 77 41
15.6693 164.0129 -41.9141 -0.584 -0.807 -0.093 48 70 34
15.9385 163.6704 -41.8724 -0.596 -0.798 -0.088 50 72 36
16.5269 162.3118 -41.6663 -0.180 -0.623 0.761 62 84 48
14.2321 157.9461 -40.6478 -0.068 -0.717 0.694 66 88 52
14.1825 157.1350 -40.4906 0.028 -0.745 0.666 68 90 54
-335.4050 345.5417 -47.1347 0.551 -0.660 0.511 101 103 116
-338.5472 368.8389 -51.3180 0.449 -0.331 0.830 50 61 47
-225.2732 249.6496 -38.2047 -0.450 -0.453 0.770 16 23 15
-229.9983 260.9407 -39.9591 -0.394 -0.372 0.840 16 24 13
-221.3778 243.9617 -37.4501 -0.782 -0.353 0.513 15 23 12
-232.0922 281.2852 -43.6677 0.654 -0.662 -0.367 20 28 17
-213.1113 251.2790 -39.5532 -0.168 -0.932 0.321 25 33 22
-213.2683 253.1049 -39.8887 -0.183 -0.947 0.265 25 33 20
-264.7109 389.7112 -61.6028 0.024 -0.571 0.820 29 40 26
-180.6326 253.1454 -42.6795 0.538 -0.791 0.293 50 59 38
-183.5517 264.9066 -44.6778 0.629 -0.593 0.502 49 58 37
-182.8499 266.9933 -45.1363 0.468 -0.744 0.477 49 58 37
-134.2738 171.1277 -30.9620 0.369 -0.521 0.770 55 47 45
-132.5143 173.8460 -31.6315 0.706 -0.524 0.476 50 38 40
-114.8703 194.7900 -37.1378 0.205 -0.954 0.218 40 35 31
-114.3703 194.9638 -37.2137 0.212 -0.953 0.217 41 36 32
-113.8636 195.0623 -37.2757 0.212 -0.953 0.217 41 36 32
-112.3290 195.1977 -37.4325 -0.948 -0.225 0.224 45 40 36
-107.5728 192.7307 -37.3667 -0.496 -0.766 -0.409 52 53 48
-106.1033 194.3899 -37.8090 0.267 -0.899 0.347 46 44 47
-105.5972 194.6481 -37.9015 0.277 -0.901 0.333 39 37 40
-39.3572 171.2496 -39.0797 -0.531 -0.592 0.606 73 89 53
-39.1403 170.3979 -38.9355 -0.585 -0.594 0.552 76 92 56
-23.4206 171.1132 -40.4127 -0.538 -0.288 0.792 91 89 76
-22.6923 170.4953 -40.3568 -0.439 -0.293 0.849 104 100 88
-21.9516 168.7272 -40.0821 -0.636 -0.189 0.748 126 122 111
-19.1382 170.8555 -40.7287 0.229 -0.189 0.955 138 128 127
-9.3466 172.9808 -41.9698 -0.756 -0.215 0.618 129 117 121
-5.5464 177.8932 -43.2324 -0.329 -0.132 0.935 114 102 106
-6.3653 171.9449 -42.0261 -0.437 -0.167 0.884 76 61 68
-2.8713 175.0258 -42.9127 -0.725 -0.162 0.669 49 43 47
-2.8589 174.0306 -42.7236 -0.659 -0.151 0.736 49 43 47
-3.1362 171.4644 -42.2096 -0.651 -0.148 0.744 48 42 46
-4.5879 166.6203 -41.1603 -0.158 -0.077 0.984 46 40 42
-4.4592 164.0417 -40.6786 -0.021 -0.051 0.998 46 44 38
-4.2867 160.7213 -40.0589 -0.359 -0.854 -0.376 76 81 59
-3.5426 161.2463 -40.2226 -0.337 -0.863 -0.376 91 97 73
-2.9038 161.5662 -40.3382 -0.262 -0.965 0.010 139 144 121
-2.4239 161.5830 -40.3824 -0.273 -0.962 0.020 131 136 114
-0.2557 158.6687 -40.0105 -0.269 -0.006 0.963 82 97 56
15.7006 164.0461 -42.3986 -0.584 -0.807 -0.093 36 58 22
15.8531 163.5164 -42.3104 -0.586 -0.805 -0.092 42 64 28
15.3293 161.9132 -41.9594 -0.113 -0.600 0.792 48 69 36
16.2362 162.5933 -42.1667 -0.149 -0.606 0.781 51 72 39
16.5506 162.3312 -42.1435 -0.178 -0.600 0.780 56 77 44
-367.2807 376.7022 -51.3110 0.013 -0.346 0.938 53 56 63
-359.2051 371.1732 -50.9308 -0.057 -0.972 -0.229 38 40 52
-333.6561 343.8426 -47.8237 0.489 -0.294 0.821 108 111 120
-334.0583 345.7036 -48.1496 0.477 -0.329 0.815 95 100 104
-333.9814 358.5168 -50.6364 0.445 -0.361 0.820 39 49 38
-238.7454 297.5038 -46.9645 0.168 -0.751 -0.638 25 33 22
-215.1246 254.2963 -40.6194 -0.357 -0.675 0.646 29 37 26
-168.8343 221.4926 -38.2253 0.129 -0.574 0.808 46 55 34
-168.1366 221.0250 -38.1944 0.116 -0.582 0.805 48 57 36
-167.5872 221.0603 -38.2482 0.116 -0.582 0.805 53 62 41
-166.7894 220.2356 -38.1568 0.126 -0.612 0.781 57 66 45
-114.2818 193.1762 -37.4059 0.149 -0.965 0.217 54 49 45
-113.6739 191.8656 -37.2041 -0.713 -0.674 -0.193 55 50 46
-113.0586 190.3690 -36.9670 0.006 -0.977 -0.215 57 52 48
-112.5921 190.8982 -37.1093 -0.338 -0.940 0.039 60 55 51
-111.1245 191.6578 -37.3818 -0.570 -0.678 0.464 55 53 48
-110.5788 191.0197 -37.3049 -0.583 -0.666 0.465 46 46 42
-107.6316 192.9995 -37.9400 0.190 -0.964 0.186 55 56 51
-107.1237 193.0877 -38.0004 0.190 -0.964 0.186 53 54 50
-106.5898 192.5567 -37.9433 0.136 -0.965 0.226 45 43 45
-106.0866 192.7574 -38.0251 0.180 -0.957 0.226 45 43 46
-105.5779 192.8390 -38.0844 0.180 -0.957 0.226 45 43 46
-104.4244 188.7120 -37.3841 0.143 -0.934 0.328 40 38 41
-103.4540 190.0151 -37.7193 0.173 -0.985 0.016 39 37 40
-102.6630 200.2275 -39.7636 -0.135 -0.957 0.257 44 39 43
-39.4037 172.7193 -39.8446 -0.512 -0.619 0.596 67 81 46
-38.8306 171.4386 -39.6457 -0.523 -0.629 0.575 71 87 51
-39.1244 168.9626 -39.1413 -0.628 -0.583 0.515 75 91 55
-39.5658 166.0589 -38.5416 -0.739 -0.601 0.304 74 90 54
-39.4238 165.0316 -38.3548 -0.757 -0.626 0.185 74 90 54
-39.1547 164.4159 -38.2587 -0.758 -0.625 0.185 74 90 54
-25.7849 172.6060 -40.9865 -0.456 -0.236 0.858 67 75 54
-27.0229 160.7891 -38.5933 -0.473 -0.307 0.826 81 77 66
-26.6191 160.6454 -38.6000 -0.470 -0.308 0.827 91 87 75
-22.2651 169.1609 -40.6204 -0.620 -0.190 0.761 108 104 93
-22.0253 168.5617 -40.5249 -0.625 -0.191 0.757 114 110 99
-21.6069 168.4070 -40.5307 -0.622 -0.189 0.760 124 120 108
-20.6668 168.3520 -40.6004 -0.012 -0.233 0.972 133 126 120
-18.7919 171.7018 -41.4090 0.017 -0.241 0.970 134 124 122
-18.0684 172.2589 -41.5787 0.018 -0.241 0.970 139 129 128
-16.1695 174.4182 -42.1589 -0.312 -0.317 0.896 143 133 132
-11.5648 181.6285 -43.9481 0.162 -0.194 0.967 142 132 131
-6.1033 176.7119 -43.4631 -0.332 -0.132 0.934 124 112 116
-5.6352 176.6300 -43.4872 -0.352 -0.108 0.930 120 108 112
-5.3987 161.2855 -40.5373 -0.716 -0.170 0.677 39 40 27
-5.3024 160.5636 -40.4058 -0.575 -0.814 0.084 43 47 31
-4.3827 161.4329 -40.6526 -0.773 -0.198 0.603 51 55 41
-4.1887 160.9036 -40.5667 -0.359 -0.854 -0.376 57 61 46
-3.4436 161.4294 -40.7322 -0.337 -0.863 -0.376 73 78 61
-2.4256 161.5736 -40.8471 -0.273 -0.962 0.020 127 131 115
-2.0211 158.8323 -40.3510 -0.272 -0.017 0.962 89 99 71
15.0688 161.4807 -42.3240 -0.113 -0.600 0.792 45 67 31
15.9854 162.1777 -42.5373 -0.149 -0.606 0.781 49 71 35
-354.8150 364.3636 -50.9008 -0.392 -0.228 0.891 33 35 47
-338.2862 345.7394 -48.6645 -0.387 -0.229 0.893 107 109 121
-222.9907 231.2825 -36.0956 -0.089 -0.513 0.854 25 35 24
-221.7689 248.2375 -39.5245 -0.058 -0.481 0.875 34 42 31
-238.8484 292.6843 -46.7766 0.264 -0.717 -0.646 36 44 33
-193.7737 198.6124 -32.1918 -0.503 -0.802 -0.322 32 40 29
-151.8544 104.2665 -17.2831 -0.432 -0.838 0.333 32 40 29
-169.2948 222.7922 -39.0287 0.100 -0.545 0.832 43 52 31
-123.2447 172.2815 -33.0683 -0.803 -0.506 0.316 42 34 32
-107.1845 182.2872 -36.4053 0.246 -0.857 0.453 55 56 51
-106.7032 182.3928 -36.4672 0.246 -0.857 0.453 53 54 50
-106.2933 184.2486 -36.8662 -0.006 -0.680 0.733 45 43 45
-106.0610 190.9155 -38.1932 -0.854 -0.502 0.136 45 43 46
-105.3140 184.3335 -36.9667 0.256 -0.752 0.607 45 43 46
-104.0013 189.9180 -38.1740 0.224 -0.880 0.418 44 42 45
-96.9729 176.4084 -36.1270 0.283 -0.168 0.944 58 64 40
-66.0802 163.4206 -36.2258 -0.462 -0.842 0.278 53 69 40
-38.8874 171.3015 -40.0994 -0.521 -0.629 0.577 68 82 47
-39.2475 165.6261 -38.9558 -0.724 -0.594 0.351 70 85 52
-27.1247 160.5491 -38.9984 -0.730 -0.669 0.136 75 71 60
-26.8014 160.2045 -38.9585 -0.730 -0.669 0.136 86 82 70
-26.6561 159.4191 -38.8169 -0.727 -0.679 0.101 93 89 78
-21.5831 167.3079 -40.7981 -0.526 -0.263 0.809 129 122 112
-20.3778 166.7541 -40.7927 -0.192 -0.391 0.900 141 131 130
-18.7922 169.3847 -41.4442 0.186 -0.196 0.963 147 137 136
-14.3100 177.6246 -43.4436 0.141 -0.208 0.968 144 134 133
-7.3753 175.0790 -43.5383 -0.288 -0.127 0.949 128 116 120
-7.0522 174.6972 -43.4911 -0.288 -0.127 0.949 127 115 119
-5.8404 175.1342 -43.6805 -0.330 -0.132 0.935 98 86 90
-5.2928 175.2266 -43.7455 -0.321 -0.123 0.939 93 81 85
-7.2234 169.1462 -42.3881 -0.666 -0.276 0.693 81 69 73
-6.5587 169.5091 -42.5161 -0.649 -0.187 0.737 76 65 69
-3.8908 168.9681 -42.6385 -0.668 -0.147 0.729 53 47 51
-3.6753 168.4253 -42.5505 -0.668 -0.147 0.729 53 47 48
-5.4522 160.2695 -40.7993 -0.578 -0.813 0.074 33 36 25
-4.3790 161.4350 -41.1197 -0.769 -0.198 0.607 33 35 29
-3.3442 161.6131 -41.2432 -0.337 -0.863 -0.376 34 37 27
-2.8371 161.6809 -41.3000 -0.273 -0.962 0.020 47 51 39
-2.4272 161.5643 -41.3122 -0.273 -0.962 0.020 58 61 52
-1.7351 161.0951 -41.2795 -0.265 -0.041 0.963 87 93 81
-1.8843 158.2206 -40.7031 -0.283 -0.017 0.959 100 113 86
15.8390 161.1711 -42.7992 -0.169 -0.611 0.774 60 82 44
-350.5825 356.5608 -50.6283 -0.342 -0.163 0.926 96 98 110
-339.8563 345.4229 -49.3369 -0.509 -0.282 0.813 128 130 142
-332.0658 339.6791 -48.8648 0.478 -0.315 0.820 105 108 119
-226.1447 238.5461 -37.8709 -0.348 -0.797 0.493 28 36 25
-261.3037 316.6848 -50.3702 -0.497 -0.493 0.714 28 35 27
-175.8955 167.6163 -28.0977 0.463 -0.674 -0.576 36 47 33
-169.1677 222.1039 -39.4946 0.100 -0.545 0.832 46 55 34
-148.8762 184.0373 -33.6767 0.267 -0.630 0.730 51 46 42
-123.2615 172.0430 -33.4928 -0.803 -0.506 0.316 42 34 32
-123.2716 179.2383 -34.9207 -0.275 -0.535 0.799 60 52 50
-106.7701 182.9142 -37.0664 0.245 -0.868 0.433 53 54 50
-106.3659 184.9316 -37.5017 0.049 -0.862 0.504 45 43 45
-105.8912 185.3987 -37.6352 0.069 -0.845 0.530 45 43 46
-102.1682 197.3985 -40.3374 0.127 -0.930 0.346 56 51 55
-29.2280 158.7038 -38.9121 -0.209 -0.835 -0.510 62 66 49
-28.0655 159.3440 -39.1390 -0.244 -0.854 -0.459 63 61 49
-27.1929 160.3945 -39.4224 -0.265 -0.856 -0.444 75 71 60
-26.7164 160.4352 -39.4714 -0.721 -0.692 0.034 85 81 69
-26.7788 159.1293 -39.2067 -0.729 -0.678 0.091 93 89 78
-21.7726 166.8613 -41.1716 -0.514 -0.261 0.818 116 109 99
-20.1684 169.5864 -41.8504 -0.518 -0.313 0.796 126 119 113
-19.4705 170.0979 -42.0118 0.030 -0.239 0.970 133 123 122
-19.4000 169.1035 -41.8204 0.170 -0.185 0.968 138 128 127
-16.1190 173.3923 -42.9535 -0.453 -0.336 0.826 138 128 127
-15.7769 173.0339 -42.9117 -0.453 -0.336 0.826 137 127 126
-4.7532 167.2460 -42.7083 -0.307 -0.136 0.942 53 47 49
-5.4215 164.9586 -42.1967 -0.268 -0.121 0.956 53 47 47
-5.6984 161.6098 -41.5080 -0.338 -0.903 -0.266 48 46 45
-5.3197 161.4308 -41.5049 -0.397 -0.899 -0.184 39 40 34
-4.5404 162.0281 -41.6904 -0.398 -0.916 -0.047 38 41 34
-4.1720 161.8284 -41.6824 -0.394 -0.918 -0.035 36 41 39
-3.6798 161.8675 -41.7324 -0.358 -0.926 -0.122 35 40 36
-3.0707 162.1285 -41.8364 -0.326 -0.868 -0.374 38 40 35
-2.8388 161.6716 -41.7656 -0.273 -0.962 0.020 37 40 35
-341.5916 345.3574 -50.0442 -0.383 -0.174 0.907 147 149 161
-338.2517 341.5611 -49.5680 -0.393 -0.181 0.902 145 147 159
-335.0521 337.9507 -49.1172 -0.394 -0.176 0.902 139 141 153
-326.4656 333.2589 -48.9120 -0.007 -0.384 0.923 41 46 52
-220.3613 233.6471 -38.0048 0.144 -0.959 0.244 33 40 32
-226.7788 249.3793 -40.6164 -0.569 -0.810 -0.141 33 40 32
-148.7859 183.4363 -34.0623 -0.194 -0.907 -0.375 50 45 41
-124.3671 173.0978 -34.0828 -0.825 -0.472 0.313 41 33 31
-123.7393 171.8468 -33.8853 -0.823 -0.469 0.319 41 33 31
-123.2784 171.8049 -33.9165 -0.803 -0.506 0.316 41 34 31
-109.2493 182.8630 -37.3461 -0.716 -0.653 0.247 48 46 43
-104.3305 181.6058 -37.5162 -0.819 -0.561 -0.119 56 53 56
-97.5322 173.5369 -36.4782 0.261 -0.193 0.946 53 60 31
-28.1482 160.3231 -39.7865 -0.453 -0.800 -0.395 57 60 44
-27.2888 161.3401 -40.0649 -0.444 -0.801 -0.402 61 61 48
-27.0183 158.5474 -39.5266 -0.734 -0.673 0.093 93 90 78
-18.8166 169.3519 -42.4043 0.190 -0.187 0.964 122 113 111
-17.3484 171.6723 -42.9971 0.199 -0.191 0.961 127 118 116
-7.2023 180.9942 -45.7438 -0.638 -0.528 0.561 133 122 126
-19.3154 153.3715 -39.1481 -0.405 -0.459 0.791 133 122 126
-5.0648 167.5909 -43.2325 0.298 -0.008 0.954 67 61 65
-4.5204 166.7436 -43.1089 0.141 -0.031 0.990 53 48 47
-6.0301 161.8792 -42.0010 -0.338 -0.903 -0.266 52 47 51
-5.6337 161.7323 -42.0056 -0.338 -0.903 -0.266 50 48 48
-4.7975 161.5265 -42.0361 -0.390 -0.920 -0.047 44 45 42
-4.6059 160.9888 -41.9444 -0.440 -0.898 -0.029 42 45 46
-4.1667 160.9302 -41.9704 -0.402 -0.914 -0.055 43 46 46
-3.7233 160.8799 -41.9984 -0.449 -0.888 -0.102 39 41 40
-0.9911 151.6149 -40.3703 -0.262 -0.020 0.965 74 94 58
-348.7764 349.7456 -51.1886 -0.336 -0.190 0.923 118 121 130
-348.1178 349.9762 -51.2923 -0.346 -0.191 0.919 125 127 139
-344.7053 346.1388 -50.8050 -0.346 -0.191 0.919 130 131 143
-207.7064 204.2669 -33.7247 0.215 -0.905 0.368 39 47 38
-220.3120 233.3433 -38.5581 0.120 -0.989 0.089 38 46 36
-223.3178 244.4624 -40.5629 -0.053 -0.865 -0.498 37 45 36
-192.2377 196.8217 -33.5416 -0.878 -0.450 -0.163 46 55 40
-168.9587 219.0104 -40.0642 0.116 -0.572 0.812 59 62 48
-168.5531 219.5155 -40.2020 0.125 -0.580 0.805 49 52 38
-146.7982 180.8990 -34.2145 0.246 -0.707 0.663 51 45 41
-123.3391 171.8967 -34.4028 -0.708 -0.515 0.483 50 46 39
-112.1448 169.1022 -34.7983 0.637 -0.771 -0.025 67 58 58
-109.2381 181.8618 -37.6463 -0.680 -0.667 0.304 53 47 47
-99.9244 174.8170 -37.0145 0.440 -0.219 0.871 55 57 51
-22.9757 163.9611 -41.4334 -0.504 -0.285 0.815 86 90 73
-21.1044 167.3501 -42.2846 0.131 -0.173 0.976 88 85 76
-19.4054 167.9659 -42.5563 0.190 -0.187 0.964 102 96 91
-22.8029 155.6185 -39.7499 -0.127 -0.430 0.894 122 116 111
-19.5078 153.9345 -39.6909 -0.415 -0.469 0.780 130 118 122
-19.5235 151.9531 -39.2862 -0.088 -0.407 0.909 130 119 123
-5.6685 164.4634 -43.0267 0.135 -0.030 0.990 59 53 56
-4.6974 165.4362 -43.3084 0.089 -0.013 0.996 58 52 56
-5.6493 162.6234 -42.6537 -0.405 -0.886 -0.225 58 52 56
-4.8786 163.2036 -42.8382 -0.808 -0.175 0.563 57 52 56
-4.6697 162.6858 -42.7508 -0.808 -0.173 0.563 53 49 51
-4.0428 162.9813 -42.8650 -0.801 -0.172 0.574 51 49 51
-2.7324 162.7617 -42.9332 -0.799 -0.173 0.576 46 45 49
-0.1551 150.7217 -40.7041 -0.197 -0.027 0.980 74 93 57
-340.1562 336.8482 -50.1551 -0.245 -0.158 0.957 142 146 154
-339.2863 336.7260 -50.2050 -0.224 -0.150 0.963 142 147 157
-167.5264 215.8029 -40.1106 0.193 -0.620 0.761 49 51 38
-149.8556 185.2915 -35.3478 0.459 -0.828 0.322 58 50 47
-147.5732 180.0014 -34.4546 0.351 -0.701 0.621 57 52 48
-123.3681 171.7497 -34.8435 -0.707 -0.518 0.481 52 49 40
-109.2732 181.6871 -38.1082 -0.680 -0.667 0.304 69 60 63
-26.7371 161.6010 -41.0934 -0.506 -0.808 -0.301 59 72 47
-26.4910 161.0531 -41.0017 -0.524 -0.803 -0.284 59 72 47
-18.5365 168.8918 -43.3039 0.199 -0.191 0.961 106 101 95
-20.4988 159.8994 -41.2812 -0.169 -0.378 0.910 119 114 108
-20.6582 158.4759 -40.9741 -0.105 -0.325 0.940 124 116 113
-6.1263 161.6834 -42.8896 -0.428 -0.887 -0.173 101 92 97
-5.8358 156.8454 -41.9176 -0.695 -0.156 0.701 46 40 44
-5.5950 156.4305 -41.8528 -0.701 -0.158 0.695 50 45 49
-5.0905 156.5168 -41.9142 -0.700 -0.204 0.685 46 40 44
-335.3761 328.4720 -49.6716 -0.279 -0.162 0.947 125 133 132
-335.6119 329.9442 -49.9583 -0.245 -0.156 0.957 134 143 141
-180.5856 230.1800 -42.5566 0.036 -0.666 -0.745 52 64 38
-165.5049 214.2528 -40.5385 0.172 -0.586 0.792 58 55 46
-163.0995 207.7932 -39.3991 -0.483 -0.303 0.822 60 55 49
-150.8277 169.7712 -32.5291 -0.733 -0.121 0.669 67 55 54
-150.6209 173.8582 -33.3995 -0.879 -0.221 0.422 66 55 53
-143.7621 159.5128 -31.0003 0.301 -0.951 0.072 61 53 50
-144.1990 175.4197 -34.2807 0.710 -0.701 0.072 65 61 50
-143.6791 177.1130 -34.6789 0.707 -0.705 0.055 60 56 46
-26.7226 160.4880 -41.3274 -0.698 -0.644 0.312 58 73 46
-27.2998 157.8933 -40.7362 -0.728 -0.681 0.072 58 74 47
-22.6961 154.8447 -40.4984 -0.096 -0.200 0.975 113 108 102
-20.7988 157.1197 -41.1371 -0.138 -0.364 0.921 123 112 115
-19.7731 150.4638 -39.8374 -0.206 -0.390 0.898 121 108 115
-7.3123 159.3516 -42.7692 -0.149 -0.026 0.988 112 100 107
-1.7752 148.6582 -41.0175 -0.200 -0.028 0.979 77 89 63
2.8933 152.0733 -42.1337 -0.261 -0.004 0.965 78 88 63
-181.4347 230.7382 -43.2116 -0.111 -0.625 -0.772 49 63 37
-151.3936 170.0008 -32.9927 -0.317 -0.741 0.592 70 56 55
-150.7449 169.2675 -32.8941 -0.282 -0.738 0.613 65 51 51
-149.0898 168.0558 -32.7817 -0.881 -0.222 0.418 62 48 47
-144.0805 158.9172 -31.2866 0.362 -0.924 0.125 65 57 54
-143.7833 161.0263 -31.7576 0.342 -0.938 -0.060 71 63 60
-103.2731 172.4360 -37.6775 -0.954 -0.280 0.105 54 45 48
-26.5048 157.6249 -41.2043 -0.411 -0.896 0.167 54 73 43
-25.0802 155.5912 -40.8984 -0.100 -0.101 0.990 89 86 77
-23.2781 154.5456 -40.8338 0.017 -0.147 0.989 101 98 89
-21.9332 153.5279 -40.7356 -0.132 -0.395 0.909 117 106 110
-20.1332 153.5580 -40.8979 -0.035 -0.314 0.949 123 111 115
-19.7281 153.4657 -40.9135 -0.035 -0.314 0.949 124 112 116
-20.1830 150.5319 -40.2548 -0.160 -0.397 0.904 123 110 117
-4.9608 152.5125 -41.9922 -0.307 -0.039 0.951 40 35 32
-180.4080 214.4911 -40.4424 0.758 -0.568 0.319 44 60 33
-181.0681 225.9996 -42.8437 0.725 -0.535 0.434 49 63 37
-144.1162 158.8464 -31.7067 0.362 -0.924 0.125 65 57 54
-131.4196 156.1150 -32.2259 0.423 -0.844 0.330 55 54 49
-114.4911 168.0475 -36.2453 -0.373 -0.903 -0.213 48 38 39
-114.0242 167.8541 -36.2445 -0.373 -0.903 -0.213 49 39 40
-113.7219 169.6120 -36.6463 -0.757 -0.641 -0.129 51 41 42
-112.6680 173.6475 -37.5999 0.245 -0.928 -0.282 68 59 60
-110.3218 173.3058 -37.7307 0.537 -0.806 0.247 60 51 52
-109.8671 173.4627 -37.8037 0.580 -0.710 0.400 62 53 56
-103.7302 170.8590 -37.7805 0.426 -0.843 0.328 68 59 62
-29.9828 147.9993 -39.3016 -0.767 -0.520 0.376 52 68 40
-25.2052 154.2361 -41.0489 -0.100 -0.101 0.990 79 76 67
-23.6478 153.6980 -41.0692 0.019 -0.146 0.989 100 97 88
-22.7433 153.7245 -41.1534 0.166 -0.189 0.968 108 103 98
-19.7740 155.3580 -41.7603 -0.235 -0.283 0.930 118 106 110
-20.4881 151.7992 -40.9380 -0.074 -0.315 0.946 122 110 114
-15.5675 145.6696 -40.0558 -0.221 -0.126 0.967 134 123 129
-5.3740 154.2523 -42.7747 0.226 -0.007 0.974 54 45 49
-330.3902 320.4957 -50.8761 0.386 -0.848 0.364 36 52 36
-181.5835 230.6857 -44.4130 0.703 -0.497 0.509 58 72 46
-179.4056 227.6168 -43.9392 0.685 -0.495 0.535 76 82 59
-132.0231 159.0050 -33.2320 0.577 -0.813 0.075 60 59 54
-132.3549 162.9821 -34.0628 -0.685 -0.410 0.602 54 53 48
-114.0076 167.1518 -36.5607 -0.354 -0.918 -0.178 47 37 38
-103.2938 170.2910 -38.1716 -0.875 -0.465 -0.134 69 60 63
-30.2208 147.4298 -39.5891 -0.794 -0.509 0.331 51 67 40
-25.6942 152.0364 -40.9787 -0.100 -0.107 0.989 76 73 64
-25.3402 151.8304 -40.9650 -0.100 -0.107 0.989 102 99 90
-20.6819 154.3435 -41.9136 -0.207 -0.303 0.930 110 98 102
-23.2181 147.7003 -40.2569 -0.067 -0.434 0.898 111 99 103
-19.9250 153.0432 -41.6984 -0.180 -0.381 0.907 113 101 105
-10.0661 150.4567 -41.9972 -0.258 -0.034 0.966 124 118 122
-328.0140 316.8027 -51.0895 0.708 -0.705 -0.044 47 63 47
-180.5311 220.6689 -42.9279 0.693 -0.525 0.494 57 71 45
-180.2054 221.3439 -43.1039 0.699 -0.548 0.460 62 76 50
-144.3857 177.1681 -36.5673 0.721 -0.690 -0.073 65 61 50
-131.5372 156.2205 -33.1070 0.634 -0.564 0.529 59 58 53
-131.5009 160.4638 -34.0381 0.772 -0.633 -0.059 60 59 54
-113.5427 171.8886 -38.1022 0.365 -0.652 0.664 46 37 38
-113.1348 172.5466 -38.2817 0.256 -0.616 0.745 51 42 43
-112.2722 173.3728 -38.5376 0.248 -0.586 0.771 61 52 53
-111.7904 173.1310 -38.5267 0.231 -0.584 0.779 61 52 53
-101.7721 161.7454 -36.9106 0.241 -0.569 0.787 57 60 53
-100.4557 161.9263 -37.0649 -0.105 -0.992 0.071 62 65 58
-100.0136 161.7794 -37.0714 -0.560 -0.828 -0.017 62 65 56
-25.8778 150.5790 -41.0866 -0.040 -0.128 0.991 97 94 85
-19.3750 154.2583 -42.4582 0.072 -0.555 0.829 113 101 105
-19.3612 153.3050 -42.2509 0.090 -0.570 0.817 113 101 105
-12.2102 148.0089 -41.7163 -0.440 -0.149 0.885 131 122 127
-11.1283 149.2560 -42.0834 -0.396 -0.156 0.905 131 122 127
-4.7797 151.9966 -43.2362 0.305 -0.009 0.952 54 51 46
-144.7173 174.4778 -36.4288 0.868 -0.487 0.091 59 55 44
-144.3794 174.9713 -36.5675 0.868 -0.488 0.095 59 55 44
-144.2022 178.1092 -37.2770 0.716 -0.694 -0.073 57 53 42
-143.0710 175.2506 -36.7436 0.624 -0.781 -0.002 57 53 42
-131.8570 155.4772 -33.3496 0.630 -0.567 0.530 56 55 50
-131.5013 155.7808 -33.4478 0.630 -0.567 0.530 59 58 53
-132.3321 162.3320 -34.8243 -0.692 -0.417 0.589 64 63 58
-131.5475 160.4479 -34.4761 0.772 -0.633 -0.059 71 70 65
-131.3107 161.4710 -34.7231 0.805 -0.592 0.035 69 68 63
-128.1487 155.6185 -33.7049 0.525 -0.822 -0.219 49 49 41
-128.2141 158.4305 -34.3211 0.411 -0.910 -0.048 49 49 41
-127.8796 158.9528 -34.4659 0.409 -0.911 -0.052 49 49 41
-102.1928 159.3673 -36.8019 0.349 -0.678 0.647 80 83 74
-101.7867 160.6511 -37.1213 0.533 -0.667 0.522 78 83 73
-101.3548 160.9201 -37.2186 0.533 -0.667 0.522 79 84 74
-100.4960 162.1130 -37.5575 -0.119 -0.990 0.073 65 70 60
-28.9602 148.4300 -40.7812 -0.417 -0.727 0.545 56 62 44
-28.6627 147.0741 -40.5072 -0.540 -0.217 0.813 56 53 44
-29.3840 144.3404 -39.8395 0.092 -0.968 -0.235 53 51 41
-28.9425 144.3864 -39.8883 0.090 -0.970 -0.228 51 48 38
-26.4522 149.2410 -41.1797 -0.040 -0.127 0.991 75 72 62
-25.8239 149.6918 -41.3343 0.014 -0.144 0.989 88 85 75
-25.3628 149.7490 -41.3872 0.008 -0.138 0.990 103 99 91
-23.7590 146.5083 -40.8105 -0.022 -0.138 0.990 100 88 92
-21.8893 148.7324 -41.4658 -0.028 -0.100 0.995 113 101 105
-9.8647 149.1408 -42.6068 -0.729 -0.122 0.673 130 121 126
-9.3986 147.5343 -42.2922 -0.728 -0.122 0.675 111 102 107
-5.8743 149.1754 -42.9631 0.306 -0.009 0.952 56 52 49
-144.4152 171.1474 -36.1893 0.173 -0.671 0.721 53 50 43
-144.4484 173.1322 -36.6304 0.867 -0.491 0.080 53 50 42
-144.1058 177.4531 -37.6270 0.722 -0.656 -0.220 54 51 42
-131.7120 154.4849 -33.5737 0.644 -0.595 0.482 50 51 45
-131.4880 155.4596 -33.8114 0.632 -0.587 0.507 55 56 50
-131.3624 161.4810 -35.1695 0.766 -0.642 -0.043 60 61 55
-130.5822 161.9147 -35.3348 0.769 -0.638 -0.029 45 44 39
-130.1283 161.7836 -35.3452 0.765 -0.644 -0.028 43 44 38
-128.2623 158.4319 -34.7587 0.411 -0.910 -0.048 50 51 43
-127.9280 158.9559 -34.9052 0.409 -0.911 -0.052 53 54 46
-126.9399 158.1061 -34.8016 0.697 -0.695 -0.177 50 49 44
-112.6728 171.3972 -39.0241 0.193 -0.605 0.773 48 42 46
-102.2115 158.5802 -37.0726 0.257 -0.549 0.795 71 81 60
-101.8097 159.9699 -37.4187 0.527 -0.665 0.529 71 82 58
-101.3864 160.5992 -37.5965 0.533 -0.667 0.522 71 82 58
-100.5349 162.2025 -38.0297 -0.140 -0.987 0.085 60 72 46
-100.0955 162.3698 -38.1056 -0.162 -0.966 0.202 60 72 46
-99.6458 161.5539 -37.9625 -0.555 -0.832 -0.013 60 72 46
-30.4396 143.8425 -40.0590 0.120 -0.986 -0.114 53 60 42
-29.7860 144.3996 -40.2408 0.092 -0.968 -0.235 50 52 39
-29.3407 144.4545 -40.2921 0.092 -0.968 -0.235 44 45 31
-28.8573 143.6048 -40.1443 -0.249 -0.865 0.435 48 50 34
-25.7972 147.7498 -41.3396 0.008 -0.120 0.993 97 96 84
-28.7876 138.9688 -39.1133 -0.492 -0.250 0.834 105 97 99
-25.0317 143.6820 -40.4965 -0.127 -0.117 0.985 110 100 103
-25.3843 141.9677 -40.0821 -0.205 -0.153 0.967 112 100 106
-25.4007 141.0125 -39.8670 -0.182 -0.146 0.972 113 101 107
-7.5305 144.5819 -42.2300 -0.245 -0.045 0.969 58 55 50
-7.9978 142.9692 -41.8283 -0.280 -0.053 0.959 58 55 50
-4.3336 143.3996 -42.2454 -0.285 -0.015 0.958 39 49 25
-144.0936 171.4365 -36.7540 0.416 -0.532 0.737 48 45 38
-143.9742 174.7094 -37.5050 0.712 -0.637 -0.294 48 45 38
-131.2837 154.1501 -33.9668 0.641 -0.573 0.511 50 51 45
-131.5755 160.0695 -35.2804 0.763 -0.643 -0.071 50 51 45
-131.3129 160.9470 -35.5020 0.777 -0.622 -0.095 46 47 41
-130.8815 160.9296 -35.5359 0.711 -0.689 -0.142 38 39 33
-128.3105 158.4335 -35.1967 0.411 -0.910 -0.048 38 39 31
-127.9364 158.7222 -35.2949 0.407 -0.913 -0.039 44 45 37
-127.0962 156.2274 -34.8041 0.774 -0.630 -0.065 49 50 44
-126.9967 158.1636 -35.2509 0.697 -0.695 -0.177 47 46 41
-102.2327 157.9050 -37.3648 0.442 -0.644 0.625 66 77 52
-101.4364 161.2278 -38.1864 0.679 -0.628 -0.379 64 77 49
-100.5722 162.1692 -38.4752 -0.140 -0.987 0.085 59 72 44
-100.1321 162.2849 -38.5400 -0.162 -0.966 0.202 59 72 44
-30.4228 143.8950 -40.4945 0.120 -0.986 -0.114 52 66 41
-29.0368 146.2027 -41.1382 0.067 -0.151 0.986 47 60 39
-28.9419 145.4133 -40.9679 0.014 -0.137 0.990 41 54 31
-28.5346 145.3708 -40.9940 0.010 -0.138 0.990 38 51 28
-28.9946 138.5046 -39.4002 -0.491 -0.250 0.835 82 84 81
-28.9729 137.6290 -39.2041 -0.415 -0.234 0.879 104 104 104
-25.7559 142.0761 -40.4924 -0.260 -0.093 0.961 109 108 111
-25.8627 140.0009 -40.0135 -0.198 -0.149 0.969 112 111 114
-25.4874 139.9183 -40.0278 -0.196 -0.150 0.969 108 106 109
-21.3994 142.4301 -40.9546 0.511 -0.213 0.833 119 109 117
-10.2950 145.8404 -42.7003 -0.707 -0.105 0.699 134 125 130
-4.6404 147.4156 -43.5527 -0.277 -0.051 0.960 51 45 41
-17.1688 98.0348 -31.2816 -0.408 -0.888 -0.215 67 93 48
5.9388 130.2379 -40.5944 0.351 -0.605 0.714 67 93 48
-172.4845 210.4055 -43.6459 0.092 -0.383 0.919 70 72 58
-171.9521 210.4156 -43.6950 0.092 -0.383 0.919 65 67 53
-130.8539 153.8024 -34.3559 0.634 -0.573 0.519 42 45 38
-129.8976 157.5959 -35.3078 0.122 -0.562 0.818 39 40 34
-128.3656 158.4749 -35.6436 0.192 -0.683 0.704 24 25 17
-127.8583 157.9790 -35.5747 0.187 -0.682 0.707 29 30 24
-102.2883 158.6381 -37.9731 0.583 -0.781 -0.225 60 71 45
-101.0677 163.1108 -39.1036 -0.840 -0.525 -0.137 58 71 43
-100.6142 162.4612 -38.9949 -0.547 -0.814 -0.193 59 72 42
-100.1723 162.5023 -39.0431 -0.551 -0.811 -0.196 59 72 42
-88.8959 141.6676 -35.2679 0.189 -0.981 -0.043 53 68 39
-88.0415 142.6994 -35.5790 0.123 -0.990 0.066 53 68 39
-30.7939 144.0278 -40.9149 -0.464 -0.214 0.860 54 74 39
-29.4891 144.1237 -41.0516 0.001 -0.140 0.990 41 62 34
-29.1054 144.0332 -41.0646 0.001 -0.140 0.990 37 58 29
-29.2144 138.0112 -39.6773 -0.491 -0.250 0.835 67 75 70
-29.3053 136.8832 -39.4113 -0.450 -0.252 0.857 92 99 97
-26.1062 142.2339 -40.9166 -0.105 -0.122 0.987 127 133 131
-24.6420 140.8630 -40.7317 0.415 -0.123 0.902 102 104 103
-23.8559 141.6640 -40.9840 0.415 -0.123 0.902 108 106 108
-23.1096 141.4717 -41.0056 0.424 -0.108 0.899 114 108 112
-22.2809 142.3458 -41.2784 0.422 -0.106 0.900 113 108 114
-21.5631 142.9753 -41.4855 0.422 -0.106 0.901 112 107 113
-22.8168 139.4503 -40.5689 0.472 -0.206 0.857 118 112 116
-21.6803 140.9640 -41.0151 0.469 -0.204 0.859 119 113 117
-9.6251 143.8791 -42.7416 -0.223 -0.047 0.974 115 105 104
-5.8534 145.2481 -43.3864 -0.278 -0.053 0.959 62 52 51
-5.5212 145.0693 -43.3747 -0.197 -0.051 0.979 53 44 42
-5.4660 144.4039 -43.2273 -0.178 -0.045 0.983 44 39 36
-5.6584 138.2094 -41.7932 -0.182 0.002 0.983 49 48 41
-5.3103 138.0946 -41.7976 -0.179 0.002 0.984 57 55 47
-3.9455 132.2621 -40.5832 -0.176 -0.005 0.984 71 83 62
-168.0750 186.3595 -39.0387 0.085 -0.810 0.580 65 74 57
-167.7727 186.8777 -39.1852 0.104 -0.800 0.592 65 74 55
-167.6218 187.8520 -39.4239 0.423 -0.674 0.606 65 74 55
-168.9325 193.1991 -40.5452 0.200 -0.784 0.588 67 73 58
-170.5467 199.5333 -41.8682 0.607 -0.659 0.444 70 73 62
-134.5656 155.6068 -34.8768 -0.559 -0.824 -0.093 55 56 51
-130.7410 152.9610 -34.6017 0.629 -0.575 0.524 36 39 32
-130.1390 154.1207 -34.9230 -0.437 -0.418 0.797 37 40 33
-128.4685 158.7933 -36.1509 0.005 -0.569 0.822 27 28 22
-127.9388 158.1718 -36.0538 0.192 -0.683 0.704 34 35 29
-121.3766 139.6105 -32.3384 -0.568 -0.768 -0.295 41 40 36
-100.0769 151.9263 -37.0631 -0.702 -0.687 0.190 59 72 42
-88.9169 141.8066 -35.7053 0.172 -0.985 -0.023 53 68 39
-88.0695 142.7126 -35.9895 0.137 -0.990 0.040 53 68 39
-31.0540 143.4104 -41.1725 -0.467 -0.213 0.858 56 78 40
-30.2717 144.2826 -41.4432 -0.528 -0.225 0.819 59 80 47
-29.3520 143.4610 -41.3341 -0.448 -0.270 0.852 45 65 33
-29.5543 137.2442 -39.8784 -0.483 -0.256 0.838 62 68 61
-29.5096 136.4273 -39.6933 -0.467 -0.254 0.847 76 81 76
-27.1789 140.7673 -40.9025 -0.341 -0.073 0.937 100 105 100
-26.9395 140.3747 -40.8327 -0.328 -0.115 0.938 126 131 126
-27.0068 138.3933 -40.3685 -0.256 -0.148 0.955 114 119 114
-27.6223 136.1392 -39.7929 -0.490 -0.291 0.821 111 116 111
-27.2682 136.0315 -39.7992 -0.219 -0.151 0.964 103 108 104
-22.7421 140.4836 -41.2276 0.422 -0.106 0.901 112 110 113
-22.8655 137.6311 -40.5570 0.413 -0.196 0.890 118 113 117
-9.1932 147.8949 -44.1352 -0.033 -0.046 0.998 133 122 126
-9.6866 143.7587 -43.1350 -0.215 -0.045 0.976 120 108 110
-9.9372 142.5160 -42.8255 -0.275 -0.055 0.960 113 101 103
-250.8447 239.4519 -44.6559 0.182 -0.863 0.471 42 65 36
-152.6232 166.3521 -36.2306 0.468 -0.802 0.370 66 62 59
-152.1497 167.7131 -36.5907 0.208 -0.928 0.308 68 58 57
-152.7690 171.3762 -37.3926 -0.217 -0.737 0.641 69 55 55
-145.1667 169.6563 -37.6613 0.770 -0.636 -0.038 57 52 49
-144.4451 179.8920 -40.1185 -0.588 -0.474 0.656 48 44 41
-136.8388 152.6400 -34.4172 0.590 -0.746 0.309 44 43 39
-137.3909 156.9023 -35.3652 -0.335 -0.913 -0.235 43 44 39
-137.0154 157.0876 -35.4416 -0.416 -0.840 -0.350 48 49 44
-137.1322 161.4569 -36.4530 -0.554 -0.816 0.164 53 54 49
-136.3134 159.6425 -36.1010 -0.430 -0.885 -0.180 51 52 47
-130.6215 152.0872 -34.8366 0.540 -0.804 0.250 35 38 31
-130.2559 152.3069 -34.9203 0.540 -0.804 0.250 35 38 31
-130.0222 153.2391 -35.1589 0.560 -0.619 0.551 36 39 32
-129.5017 157.1950 -36.1299 0.116 -0.562 0.819 36 37 31
-128.7675 157.8018 -36.3365 0.105 -0.572 0.814 28 29 23
-128.4708 158.5275 -36.5324 -0.003 -0.555 0.832 31 32 26
-128.0397 158.4837 -36.5602 -0.003 -0.555 0.832 32 33 27
-121.1902 140.6498 -32.9944 -0.545 -0.775 -0.320 40 36 33
-89.7240 142.0756 -36.1048 0.126 -0.935 -0.330 46 60 27
-88.9660 141.4479 -36.0249 0.147 -0.988 -0.038 41 56 27
-88.5924 141.0774 -35.9712 0.252 -0.938 -0.238 41 56 27
-31.5276 142.2758 -41.2875 -0.459 -0.213 0.862 57 79 42
-30.2423 141.3681 -41.1887 -0.478 -0.816 0.326 51 68 39
-29.8049 138.5430 -40.5667 -0.437 -0.298 0.849 46 62 33
-29.7091 137.8261 -40.4075 -0.433 -0.271 0.860 50 64 37
-29.6047 137.1368 -40.2555 -0.437 -0.272 0.858 64 69 57
-29.5362 136.3740 -40.0832 -0.478 -0.336 0.811 59 63 54
-27.4927 139.1424 -40.9109 -0.329 -0.116 0.937 95 98 89
-27.4507 138.3212 -40.7225 -0.330 -0.113 0.937 114 117 108
-28.0027 135.3069 -39.9690 -0.317 -0.113 0.942 112 115 108
-26.7347 136.3189 -40.3175 0.355 -0.156 0.922 101 105 96
-25.0525 139.0830 -41.1123 0.482 -0.145 0.864 98 98 94
-24.2132 140.0030 -41.4015 0.485 -0.146 0.862 98 94 97
-22.9877 137.3779 -40.8958 0.407 -0.191 0.893 116 114 117
-9.7316 143.6686 -43.5367 -0.287 -0.056 0.956 126 116 117
-10.1832 142.0581 -43.1202 -0.297 -0.055 0.953 124 114 115
-10.7303 140.2889 -42.6583 -0.409 -0.055 0.911 121 111 112
-7.0470 141.5980 -43.2894 -0.445 -0.050 0.894 63 55 56
-5.7596 137.3109 -42.4006 -0.379 -0.043 0.924 41 35 35
-5.6007 136.8812 -42.3141 -0.377 -0.042 0.925 39 36 35
0.6477 136.2862 -42.7264 0.084 0.012 0.996 77 91 53
-7.3289 120.8291 -38.4080 -0.683 -0.711 0.164 77 89 52
-250.7819 239.1581 -45.2193 0.182 -0.863 0.471 45 68 39
-152.0800 167.2707 -36.9550 0.214 -0.924 0.317 72 63 61
-136.2913 144.8989 -33.0630 0.007 -0.657 0.754 44 41 36
-136.5444 149.3736 -34.0983 0.710 -0.695 0.108 42 41 37
-137.4762 157.0534 -35.8312 -0.335 -0.913 -0.235 33 34 29
-137.0992 157.2339 -35.9073 -0.414 -0.864 -0.287 33 34 29
-136.1275 156.6107 -35.8459 -0.407 -0.860 -0.309 34 35 30
-135.8569 157.2877 -36.0298 -0.375 -0.838 -0.396 41 42 37
-135.2029 156.1829 -35.8265 -0.418 -0.863 0.284 46 47 42
-130.3285 152.4390 -35.3726 0.533 -0.805 0.260 46 49 42
-129.4220 154.1886 -35.8663 0.423 -0.532 0.733 39 40 34
-129.4607 156.6987 -36.4562 0.115 -0.562 0.819 33 34 28
-128.8255 157.8581 -36.7864 0.135 -0.553 0.822 26 27 21
-128.5195 158.5307 -36.9725 -0.003 -0.553 0.833 26 27 21
-128.0881 158.4868 -37.0002 -0.003 -0.553 0.833 26 27 21
-126.7247 166.0667 -38.9125 0.826 -0.495 -0.269 29 28 24
-124.2507 152.8413 -36.0051 -0.552 -0.810 0.196 31 30 26
-123.8422 152.8602 -36.0457 -0.592 -0.797 0.122 31 30 26
-120.3428 157.7560 -37.5124 -0.670 -0.575 0.469 52 47 44
-119.5013 157.8226 -37.6025 -0.559 -0.727 0.398 48 40 37
-119.0358 157.4858 -37.5641 -0.559 -0.727 0.398 48 40 37
-113.5344 162.7733 -39.3004 0.329 -0.852 -0.406 71 62 65
-31.2411 140.9763 -41.4251 -0.617 -0.694 0.371 60 79 49
-31.2775 139.9051 -41.1687 -0.462 -0.748 0.476 59 78 48
-30.5757 140.5906 -41.3928 -0.391 -0.799 0.457 57 78 47
-29.9090 141.1852 -41.5923 -0.223 -0.772 0.595 53 74 43
-27.7347 137.6948 -40.9595 -0.331 -0.111 0.937 80 87 71
-28.1257 135.9278 -40.5073 -0.216 -0.132 0.967 93 99 83
-26.0975 136.8263 -40.8990 0.484 -0.145 0.863 96 96 90
-25.1162 133.7796 -40.2656 -0.454 -0.260 0.852 118 112 116
-20.0860 141.6699 -42.5755 -0.310 -0.263 0.914 118 112 114
-19.5380 141.9323 -42.6860 -0.488 -0.207 0.848 121 112 115
-10.6481 141.1997 -43.2989 -0.749 -0.633 0.193 130 121 122
-6.0200 136.1634 -42.5177 -0.377 -0.042 0.925 28 25 24
-5.7182 135.9797 -42.5010 -0.339 -0.041 0.940 30 30 25
-5.4825 135.6872 -42.4527 -0.335 -0.040 0.941 34 36 31
-5.5014 134.9741 -42.2825 -0.333 -0.035 0.942 28 30 25
-4.1281 133.8831 -42.1460 -0.320 -0.013 0.947 112 114 109
-5.3635 124.4261 -39.8014 -0.104 0.016 0.994 80 94 60
-6.5251 122.0503 -39.1371 -0.587 -0.781 0.213 83 94 61
-5.9976 121.7057 -39.1023 -0.590 -0.758 0.279 80 96 58
-267.4608 263.8543 -50.2687 0.066 -0.980 0.187 50 75 45
-152.5400 167.1463 -37.3465 0.477 -0.800 0.364 80 76 73
-152.0956 167.1213 -37.3799 0.214 -0.924 0.317 77 68 66
-152.0455 168.4594 -37.7040 -0.191 -0.828 0.528 72 59 59
-152.7929 172.5981 -38.6266 0.026 -0.616 0.787 70 54 57
-141.5186 159.7394 -36.5534 0.617 -0.390 0.684 40 37 32
-137.5738 157.2581 -36.3101 -0.343 -0.910 -0.234 33 34 29
-130.4305 152.7254 -35.8602 0.537 -0.809 0.238 57 60 53
-130.1059 153.1772 -35.9969 0.525 -0.806 0.272 52 55 48
-129.4706 156.4866 -36.8438 0.607 -0.746 0.274 27 28 22
-128.3027 156.9990 -37.0697 0.010 -0.556 0.831 26 27 21
-127.9221 157.2324 -37.1592 0.001 -0.557 0.831 27 28 22
-125.7151 159.2905 -37.8464 0.832 -0.550 0.077 30 29 25
-120.3500 157.4606 -37.8846 -0.670 -0.575 0.469 46 41 38
-118.1792 160.7962 -38.8739 0.197 -0.970 -0.139 48 40 37
-94.5693 140.4157 -36.0967 0.254 -0.896 0.365 50 65 32
-30.0152 140.9456 -41.9430 -0.223 -0.772 0.595 56 76 45
-29.3804 141.4592 -42.1219 -0.405 -0.769 0.495 55 75 45
-29.8312 139.4475 -41.6014 -0.382 -0.248 0.890 55 75 44
-29.5130 133.7419 -40.2665 -0.372 -0.305 0.877 64 74 49
-28.4762 134.2745 -40.4856 -0.275 -0.121 0.954 96 105 83
-28.2937 133.8008 -40.3886 -0.272 -0.123 0.954 119 128 105
-24.4594 137.7221 -41.6651 0.476 -0.146 0.868 97 92 96
-25.1725 134.5014 -40.8325 -0.444 -0.269 0.855 107 102 106
-24.7442 134.5592 -40.8843 -0.403 -0.285 0.870 114 108 114
-21.6902 139.2192 -42.2682 -0.333 -0.257 0.907 113 108 112
-19.7926 141.4109 -42.9599 -0.488 -0.207 0.848 112 103 106
-11.4638 140.4683 -43.4727 -0.648 -0.584 0.489 136 126 127
-11.9630 138.7856 -43.0264 -0.657 -0.596 0.462 137 127 128
-11.2884 138.5005 -43.0181 -0.397 -0.054 0.916 137 127 128
-9.7400 133.2851 -41.9093 -0.248 -0.022 0.968 53 49 48
-5.6157 135.4524 -42.7925 -0.261 0.007 0.965 38 40 35
-5.4040 134.4465 -42.5709 -0.187 -0.003 0.982 18 20 15
-5.1975 134.1154 -42.5101 -0.174 -0.001 0.985 22 24 19
-3.2045 128.3528 -41.3100 0.301 -0.942 -0.150 85 98 70
-152.2795 166.0599 -37.5693 0.452 -0.830 0.327 85 81 78
-152.0327 166.7033 -37.7466 0.223 -0.926 0.304 78 70 68
-151.9103 167.7873 -38.0192 -0.202 -0.826 0.526 70 58 58
-149.8892 183.9194 -42.0937 0.697 -0.717 0.025 43 35 32
-141.5288 159.5624 -36.9549 0.596 -0.417 0.686 40 37 32
-138.2148 161.7681 -37.7817 -0.267 -0.745 0.611 33 34 29
-137.2913 161.4687 -37.7914 -0.723 -0.570 0.391 34 35 30
-136.9042 161.6601 -37.8720 -0.518 -0.802 0.298 41 42 37
-135.4780 158.9754 -37.3504 -0.570 -0.820 0.044 52 53 48
-130.7630 152.0785 -36.1037 0.500 -0.833 0.236 50 53 46
-130.4533 152.5939 -36.2557 0.537 -0.809 0.238 49 52 45
-129.4915 156.3354 -37.2444 0.618 -0.751 0.234 20 21 15
-121.9088 156.1351 -37.8693 -0.043 -0.797 0.602 44 42 38
-120.3571 157.1658 -38.2559 -0.670 -0.575 0.469 41 37 32
-117.7840 160.7372 -39.3466 0.313 -0.945 -0.092 48 42 37
-110.1890 151.7788 -37.8579 -0.382 -0.723 0.575 59 57 55
-94.9938 140.2919 -36.4334 0.211 -0.913 0.349 50 65 33
-94.6047 140.2071 -36.4475 0.245 -0.894 0.376 50 65 33
-93.3525 143.0099 -37.2354 0.058 -0.847 0.528 78 93 61
-29.7473 136.8339 -41.3911 -0.140 -0.203 0.969 53 63 33
-28.7713 133.6300 -40.7042 -0.274 -0.122 0.954 75 82 55
-28.6062 133.1214 -40.5960 -0.273 -0.122 0.954 103 109 83
-28.2875 132.9527 -40.5836 -0.115 -0.158 0.981 125 130 108
-23.7095 137.5808 -42.1075 0.464 -0.142 0.875 102 97 101
-25.1892 133.6295 -41.0221 0.404 -0.126 0.906 107 102 108
-22.7091 137.1113 -42.0829 -0.139 -0.244 0.960 108 103 107
-22.1050 136.6767 -42.0316 -0.134 -0.159 0.978 111 101 105
-22.3165 131.4065 -40.7404 -0.573 -0.304 0.761 131 120 124
-5.3773 135.1546 -43.1492 -0.351 0.005 0.937 33 35 30
-2.9058 128.8004 -41.8344 0.281 -0.946 -0.160 101 113 90
-2.5387 128.7576 -41.8567 0.276 -0.947 -0.166 97 109 86
4.6940 128.3381 -42.3975 -0.755 -0.530 -0.386 69 92 48
-152.2138 162.7398 -37.2247 0.158 -0.715 0.681 74 71 66
-152.2314 165.6964 -37.9446 0.331 -0.869 0.368 75 70 67
-152.0498 166.5599 -38.1714 0.223 -0.926 0.304 73 65 65
-151.8941 167.5273 -38.4213 -0.202 -0.826 0.526 71 60 61
-152.4378 170.9425 -39.2062 -0.527 -0.772 0.356 65 54 55
-152.8900 174.0941 -39.9350 -0.111 -0.687 0.718 60 48 50
-136.4832 159.4752 -37.8275 -0.854 -0.490 0.178 40 39 35
-135.7558 158.0589 -37.5467 -0.856 -0.488 0.169 44 43 39
-135.0004 156.4790 -37.2284 -0.792 -0.390 0.469 49 48 44
-131.5783 151.8370 -36.4002 -0.476 -0.872 -0.118 41 44 35
-129.4177 155.6603 -37.5253 0.494 -0.809 0.319 21 21 13
-129.0363 155.8607 -37.6081 0.494 -0.809 0.319 17 17 9
-128.7141 156.4035 -37.7692 0.354 -0.850 0.390 23 22 17
-128.2341 156.0527 -37.7263 0.716 -0.558 0.420 25 24 19
-127.8783 156.4184 -37.8472 0.716 -0.558 0.420 28 27 22
-127.4782 156.5336 -37.9109 0.600 -0.747 0.286 31 30 25
-121.4427 155.4653 -38.1871 -0.081 -0.790 0.608 47 49 41
-119.2216 154.4645 -38.1405 -0.703 -0.532 0.472 68 67 54
-118.1879 152.7867 -37.8231 -0.682 -0.718 0.138 61 59 49
-117.6746 151.9272 -37.6591 -0.282 -0.957 0.066 53 53 40
-117.7592 160.1137 -39.6490 0.227 -0.974 0.015 51 52 38
-112.2541 156.3046 -39.2093 -0.803 -0.518 0.295 55 61 44
-110.5006 149.8772 -37.7970 -0.729 -0.528 0.435 64 69 53
-95.0276 140.1443 -36.7987 0.211 -0.913 0.349 61 77 49
-92.5837 143.1069 -37.7390 0.150 -0.906 0.397 45 57 34
-92.1833 143.1526 -37.7858 0.150 -0.906 0.397 45 57 34
-30.4959 133.3298 -40.8766 -0.301 -0.149 0.942 63 73 39
-28.5810 132.3181 -40.8001 -0.270 -0.152 0.951 99 106 81
-28.5200 131.5967 -40.6295 0.355 -0.163 0.921 125 128 112
-28.0357 131.7937 -40.7206 0.466 -0.146 0.873 136 133 129
-27.2782 132.5723 -40.9780 0.467 -0.145 0.872 125 119 123
-26.6973 132.9666 -41.1259 0.476 -0.144 0.867 111 105 112
-25.8512 133.9172 -41.4331 0.476 -0.144 0.867 100 94 98
-24.9941 134.8801 -41.7443 0.476 -0.144 0.867 101 95 98
-24.1229 135.8616 -42.0612 0.474 -0.143 0.869 103 97 100
-22.0210 137.6877 -42.6938 -0.125 -0.149 0.981 103 97 100
-22.1793 135.6954 -42.1936 -0.134 -0.159 0.978 114 103 107
-19.3797 138.8701 -43.2172 -0.297 -0.134 0.945 128 117 122
-22.2860 130.6860 -40.9618 -0.697 -0.470 0.541 131 120 124
-21.9858 129.7385 -40.7573 -0.782 -0.443 0.438 131 120 124
-12.4392 137.1457 -43.4139 -0.412 -0.054 0.909 137 127 128
-11.9692 137.2506 -43.4813 -0.397 -0.055 0.916 137 127 128
-4.5863 129.2469 -42.1852 -0.045 0.020 0.999 140 151 134
-3.4222 129.8327 -42.4317 0.045 0.019 0.999 131 142 126
-2.2075 128.6436 -42.2496 0.104 0.015 0.994 94 105 87
-2.1576 128.1154 -42.1252 0.482 -0.825 -0.295 89 101 83
-159.7940 191.1294 -43.9998 -0.263 -0.886 0.383 68 67 62
-152.0748 166.4435 -38.6019 0.129 -0.908 0.400 64 61 57
-152.7998 170.4428 -39.5232 -0.228 -0.800 0.555 63 57 54
-152.5510 171.1267 -39.7140 -0.487 -0.778 0.397 62 54 51
-152.0116 170.8048 -39.6827 -0.487 -0.778 0.397 60 53 50
-151.3372 181.6961 -42.4280 0.741 -0.637 -0.215 52 43 44
-129.0383 155.6035 -37.9828 0.569 -0.772 0.283 25 25 17
-128.7292 156.2173 -38.1616 0.354 -0.850 0.390 19 18 13
-126.1003 160.8400 -39.5356 -0.886 -0.421 -0.196 27 27 19
-121.8906 152.3593 -37.8201 0.375 -0.902 0.214 49 52 43
-121.6016 153.2503 -38.0655 0.292 -0.918 0.269 53 56 47
-120.7927 153.3945 -38.1731 -0.241 -0.581 0.778 57 60 51
-120.7797 156.4711 -38.9328 -0.634 -0.423 0.647 57 60 49
-120.4009 156.8094 -39.0499 -0.675 -0.587 0.447 57 61 47
-118.7427 153.5965 -38.4056 -0.703 -0.532 0.472 74 75 61
-114.6576 163.5443 -41.2223 -0.755 -0.630 0.184 63 69 59
-112.1203 154.1724 -39.1379 -0.868 -0.460 0.185 58 66 43
-95.0614 139.9970 -37.1637 0.211 -0.913 0.349 55 71 44
-92.6209 142.9101 -38.0994 0.150 -0.900 0.409 44 56 34
-30.4919 132.4572 -41.0601 -0.368 -0.301 0.879 61 75 43
-30.2076 132.2121 -41.0251 -0.368 -0.301 0.879 66 79 47
