ply
format ascii 1.0
element vertex 849
property float x
property float y
property float z
property float nx
property float ny
property float nz
property uchar diffuse_red
property uchar diffuse_green
property uchar diffuse_blue
end_header
385.1038 149.8646 -57.3305 -0.747 0.261 -0.611 58 51 45
351.5958 126.3169 -51.2675 -0.861 0.163 -0.482 59 56 51
363.3466 129.2418 -53.9200 -0.770 0.638 0.020 41 38 33
358.2479 126.2599 -52.9381 -0.692 0.597 0.405 47 44 39
333.5631 101.2697 -49.2256 -0.337 0.715 0.613 49 41 38
344.7736 99.7429 -52.1820 -0.951 0.296 -0.087 62 52 51
380.1073 105.9816 -60.4099 -0.841 -0.226 -0.492 64 56 53
374.5275 98.7111 -59.7307 -0.937 -0.077 -0.341 48 42 30
363.9481 94.6374 -57.4848 -0.924 0.358 -0.131 54 48 36
342.5869 83.0746 -53.2794 -0.907 0.196 0.372 75 61 60
363.0653 87.9809 -57.9206 -0.611 -0.758 -0.230 75 61 60
359.2872 83.7291 -57.3946 -0.864 -0.459 -0.207 61 53 51
366.8226 82.6487 -59.3871 -0.828 0.104 -0.551 70 63 56
366.7758 81.9925 -59.4402 -0.828 0.104 -0.551 75 68 60
366.0301 81.1506 -59.3366 -0.804 0.497 -0.326 94 87 79
366.7172 80.6907 -59.5539 -0.811 0.145 -0.567 112 105 97
366.5393 79.3594 -59.6408 -0.811 0.145 -0.567 61 54 46
355.6444 72.8548 -57.5558 -0.773 -0.587 -0.241 71 62 55
370.4852 60.2702 -62.5118 -0.118 -0.242 0.963 51 47 38
393.4289 59.5172 -68.3285 -0.581 -0.364 -0.728 44 41 34
324.4860 35.5444 -53.4387 -0.449 0.477 0.755 48 45 40
351.3879 37.7644 -59.9527 -0.601 0.633 0.487 48 45 40
364.6552 28.5244 -64.1850 -0.607 -0.701 -0.376 27 24 17
363.3730 27.8288 -63.9327 -0.604 -0.742 -0.291 31 28 21
365.5368 26.7073 -64.5849 -0.685 -0.653 -0.324 43 40 33
363.6743 24.7538 -64.3115 -0.165 0.273 0.948 128 119 114
363.6879 24.1365 -64.3758 -0.150 0.183 0.971 106 97 92
366.3714 20.5093 -65.4053 -0.598 -0.185 -0.780 30 22 20
366.7705 19.8966 -65.5657 -0.598 -0.185 -0.780 40 32 30
367.1707 19.2821 -65.7265 -0.598 -0.185 -0.780 47 39 37
355.5902 13.6474 -63.3841 -0.204 0.736 0.646 40 35 29
349.2411 13.0576 -61.8532 -0.136 0.698 0.703 40 35 29
347.5360 10.1856 -61.7098 -0.317 0.198 0.927 35 34 42
274.3913 -13.6099 -45.7509 -0.937 -0.295 -0.185 172 180 191
273.5282 -14.6281 -45.6354 -0.952 -0.273 -0.136 151 156 161
258.0392 -15.8092 -41.8753 -0.163 0.454 0.876 147 148 152
240.4971 -19.0681 -37.8064 -0.358 0.554 0.751 117 127 132
237.2230 -18.5472 -36.9356 -0.189 -0.172 0.967 94 105 111
235.9982 -18.8264 -36.6566 -0.232 -0.159 0.960 107 119 131
235.8583 -19.0841 -36.6470 -0.368 -0.125 0.922 120 132 144
235.6914 -19.3339 -36.6299 -0.375 -0.148 0.915 147 159 171
235.1503 -19.4841 -36.5093 -0.447 -0.478 0.756 170 182 194
192.2513 -20.4401 -25.8668 -0.573 -0.508 0.643 196 206 215
190.7214 -20.5383 -25.4936 -0.954 -0.226 -0.197 181 191 192
190.9577 -23.0243 -25.7980 -0.838 0.171 -0.518 174 186 186
389.6051 263.1950 -48.0188 -0.421 -0.896 0.142 58 60 49
391.6858 264.2998 -48.4360 -0.414 -0.898 0.149 53 55 44
378.6296 229.4611 -48.5671 -0.538 0.273 0.797 87 87 75
399.0267 244.4008 -52.2520 -0.942 -0.144 -0.304 80 80 68
378.5292 225.0668 -48.9746 -0.909 -0.249 -0.335 76 74 62
365.6815 206.7006 -47.5358 -0.671 0.677 0.303 83 81 69
370.7674 208.4835 -48.6459 -0.386 0.007 0.922 80 78 66
387.2285 217.1766 -51.9511 -0.855 -0.446 0.264 87 85 73
386.6220 213.0560 -52.2037 -0.563 0.796 0.221 57 54 47
387.0360 207.4837 -52.8573 -0.364 -0.617 0.698 46 43 36
390.1442 208.9309 -53.5005 -0.497 -0.567 0.657 47 44 37
381.8739 195.9496 -52.6884 -0.826 0.436 0.358 84 77 69
381.6490 195.0817 -52.7171 -0.411 -0.245 0.878 83 76 68
381.8022 194.4683 -52.8162 -0.411 -0.245 0.878 83 76 68
363.5913 179.6038 -49.6766 -0.543 0.813 0.209 83 78 72
351.7478 167.9871 -47.8268 -0.305 -0.637 0.708 78 73 67
382.1475 183.9685 -53.9378 -0.235 0.488 0.840 73 73 65
358.2177 161.7479 -50.0771 -0.791 -0.585 0.178 82 79 72
379.2974 172.3085 -54.3659 -0.840 0.480 -0.253 70 67 60
361.7539 142.9359 -52.8242 -0.542 0.336 0.770 73 65 62
387.9893 155.0759 -58.2608 -0.588 0.695 -0.415 58 51 45
389.8805 155.3214 -58.7147 -0.687 0.663 -0.296 51 44 38
397.1259 154.5662 -60.6208 -0.745 0.133 -0.653 47 42 36
352.1266 128.5865 -51.8038 -0.833 0.330 -0.445 54 49 43
351.6857 127.7538 -51.7744 -0.791 0.385 -0.476 50 45 39
353.5514 127.3895 -52.2820 -0.918 0.353 -0.181 56 51 45
366.5998 120.3807 -56.2711 -0.304 -0.841 0.448 47 43 42
360.6885 111.5074 -55.6508 -0.383 0.310 0.870 48 43 40
379.1677 114.6743 -60.0105 -0.954 -0.253 -0.160 51 41 40
359.9719 101.6994 -56.4358 -0.971 0.069 -0.228 60 52 49
364.5371 102.6774 -57.4936 -0.987 0.160 -0.010 60 52 49
382.3027 107.5680 -61.5031 -0.934 0.223 -0.280 63 55 52
390.1762 103.9280 -63.8521 -0.893 -0.037 0.449 49 42 32
378.6635 99.5078 -61.3770 -0.952 0.000 -0.306 53 46 36
345.8533 87.1426 -54.3004 -0.565 0.435 0.701 76 65 61
378.9081 93.4845 -62.0322 -0.295 -0.213 0.932 75 61 60
355.6218 82.8004 -57.1977 -0.904 -0.328 -0.274 53 45 42
351.6647 81.0676 -56.3680 -0.900 -0.408 -0.154 54 46 44
367.3493 82.9067 -60.1521 -0.829 0.098 -0.551 78 71 64
365.4502 81.7496 -59.7859 -0.842 -0.496 -0.213 91 84 76
367.2216 80.2925 -60.3773 -0.811 0.145 -0.567 69 62 54
401.7692 81.3069 -69.0113 -0.557 -0.676 -0.483 57 50 44
389.7673 77.0988 -66.3916 -0.381 -0.924 0.033 43 39 35
368.4948 71.5784 -61.5576 -0.293 -0.901 0.319 42 39 34
376.4719 58.8108 -64.8319 -0.628 0.184 -0.757 56 52 43
377.2680 49.6963 -65.9311 -0.925 -0.140 -0.354 48 49 43
349.1203 35.2570 -60.2375 -0.561 0.605 0.565 44 41 36
349.8062 34.7325 -60.4625 -0.589 0.615 0.525 41 40 36
361.2063 28.3817 -63.9702 -0.757 -0.082 0.649 33 30 23
360.6239 27.7343 -63.8867 -0.798 -0.124 0.589 36 33 26
363.5251 26.6650 -64.7255 -0.606 -0.765 -0.216 48 45 38
361.4079 24.7126 -64.3826 -0.166 0.267 0.949 103 94 89
379.6731 18.3269 -69.6292 -0.405 -0.831 -0.381 54 46 44
344.2061 11.9752 -61.2885 -0.111 0.658 0.745 40 35 32
352.6479 -3.8730 -64.9839 -0.012 -0.556 0.831 32 35 42
353.5356 -6.2744 -65.4448 -0.876 -0.248 0.415 84 87 94
321.8071 -9.2955 -57.7212 -0.995 -0.096 -0.012 128 132 141
307.3546 -9.1625 -54.0544 -0.937 0.316 -0.146 112 119 129
274.5553 -13.6262 -46.2022 -0.802 -0.593 -0.073 172 180 191
273.1366 -14.1652 -45.8966 -0.955 -0.239 -0.177 174 178 188
275.5737 -15.3611 -46.6306 -0.729 -0.639 -0.246 133 136 141
276.0465 -15.8361 -46.7969 -0.729 -0.639 -0.246 124 127 133
262.1764 -17.6973 -43.4737 -0.816 0.487 0.311 153 154 158
259.4725 -21.3581 -43.1508 -0.526 0.700 0.484 150 158 161
241.0491 -18.2873 -38.1907 -0.642 0.584 0.496 141 148 154
240.7384 -18.5178 -38.1349 -0.648 0.602 0.468 150 157 162
238.6916 -18.6179 -37.6273 -0.260 -0.067 0.963 152 160 163
235.2497 -18.9281 -36.7877 -0.373 -0.132 0.918 122 132 142
235.2124 -19.2107 -36.8061 -0.375 -0.148 0.915 148 158 168
234.9915 -19.4445 -36.7733 -0.461 -0.472 0.751 170 180 190
190.7433 -20.5598 -25.6969 -0.954 -0.232 -0.192 181 191 192
192.1247 -23.1970 -26.3059 -0.752 -0.101 0.652 168 180 180
192.1262 -23.3837 -26.3246 -0.777 -0.058 0.627 172 184 184
191.5474 -23.3066 -26.1707 -0.890 -0.209 0.405 175 187 187
191.2776 -23.7358 -26.1448 -0.855 0.358 -0.376 189 201 201
387.7940 264.1168 -48.2106 -0.490 -0.869 0.070 65 67 56
394.7564 268.1130 -49.5953 -0.542 -0.836 -0.088 47 49 38
376.0668 233.3573 -48.2413 -0.653 0.715 0.250 83 83 71
394.5052 244.8547 -51.8186 -0.761 0.450 0.468 92 92 80
377.4286 228.7432 -49.0428 -0.749 0.511 0.422 77 77 65
399.9596 243.0915 -53.3847 -0.886 -0.261 -0.384 65 63 51
387.9270 230.5397 -51.5467 -0.970 0.232 -0.079 47 45 33
387.7120 229.6282 -51.5815 -0.970 0.232 -0.079 54 52 40
379.0476 217.8195 -50.5305 -0.825 0.494 0.276 76 74 62
375.9307 214.7301 -50.0385 -0.860 0.424 0.284 76 74 62
370.3556 208.4061 -49.2369 -0.523 -0.043 0.852 67 65 53
382.8017 209.7970 -52.2780 -0.565 0.785 0.254 59 56 49
370.3601 199.4130 -50.1224 -0.630 0.767 -0.120 55 52 45
384.6833 205.3323 -53.1976 -0.856 -0.517 0.029 49 46 39
382.6152 203.1582 -52.8833 -0.875 -0.483 0.025 49 46 39
378.6961 194.0250 -52.7808 -0.619 0.767 0.171 81 74 66
378.9904 193.5141 -52.9062 -0.571 -0.249 0.783 82 75 67
378.6930 192.6051 -52.9197 -0.635 -0.625 0.454 82 75 67
365.2315 176.1903 -51.0968 -0.417 -0.558 0.717 74 69 63
379.0550 183.6420 -53.8936 -0.451 -0.559 0.695 70 67 60
363.3688 165.0341 -51.7184 -0.827 -0.305 0.472 77 74 67
379.8615 174.2543 -55.0228 -0.763 0.351 -0.543 72 69 62
395.2298 180.4813 -58.3345 -0.820 0.312 -0.480 52 49 42
356.7744 145.6401 -51.9419 -0.689 0.411 0.597 53 55 41
353.7467 141.4802 -51.5779 -0.665 0.667 0.336 59 60 47
355.9157 141.9897 -52.0816 -0.506 0.493 0.708 68 65 56
389.4967 156.7581 -59.2038 -0.616 0.163 0.771 71 66 62
351.7714 129.8159 -52.2207 -0.848 -0.140 -0.510 48 47 42
348.3978 121.4361 -52.1834 -0.342 0.795 0.500 74 67 59
350.5653 119.9551 -52.8825 -0.665 0.696 0.270 80 77 70
349.8651 119.0280 -52.7949 -0.668 0.692 0.276 80 77 70
358.6646 119.7420 -54.9715 -0.210 -0.907 0.365 40 35 31
342.3119 106.1770 -52.1301 -0.636 -0.264 -0.725 60 56 53
353.1555 108.6766 -54.6531 -0.625 -0.373 -0.686 36 32 29
381.4971 108.1164 -61.9449 -0.951 -0.081 -0.300 58 50 47
338.8079 85.6128 -53.2578 -0.669 0.283 0.687 64 56 51
330.6271 81.3429 -51.5889 -0.541 0.582 0.607 75 64 62
376.3270 89.4838 -62.4572 -0.563 -0.680 0.470 53 45 42
354.9489 82.7213 -57.6636 -0.805 0.268 -0.530 52 44 41
369.1922 84.8259 -61.0935 -0.691 -0.429 0.581 54 46 44
369.4494 84.2455 -61.2163 -0.691 -0.429 0.581 54 46 42
365.5294 82.5262 -60.3844 -0.820 -0.523 -0.231 55 48 41
365.5371 81.8868 -60.4493 -0.842 -0.496 -0.213 75 68 60
348.0045 70.5979 -57.0828 -0.628 -0.699 0.342 52 45 37
372.1882 49.7337 -65.3097 -0.853 -0.282 -0.440 53 54 48
351.8678 35.5808 -61.5131 -0.445 0.501 0.743 41 41 34
358.0541 28.2554 -63.8131 -0.771 -0.558 -0.307 38 35 28
363.2411 27.3328 -65.2283 -0.556 -0.821 -0.130 50 47 40
361.4695 26.6194 -64.8460 -0.536 0.015 0.844 55 52 45
360.1352 25.9372 -64.5724 -0.433 0.449 0.782 72 65 59
380.6263 21.0407 -70.2862 -0.598 -0.405 -0.691 62 57 53
364.9898 -5.3237 -68.8865 -0.080 -0.606 0.792 34 36 41
352.7950 -6.1814 -65.8570 -0.877 -0.231 0.422 85 86 91
339.3618 -6.7524 -62.4831 -0.771 -0.447 -0.454 150 153 160
336.3058 -9.1961 -61.9431 -0.749 -0.570 0.337 127 130 137
307.4384 -9.1506 -54.5677 -0.937 0.316 -0.146 113 120 130
311.1464 -10.5343 -55.6506 -0.317 -0.948 -0.012 172 176 187
274.5895 -13.6210 -46.6197 -0.802 -0.593 -0.073 172 180 191
272.3994 -13.6458 -46.0629 -0.883 0.005 0.470 173 179 191
272.2447 -14.3885 -46.0965 -0.671 0.172 0.721 157 161 169
276.3652 -15.8831 -47.2956 -0.849 -0.433 -0.302 133 136 144
262.1663 -17.6905 -43.8478 -0.920 0.295 0.257 144 147 152
236.8360 -18.4518 -37.4549 -0.216 -0.105 0.971 149 156 161
234.9200 -18.8445 -37.0043 -0.382 -0.142 0.913 146 155 164
234.8659 -19.1221 -37.0177 -0.388 -0.128 0.913 166 175 184
234.5706 -19.3357 -36.9633 -0.461 -0.472 0.751 178 187 196
235.1776 -20.0803 -37.1916 -0.528 -0.846 0.079 175 184 193
191.9814 -23.1466 -26.4634 -0.752 -0.101 0.652 168 180 180
191.9932 -23.3378 -26.4852 -0.777 -0.058 0.627 172 184 184
191.5746 -23.3333 -26.3779 -0.851 -0.069 0.520 175 187 187
191.5228 -23.4944 -26.3805 -0.866 -0.086 0.493 185 197 197
191.4505 -23.8303 -26.3951 -0.848 0.379 -0.370 190 202 202
357.5814 236.9755 -43.8261 -0.485 -0.855 0.185 63 66 55
392.4486 267.8649 -49.7846 -0.657 -0.694 -0.294 55 58 47
401.0317 270.1066 -51.7779 -0.521 -0.781 0.344 58 60 49
372.1306 224.7037 -48.7829 -0.596 0.604 0.529 67 67 55
373.0507 224.7433 -49.0163 -0.650 0.415 0.636 64 64 52
375.7051 223.3244 -49.8401 -0.910 -0.380 -0.167 74 72 60
390.1620 232.5535 -52.6620 -0.863 -0.471 -0.183 47 45 33
389.7777 231.5025 -52.6661 -0.832 -0.551 -0.071 54 52 40
382.0252 223.2466 -51.4776 -0.947 -0.319 0.030 76 74 62
403.1127 235.6794 -55.6948 -0.597 -0.757 0.265 72 70 58
400.7966 233.1385 -55.3470 -0.732 -0.593 0.337 70 68 56
402.5047 232.8744 -55.8134 -0.704 -0.666 0.246 63 61 49
361.3461 200.5074 -48.3776 -0.447 0.059 0.893 56 54 42
375.8286 204.2755 -51.7423 -0.617 0.781 -0.092 56 51 45
365.7145 192.9049 -50.2506 -0.687 -0.716 0.125 55 53 48
373.7074 197.8472 -51.8265 -0.778 -0.569 0.267 55 53 48
368.7376 193.6674 -50.9553 -0.822 -0.503 0.268 55 52 45
370.4713 194.1919 -51.3509 -0.819 -0.489 0.302 55 52 45
376.7870 197.8926 -52.6162 -0.701 -0.495 0.514 55 51 42
360.2167 177.1231 -50.3824 -0.539 0.815 0.212 60 55 49
351.2859 170.6111 -48.7188 -0.542 0.812 0.214 65 60 54
372.4797 179.6653 -53.2951 -0.360 -0.529 0.769 69 66 59
374.9353 180.5328 -53.8432 -0.399 0.352 0.846 68 68 60
374.0010 178.5532 -53.7966 -0.606 -0.519 0.602 69 70 62
367.9794 161.2609 -53.9417 -0.742 0.662 0.106 67 69 58
362.7697 156.2809 -53.0872 -0.737 0.672 0.071 80 82 71
371.6402 157.2354 -55.2810 -0.281 0.694 0.663 68 72 57
357.1879 147.9608 -52.4647 -0.352 -0.923 0.155 76 83 65
357.6437 146.9233 -52.6841 -0.696 0.394 0.600 58 62 45
356.7766 145.8121 -52.5696 -0.707 0.401 0.583 41 45 28
354.7476 140.2730 -52.5902 -0.859 -0.381 -0.342 71 66 63
377.5012 145.9074 -57.9046 -0.571 0.812 -0.121 51 52 46
360.1374 136.6124 -54.3396 -0.263 0.645 0.718 52 51 47
357.5789 128.9601 -54.4311 -0.721 0.531 -0.445 74 67 59
350.7758 120.1949 -53.5374 -0.532 0.728 0.432 80 77 70
349.1978 118.8767 -53.2599 -0.532 0.728 0.432 80 77 70
361.8264 118.0274 -56.5999 -0.484 -0.034 0.874 56 52 51
344.6865 106.6655 -53.2955 -0.650 -0.245 -0.719 56 55 51
356.1945 110.0127 -55.9345 -0.615 -0.293 -0.732 29 28 24
372.1460 106.3021 -60.4123 -0.760 0.135 -0.635 57 49 47
378.3678 107.8390 -61.8659 -0.926 -0.191 -0.325 63 55 53
384.5705 109.3377 -63.3182 -0.956 -0.065 -0.286 67 59 57
388.4420 106.4611 -64.5991 -0.296 0.882 0.366 47 44 38
398.9719 103.4193 -67.6131 -0.949 -0.313 0.029 63 54 54
338.2964 82.6808 -54.0027 -0.764 -0.632 -0.130 63 55 54
346.3114 84.5351 -55.8875 -0.640 -0.618 0.457 59 49 48
371.5144 90.8567 -61.7660 -0.086 -0.480 0.873 60 50 49
377.9316 90.7439 -63.4319 -0.577 -0.675 0.461 43 38 35
376.0214 89.5189 -63.0596 -0.571 -0.676 0.466 43 38 34
366.9854 82.3923 -61.4292 -0.782 -0.622 -0.024 50 46 37
366.8047 81.6983 -61.4507 -0.911 -0.082 -0.404 45 41 32
368.0791 81.3915 -61.8095 -0.955 -0.254 0.153 36 32 23
369.9194 81.2271 -62.3002 -0.892 -0.438 0.113 39 35 26
370.2140 59.2147 -64.5375 -0.255 -0.601 0.757 52 51 41
339.3439 41.8217 -58.2846 -0.336 -0.603 0.723 50 51 41
361.8430 26.7033 -65.5710 -0.495 -0.047 0.868 54 52 44
367.9438 24.5097 -67.3596 -0.570 -0.764 -0.302 86 80 74
393.2565 20.7814 -74.2532 -0.653 -0.732 -0.193 57 53 49
362.6069 -5.1130 -68.8919 -0.003 -0.572 0.820 32 30 37
339.4253 -6.7279 -63.0725 -0.975 0.060 -0.216 147 150 157
335.9794 -8.5946 -62.3672 -0.639 -0.622 0.453 135 138 145
336.4304 -9.7236 -62.5943 -0.642 -0.636 0.427 126 129 136
307.2103 -8.6317 -54.9520 -0.929 0.330 -0.167 123 127 138
310.9721 -10.4925 -56.1048 -0.322 -0.947 -0.006 172 176 187
313.1891 -11.2413 -56.7500 -0.322 -0.947 -0.006 172 176 187
274.6237 -13.6158 -47.0381 -0.802 -0.593 -0.073 173 179 191
271.1659 -14.1939 -46.2032 -0.416 -0.027 0.909 158 162 171
276.6354 -15.9215 -47.7832 -0.996 -0.069 0.057 147 150 159
262.1010 -14.7990 -43.9250 -0.187 0.387 0.903 134 138 149
236.6211 -18.1023 -37.6787 -0.982 0.090 -0.164 151 155 158
235.8982 -18.2164 -37.5035 -0.969 0.142 -0.201 150 155 160
234.9822 -18.2778 -37.2733 -0.951 0.296 -0.091 147 153 161
234.8984 -18.5486 -37.2783 -0.951 0.296 -0.091 141 150 159
234.8147 -18.8190 -37.2832 -0.951 0.296 -0.091 146 155 164
234.7227 -19.0867 -37.2858 -0.959 0.200 -0.199 165 174 183
234.5690 -19.3376 -37.2708 -0.947 0.199 -0.250 178 187 196
234.8349 -19.6995 -37.3749 -0.839 -0.328 -0.435 175 184 193
235.5119 -20.1730 -37.5960 -0.540 -0.834 -0.111 175 184 193
192.9442 -20.7636 -26.6768 -0.832 -0.506 -0.227 192 203 210
191.7231 -23.0443 -26.5859 -0.743 -0.145 0.653 168 180 180
191.7984 -23.2639 -26.6268 -0.785 -0.031 0.618 173 185 185
191.4995 -23.3134 -26.5546 -0.863 -0.126 0.490 176 188 188
191.5145 -23.5051 -26.5773 -0.863 -0.126 0.490 187 199 199
191.4661 -23.6677 -26.5808 -0.879 -0.149 0.454 190 202 202
399.5474 269.0875 -52.2688 -0.803 0.554 0.218 64 69 58
396.0773 264.4574 -51.8190 -0.710 0.683 0.171 76 82 70
378.1863 234.9158 -50.0558 -0.885 0.335 -0.324 53 56 45
368.7560 220.8250 -48.9812 -0.719 0.329 0.613 52 52 42
372.6745 223.2774 -49.7613 -0.926 -0.359 0.118 50 50 38
386.8950 228.7584 -52.9272 -0.954 -0.269 -0.133 66 64 52
382.2585 224.4055 -52.1465 -0.927 -0.164 -0.337 75 74 62
394.2989 229.9809 -54.7354 -0.912 -0.370 0.177 76 74 62
402.0298 234.3379 -56.3216 -0.698 -0.659 0.282 64 62 50
402.4239 233.8562 -56.4714 -0.698 -0.659 0.282 61 59 47
349.5250 181.0469 -47.8724 -0.931 0.239 -0.277 61 56 50
350.0345 180.1331 -48.0947 -0.701 0.712 -0.034 60 55 49
350.6965 178.6833 -48.4092 -0.908 0.142 -0.395 69 60 53
373.5280 189.5726 -53.2875 -0.433 -0.430 0.792 70 63 57
373.7166 189.0026 -53.3924 -0.430 -0.431 0.794 68 61 55
361.8960 178.4307 -51.3505 -0.564 0.795 0.225 69 64 58
355.8127 170.5373 -50.5401 -0.408 -0.646 0.645 100 95 89
371.7351 177.3315 -54.0205 -0.797 0.127 -0.590 96 96 88
385.3888 181.5894 -57.1587 -0.207 0.491 0.846 73 74 66
361.7365 165.0896 -52.6167 -0.708 -0.096 0.700 79 76 69
368.9132 164.0170 -54.5908 -0.931 -0.037 -0.362 67 67 59
368.6388 161.8292 -54.7338 -0.741 0.664 0.098 69 71 60
364.4802 158.1007 -54.0163 -0.691 0.699 0.186 76 78 67
381.6082 162.9374 -58.0026 -0.418 -0.778 0.469 77 81 67
389.5202 153.5241 -60.9857 -0.246 0.547 0.800 81 78 73
367.9956 136.0098 -57.0972 -0.584 -0.541 -0.605 53 51 45
360.6383 129.9085 -55.7794 -0.710 0.543 -0.449 67 60 52
332.8927 112.9207 -50.2192 -0.724 0.616 0.312 81 77 68
351.4990 120.6643 -54.3055 -0.510 0.661 0.551 81 76 70
357.6835 117.7084 -56.2058 -0.533 0.009 0.846 54 50 49
358.7719 117.5323 -56.5065 -0.526 0.012 0.850 60 56 55
346.7957 111.2757 -54.0011 -0.910 -0.402 -0.102 58 54 53
375.5916 106.3202 -61.9857 -0.974 -0.117 0.193 105 97 95
376.7275 106.0425 -62.3087 -0.968 -0.133 0.213 80 72 70
381.5794 107.0482 -63.4736 -0.997 0.040 0.068 69 61 59
388.9172 108.8854 -65.2044 -0.691 -0.656 0.303 58 50 48
389.3055 108.3102 -65.3619 -0.695 -0.651 0.306 50 42 40
366.0702 97.1231 -60.4077 -0.263 0.899 0.349 69 68 64
394.6829 102.2139 -67.3599 -0.829 -0.523 0.198 51 45 45
339.6969 83.2189 -54.9027 -0.788 -0.380 0.485 58 49 51
343.9730 83.9376 -55.9458 -0.645 -0.606 0.466 57 48 50
368.9030 81.7246 -62.6549 -0.627 -0.405 0.666 42 39 32
370.7907 81.5708 -63.1615 -0.647 -0.374 0.664 65 62 55
370.9559 80.3035 -63.3288 -0.628 -0.183 0.757 81 78 71
369.2992 78.5742 -63.0669 -0.797 -0.080 0.599 70 66 59
324.0374 51.6298 -53.9213 -0.706 0.685 0.179 44 46 37
365.2639 50.1978 -64.7976 -0.792 0.389 0.470 36 40 27
358.7407 27.2088 -65.3524 -0.819 0.186 0.543 40 42 35
307.7153 -8.6662 -55.5813 -0.842 0.342 -0.417 125 128 137
309.2697 -9.7929 -56.0965 -0.321 -0.947 -0.002 128 131 140
313.6670 -11.2783 -57.3873 -0.321 -0.947 -0.002 173 176 185
271.1291 -13.7958 -46.5566 -0.432 -0.003 0.902 168 172 183
271.4936 -14.2405 -46.6950 -0.439 -0.010 0.899 163 167 178
235.2465 -20.1045 -37.8306 -0.508 -0.862 0.009 175 184 193
191.4439 -22.9326 -26.7010 -0.897 -0.204 0.393 169 181 181
191.6207 -23.1976 -26.7730 -0.774 -0.057 0.631 173 185 185
191.3819 -23.2742 -26.7183 -0.871 -0.194 0.451 176 188 188
191.4469 -23.4886 -26.7563 -0.865 -0.177 0.469 187 199 199
191.5460 -23.7190 -26.8047 -0.826 -0.482 0.292 190 202 202
351.5128 232.6272 -43.9808 -0.477 -0.878 0.037 74 80 68
378.5111 254.3476 -48.9546 -0.526 -0.848 -0.071 61 67 55
397.4200 269.8372 -52.4110 -0.511 -0.859 -0.041 52 58 46
397.0209 267.1402 -52.5700 -0.685 0.665 0.297 48 54 42
393.9943 263.6810 -52.1126 -0.626 0.667 0.404 43 49 37
378.7502 232.0246 -51.2021 -0.534 0.669 0.517 44 47 36
374.0923 227.5056 -50.4195 -0.538 0.665 0.519 42 45 34
368.1334 221.9554 -49.3957 -0.522 -0.103 0.847 38 41 30
372.4767 223.3661 -50.3998 -0.923 -0.368 0.115 47 49 38
389.0499 230.7002 -54.0401 -0.842 -0.534 -0.078 67 69 56
382.4545 224.8090 -52.8823 -0.927 -0.164 -0.337 78 80 67
384.9177 225.9932 -53.4141 -0.930 -0.107 -0.351 76 78 65
388.9454 228.3762 -54.2401 -0.791 -0.226 -0.569 75 76 63
395.4112 231.8553 -55.5998 -0.442 -0.718 0.538 74 74 62
402.3096 235.5961 -57.0477 -0.321 -0.619 0.717 63 63 51
366.8313 195.4944 -51.6429 -0.871 0.492 0.012 68 65 58
358.9095 189.1863 -50.1771 -0.973 0.182 -0.144 66 63 56
371.1936 187.5268 -53.5697 -0.329 -0.237 0.914 89 82 76
378.8065 190.4980 -55.2809 -0.779 0.428 0.458 91 86 80
378.0934 188.6099 -55.2781 -0.766 0.101 -0.635 82 77 71
374.9641 185.8547 -54.7249 -0.775 0.048 -0.631 79 74 68
385.4983 181.8670 -57.8852 -0.897 -0.330 -0.295 70 69 64
386.6803 181.8670 -58.1960 -0.916 -0.298 -0.268 77 76 71
361.6136 165.2054 -53.2351 -0.484 -0.287 0.827 80 77 70
366.8225 160.9683 -55.0195 -0.276 0.476 0.835 71 73 62
360.8812 156.8797 -53.8573 -0.373 0.422 0.826 71 73 62
360.6424 155.4330 -53.9361 -0.701 0.015 0.713 72 74 63
361.2249 155.1091 -54.1209 -0.724 0.683 0.095 43 45 34
381.6382 163.8544 -58.6329 -0.514 0.707 0.486 79 82 71
354.5508 146.8599 -53.1732 -0.367 -0.916 0.161 73 77 62
355.7102 138.5581 -54.2905 -0.958 0.246 0.148 65 60 56
376.6000 148.5712 -58.8038 -0.337 0.628 0.701 68 63 59
364.3753 135.7555 -56.8434 -0.713 -0.695 -0.094 44 43 38
364.9807 132.7568 -57.2960 -0.734 0.503 -0.455 55 48 40
364.7081 131.9715 -57.3012 -0.581 0.768 0.271 56 49 41
353.1659 122.8084 -55.1628 -0.291 0.629 0.721 80 76 67
375.3190 119.8987 -61.2729 -0.681 -0.457 -0.572 61 60 58
380.9415 120.7824 -62.6649 -0.728 -0.276 -0.627 36 35 33
367.4458 106.2071 -60.5425 -0.650 0.327 -0.686 57 52 49
381.7177 108.6182 -64.0595 -0.729 0.131 -0.672 84 76 74
382.1592 108.0818 -64.2281 -0.733 0.123 -0.669 88 80 78
391.1169 109.7875 -66.4167 -0.914 -0.067 0.400 64 56 54
393.2457 109.8020 -66.9750 -0.922 -0.084 0.377 48 43 40
387.8062 101.5981 -66.3475 -0.795 -0.503 0.338 51 47 44
389.0801 101.2982 -66.7119 -0.807 -0.504 0.308 56 51 48
389.4034 100.6933 -66.8561 -0.807 -0.504 0.308 53 47 47
390.6527 100.3756 -67.2157 -0.807 -0.486 0.337 53 44 45
342.6662 83.6518 -56.2339 -0.654 -0.587 0.476 57 48 49
354.1131 86.5165 -58.9636 -0.051 -0.660 0.750 57 48 49
367.4714 88.5947 -62.2729 -0.878 -0.423 -0.225 52 47 43
367.6163 82.1450 -62.9422 -0.623 -0.392 0.677 55 52 45
368.3618 81.6953 -63.1822 -0.627 -0.405 0.666 56 53 46
370.2579 81.5454 -63.6955 -0.647 -0.374 0.664 97 94 87
372.0435 81.3572 -64.1834 -0.688 -0.246 0.683 93 90 83
366.5761 78.6402 -63.0116 -0.695 -0.071 0.715 84 81 74
398.1311 71.5617 -72.0021 -0.916 0.316 -0.249 39 36 27
326.4440 52.6814 -54.9990 -0.646 0.673 0.361 37 40 31
326.4572 51.6073 -55.1076 -0.798 0.526 0.293 38 41 32
381.4857 23.9093 -72.2885 -0.518 0.634 0.574 76 75 70
380.7736 23.2191 -72.1687 -0.518 0.634 0.574 73 72 67
359.8033 19.3934 -67.0288 -0.789 -0.570 -0.231 51 52 44
308.4646 -8.2522 -56.2344 -0.778 0.439 -0.448 123 126 135
309.7891 -10.3101 -56.7840 -0.817 0.101 -0.567 174 177 186
314.7840 -11.3925 -58.2034 -0.289 -0.957 0.022 173 176 185
259.7022 -12.2103 -43.7992 0.079 -0.551 0.831 169 173 184
273.5089 -16.1279 -47.8132 0.083 -0.525 0.847 147 151 162
260.8961 -14.5609 -44.3432 -0.182 0.361 0.915 138 142 153
235.8332 -19.3815 -38.2244 -0.628 -0.479 -0.613 167 176 185
235.3107 -19.8314 -38.1311 -0.796 -0.260 -0.547 175 184 193
191.2223 -22.8467 -26.8327 -0.903 -0.087 0.421 169 181 181
191.3703 -23.0984 -26.8963 -0.906 -0.093 0.414 173 185 185
191.2709 -23.2380 -26.8838 -0.816 -0.508 0.277 177 189 189
191.4253 -23.4933 -26.9494 -0.822 -0.490 0.289 188 200 200
385.5460 261.7284 -50.8215 -0.684 0.666 0.299 83 89 77
397.7693 269.6651 -53.2915 -0.485 -0.870 0.087 88 94 82
397.9497 269.0435 -53.4001 -0.817 0.552 0.169 87 93 81
396.8549 267.2871 -53.2810 -0.685 0.665 0.297 69 75 63
382.5254 236.8413 -52.4511 -0.488 -0.360 0.795 45 48 37
369.6183 224.1078 -50.2683 -0.570 0.669 0.477 36 42 30
367.6163 221.7808 -49.9641 -0.944 -0.126 -0.306 29 35 23
376.9955 226.5339 -51.9899 -0.824 -0.123 0.552 55 60 48
392.2820 233.4904 -55.3690 -0.875 -0.400 0.273 88 93 79
384.0240 226.2855 -53.8803 -0.868 -0.369 -0.331 102 108 94
388.2187 228.0684 -54.8199 -0.793 -0.222 -0.567 97 102 88
391.2576 228.1638 -55.6174 -0.424 -0.732 0.533 86 88 75
389.3981 204.3983 -57.4456 -0.305 -0.032 0.952 85 78 70
376.5342 192.7354 -55.1697 -0.770 0.613 0.176 86 79 69
374.6200 187.9398 -55.1300 -0.923 -0.251 -0.292 82 77 71
374.0149 185.4455 -55.2130 -0.778 0.059 -0.626 100 95 89
385.7311 182.2211 -58.6388 -0.896 -0.338 -0.287 64 64 58
384.3506 179.9294 -58.4962 -0.907 -0.309 -0.285 79 76 71
384.1000 179.0565 -58.5149 -0.902 -0.321 -0.288 82 77 73
365.9803 162.0085 -55.3697 -0.509 0.831 0.225 61 57 51
361.7319 158.2107 -54.6127 -0.840 -0.136 0.525 65 67 56
359.8568 155.1659 -54.4124 -0.701 -0.003 0.714 66 68 57
359.2081 154.1445 -54.3399 -0.685 0.046 0.727 43 45 34
391.3386 168.7215 -61.4466 -0.611 0.290 0.736 71 75 61
349.2379 137.8861 -53.2812 -0.496 0.438 0.750 54 49 45
375.6456 145.5061 -59.5482 -0.473 0.601 0.644 49 48 43
346.8977 129.9032 -53.4399 -0.470 0.657 0.590 49 48 43
347.4356 119.1372 -54.6345 -0.283 0.628 0.725 57 54 47
402.8885 137.9609 -67.5186 -0.414 0.910 0.027 44 40 39
353.4917 115.5933 -56.5887 -0.535 0.149 0.832 48 44 43
365.3504 113.4051 -59.9511 -0.552 -0.497 -0.670 35 35 33
377.2046 109.2082 -63.5085 -0.640 0.244 -0.729 66 61 58
382.2969 110.3513 -64.7489 -0.781 0.056 -0.622 73 65 63
383.1849 109.2781 -65.0895 -0.772 0.087 -0.630 85 77 75
382.7411 107.7334 -65.1226 -0.768 0.191 -0.611 88 80 78
381.5024 106.6119 -64.9033 -0.161 0.683 0.713 68 60 58
393.9121 102.9683 -68.5541 -0.548 -0.780 0.304 75 70 67
366.6791 81.3615 -63.4346 -0.569 0.525 -0.633 69 66 59
369.6687 81.5048 -64.2144 -0.607 -0.792 -0.065 83 80 73
371.4892 81.3274 -64.7151 -0.842 -0.538 -0.047 85 82 75
370.5742 80.4326 -64.5596 -0.832 -0.541 -0.121 86 83 76
372.6832 80.3181 -65.1307 -0.834 -0.535 -0.134 87 84 77
374.9934 70.2751 -66.7253 -0.296 0.012 0.955 36 38 27
380.4966 68.7588 -68.3346 -0.352 0.413 0.840 40 37 28
373.6986 66.0401 -66.7953 -0.361 -0.240 0.901 39 36 27
374.2312 65.4874 -66.9907 -0.346 -0.209 0.914 40 37 28
380.8005 63.4139 -68.9375 -0.508 0.832 -0.225 36 39 30
323.0952 51.0860 -54.8207 -0.935 0.337 -0.111 31 34 25
326.7463 40.9864 -56.7769 -0.497 -0.736 0.460 46 54 33
340.9240 26.8887 -61.9186 -0.714 -0.700 0.033 39 42 35
347.6997 -4.4949 -66.7838 -0.252 -0.681 0.688 33 28 32
251.8040 -14.8795 -42.3374 -0.320 0.671 0.669 131 134 141
235.5457 -18.7197 -38.3959 -0.608 -0.496 -0.620 155 163 172
235.5559 -19.0167 -38.4277 -0.638 -0.474 -0.607 160 169 178
235.1016 -19.7782 -38.3814 -0.793 -0.266 -0.548 176 185 194
190.2414 -20.4074 -26.5322 -0.908 -0.419 0.011 178 188 189
191.2207 -23.2295 -27.0679 -0.813 -0.498 0.304 177 189 189
191.3800 -23.4870 -27.1354 -0.819 -0.503 0.275 188 200 200
394.2627 270.6941 -53.0243 -0.619 0.685 0.384 90 96 84
388.2090 264.4306 -52.0125 -0.676 0.684 0.274 98 104 92
388.9280 264.3223 -52.2158 -0.752 -0.659 -0.018 103 109 97
396.3748 270.2733 -53.6315 -0.522 -0.841 -0.143 105 111 99
397.5166 269.7363 -53.9900 -0.485 -0.870 0.087 121 127 115
397.2781 268.7407 -54.0232 -0.826 0.545 0.145 126 132 120
395.9421 266.7696 -53.8573 -0.684 0.667 0.297 98 104 92
390.7121 259.8238 -53.1328 -0.780 0.608 0.147 32 38 28
378.5621 237.4615 -52.0571 -0.137 -0.484 0.864 81 86 79
367.5873 223.3917 -50.4876 -0.547 0.705 0.451 45 51 41
364.7398 219.6849 -50.0859 -0.877 -0.233 -0.420 29 37 26
374.2048 225.2554 -52.0797 -0.747 0.588 -0.311 44 50 40
384.9718 230.9738 -54.4081 -0.232 0.314 0.921 95 101 87
382.2142 227.3174 -54.0256 -0.591 0.086 0.802 104 110 96
387.7080 230.9100 -55.1478 -0.900 -0.379 0.214 108 114 100
382.9530 225.7014 -54.3813 -0.877 -0.479 -0.041 110 116 102
389.7364 227.2514 -56.0484 -0.399 -0.721 0.567 95 98 87
398.5361 230.1468 -58.1249 -0.297 -0.591 0.750 45 48 37
376.9237 212.4064 -54.0619 -0.587 0.758 0.283 47 49 38
398.4023 225.4185 -58.5502 -0.572 -0.820 0.000 70 72 61
377.8775 203.1153 -55.2238 -0.568 0.788 0.238 74 75 67
352.1797 182.8893 -50.3081 -0.620 0.724 0.300 75 75 67
358.5078 185.3624 -51.7632 -0.738 -0.635 0.229 73 71 59
359.6966 185.5266 -52.0658 -0.725 -0.642 0.249 73 71 59
374.0973 192.7052 -55.2259 -0.898 -0.315 -0.308 61 58 47
368.8955 187.7821 -54.3117 -0.843 -0.345 -0.413 67 64 53
377.5421 190.0944 -56.4039 -0.775 0.095 -0.625 70 69 59
375.2072 185.7387 -56.2029 -0.800 0.071 -0.596 101 100 90
375.1781 184.3184 -56.3337 -0.800 0.071 -0.596 91 89 80
371.2482 176.9476 -55.9992 -0.308 -0.603 0.736 98 100 89
371.6471 176.5093 -56.1488 -0.313 -0.603 0.734 102 104 93
372.0198 176.0527 -56.2933 -0.332 -0.664 0.670 92 95 83
386.1804 183.4362 -59.3690 -0.265 -0.841 0.472 64 66 55
384.1799 181.4766 -59.0239 -0.261 -0.714 0.649 59 61 51
383.7668 179.0619 -59.1487 -0.335 -0.691 0.640 82 80 73
392.0962 181.9044 -61.1042 -0.008 -0.525 0.851 55 53 46
371.6148 166.1763 -57.1481 -0.518 0.828 0.215 68 65 58
359.7105 155.9166 -54.9578 -0.736 0.018 0.676 59 61 50
359.3211 155.0408 -54.9388 -0.701 -0.003 0.714 59 61 50
384.2140 166.3955 -60.5040 -0.446 0.624 0.641 48 51 40
355.1612 147.5401 -54.5553 -0.336 -0.926 0.175 59 63 48
362.0253 143.4416 -56.7951 -0.509 0.481 0.714 63 58 54
375.3675 147.6080 -59.9652 -0.363 0.287 0.886 64 59 55
350.1123 131.6509 -54.7518 -0.670 0.740 -0.061 49 48 43
346.9034 129.4470 -54.1065 -0.661 0.748 -0.062 50 49 44
386.0057 129.4875 -64.5844 -0.930 -0.303 0.206 41 37 36
405.7849 135.5730 -69.2928 -0.734 0.269 0.624 54 50 49
366.5851 89.2240 -63.3058 -0.185 -0.848 0.496 55 50 47
401.4287 97.3771 -71.8508 -0.457 -0.761 0.460 53 48 44
368.7192 83.3247 -64.4533 -0.556 0.495 -0.668 56 53 46
369.4975 82.8823 -64.7051 -0.558 0.510 -0.655 64 61 54
370.2541 82.4303 -64.9520 -0.573 0.509 -0.643 70 67 60
369.5512 81.5886 -64.8457 -0.728 -0.677 -0.107 72 69 62
374.7775 70.3342 -67.3444 -0.176 0.108 0.978 43 45 34
371.8530 65.7700 -67.0057 -0.355 -0.224 0.908 41 38 29
326.2027 41.5210 -57.1339 -0.428 -0.786 0.447 42 50 30
326.0216 40.9625 -57.1398 -0.673 -0.695 0.251 47 55 32
354.6243 25.9654 -66.2699 -0.806 -0.592 -0.012 27 26 21
345.4297 20.2970 -64.3581 -0.674 -0.560 0.482 41 42 34
236.0616 -18.8539 -38.8597 -0.827 -0.243 -0.507 155 163 173
236.2021 -19.1862 -38.9297 -0.827 -0.243 -0.507 160 169 178
190.2697 -20.4316 -26.7386 -0.949 -0.292 0.118 178 188 189
191.2692 -23.4509 -27.3010 -0.813 -0.498 0.304 189 201 201
370.6628 251.6407 -49.2588 -0.502 0.308 0.808 80 86 76
371.6809 251.8614 -49.5128 -0.545 0.200 0.815 83 89 77
393.0687 269.9052 -53.5437 -0.619 0.685 0.384 91 97 85
388.7952 264.4932 -52.9142 -0.752 -0.659 -0.018 103 109 97
396.5224 267.5814 -54.7046 -0.685 0.665 0.297 93 99 87
390.4196 259.8524 -53.8057 -0.659 0.628 0.413 22 28 18
376.2659 245.9058 -51.3336 -0.896 0.202 -0.395 43 50 42
378.3150 243.3326 -52.1387 -0.665 0.668 0.335 47 54 47
381.6306 238.0968 -53.5458 -0.688 0.708 0.161 49 55 45
381.0713 228.1264 -54.3653 -0.622 -0.119 0.774 109 115 101
381.1077 227.4258 -54.4434 -0.622 -0.119 0.774 111 117 103
391.5445 231.1648 -56.9037 -0.990 -0.097 0.103 103 109 95
400.0081 236.1853 -58.7052 -0.269 -0.596 0.757 95 101 89
394.8848 231.4664 -57.7783 -0.314 -0.449 0.836 93 99 87
395.5694 230.4608 -58.0615 -0.314 -0.449 0.836 42 48 36
394.9612 228.4684 -58.0909 -0.308 -0.467 0.829 33 36 25
392.0570 222.4897 -57.8872 -0.602 -0.794 0.088 64 67 56
368.8578 196.2270 -54.1665 -0.557 0.793 0.246 56 57 49
351.0088 180.9880 -50.8202 -0.646 -0.727 0.232 55 55 45
347.6996 176.7786 -50.3346 -0.937 0.251 0.243 57 58 44
359.6080 184.3486 -52.8200 -0.802 0.563 0.200 58 59 45
361.2255 180.7971 -53.6036 -0.587 0.286 0.757 62 62 49
372.8831 187.9114 -56.0656 -0.720 -0.693 0.036 53 56 45
374.6921 188.4175 -56.5059 -0.515 -0.023 0.857 57 60 49
379.7719 190.3652 -57.6909 -0.661 -0.703 0.263 70 73 62
383.5742 179.1528 -59.8117 -0.099 -0.615 0.782 73 75 64
388.4352 177.7212 -61.2665 -0.522 0.827 0.209 54 56 45
366.1926 161.1666 -56.8594 -0.417 0.465 0.781 57 60 49
354.6663 150.6377 -54.7655 -0.402 0.441 0.802 38 41 30
353.4246 149.3005 -54.5597 -0.407 0.448 0.796 42 45 34
353.6516 148.1541 -54.7327 -0.432 0.532 0.728 46 50 36
354.7881 148.1469 -55.0410 -0.319 -0.928 0.193 47 51 37
355.4668 147.8815 -55.2505 -0.330 -0.927 0.179 53 57 42
343.5402 117.0745 -55.0229 -0.195 -0.894 0.404 42 37 31
344.7056 101.3301 -56.8714 -0.864 0.369 0.344 43 34 37
347.4130 100.5318 -57.6819 -0.806 0.585 0.095 48 42 42
394.1997 116.3659 -68.8013 -0.842 -0.493 -0.220 48 39 40
390.6291 112.2002 -68.2406 -0.245 0.821 0.515 74 64 65
375.0262 105.3244 -64.6878 -0.229 0.754 0.615 72 62 63
362.9790 94.0431 -62.5261 -0.359 -0.906 0.225 44 40 39
365.7455 92.9837 -63.3780 -0.332 -0.856 0.396 50 41 44
372.7186 93.1693 -65.2469 -0.523 -0.232 0.820 52 43 46
363.3904 88.3936 -63.1876 -0.219 -0.751 0.623 51 46 45
374.1471 90.2611 -65.9167 -0.326 -0.874 0.362 53 48 44
372.4712 83.1393 -66.1567 -0.573 0.507 -0.644 63 60 53
320.9585 64.5836 -54.0234 -0.684 0.510 -0.521 41 38 33
325.3351 41.4767 -57.4579 -0.419 -0.788 0.451 47 55 35
354.5892 26.0257 -66.8792 -0.806 -0.592 -0.012 27 26 21
373.3986 21.2008 -72.4392 -0.220 -0.960 0.172 43 44 36
331.0921 -7.9830 -63.8322 -0.588 -0.571 0.572 132 135 144
251.7638 -15.8684 -43.1325 -0.411 -0.621 0.668 131 135 138
234.6577 -15.5624 -38.4735 -0.452 0.630 0.632 151 155 158
231.8480 -17.7726 -37.9283 -0.260 -0.866 0.427 155 164 173
190.1761 -20.4040 -26.9074 -0.879 -0.441 0.184 178 186 188
191.1853 -23.4269 -27.4749 -0.907 -0.088 0.412 191 201 202
377.2471 255.7813 -51.3584 -0.679 0.670 0.300 51 57 45
373.5756 251.7150 -50.7507 -0.643 0.456 0.616 53 59 47
395.0110 269.6381 -54.8640 -0.529 -0.841 -0.116 57 63 51
379.5506 244.6670 -53.0682 -0.648 0.670 0.362 19 26 19
382.8044 245.2513 -53.9002 -0.292 -0.625 0.724 39 46 39
381.1970 241.6724 -53.8091 -0.334 -0.754 0.566 44 51 44
389.9811 248.3442 -55.5601 -0.783 0.529 0.326 46 53 46
389.5948 247.2609 -55.5598 -0.777 0.617 0.124 38 45 37
382.3176 238.9331 -54.3815 -0.743 0.642 0.192 36 42 32
372.4673 222.2305 -53.3144 -0.881 -0.284 -0.379 98 104 92
377.4957 225.5312 -54.3671 -0.693 -0.141 0.707 98 104 90
391.0061 233.2730 -57.3053 -0.777 -0.590 0.220 99 105 91
386.8830 228.5415 -56.6389 -0.880 -0.473 -0.038 91 97 83
393.4996 232.1836 -58.0923 -0.963 -0.204 0.175 85 91 77
348.1639 177.9329 -50.9817 -0.830 -0.043 -0.557 40 41 27
372.7104 189.4047 -56.5720 -0.770 0.619 -0.152 72 74 61
362.4767 181.1726 -54.5766 -0.601 0.385 0.700 64 69 55
365.3434 182.4111 -55.2394 -0.534 0.172 0.828 63 69 55
369.3519 182.3303 -56.3423 -0.679 -0.725 0.113 70 76 62
378.2900 187.4734 -58.2840 -0.733 -0.615 0.292 77 83 69
389.4693 178.5434 -62.2061 -0.518 0.828 0.214 53 58 46
365.8062 162.4731 -57.3041 -0.518 0.828 0.214 136 141 129
348.3669 143.5144 -54.3831 -0.457 0.253 0.853 51 55 41
347.4671 142.3999 -54.2457 -0.452 0.260 0.853 52 56 42
347.0207 141.5370 -54.2076 -0.456 0.250 0.854 50 54 40
346.3906 134.4169 -54.7277 -0.852 0.311 -0.420 53 52 47
350.8930 134.8566 -55.9149 -0.493 0.864 0.103 54 53 48
379.1904 136.6455 -63.4713 -0.348 -0.321 0.881 80 78 66
358.8245 113.8069 -60.1280 -0.667 -0.727 -0.164 45 44 42
339.4951 99.4902 -56.2395 -0.948 0.248 0.197 41 35 35
375.1376 106.1776 -65.3261 -0.401 0.887 0.230 60 52 50
372.3686 104.5335 -64.7295 -0.564 0.821 -0.084 58 49 47
343.4367 91.4493 -58.0979 -0.161 0.813 0.559 43 42 38
369.1502 93.5187 -64.9212 -0.447 -0.705 0.551 58 49 50
380.0054 96.2110 -67.6248 -0.381 -0.725 0.574 55 46 47
364.1001 89.3694 -63.9450 -0.365 -0.930 0.046 50 45 44
375.9557 89.5688 -67.1643 -0.423 0.906 0.006 57 52 48
379.2169 88.4653 -68.1624 -0.490 -0.233 0.840 48 45 40
378.4326 73.3623 -69.4164 -0.723 0.206 -0.659 34 36 25
382.0842 70.0873 -70.7324 -0.562 0.824 0.071 94 91 82
381.5570 69.2961 -70.6653 -0.565 0.822 0.067 79 77 65
369.4320 65.4830 -67.7237 -0.527 0.120 0.842 52 49 40
330.0049 41.6181 -59.2731 -0.410 0.783 0.468 47 55 32
352.4716 25.9762 -66.9312 -0.774 -0.626 0.096 32 31 26
374.3745 23.2372 -73.1809 -0.613 0.769 0.183 43 42 37
341.6468 20.8592 -64.4715 -0.905 -0.233 0.357 43 44 36
342.4395 20.3161 -64.7409 -0.822 -0.213 0.528 43 44 36
375.3498 16.7753 -74.0755 0.139 -0.612 0.779 32 35 28
379.5365 16.1721 -75.2778 -0.640 -0.755 -0.144 31 34 27
328.2056 -8.2029 -63.6250 -0.239 -0.493 0.837 124 127 136
314.0446 -11.7086 -60.0973 -0.402 -0.849 -0.343 171 174 183
260.1044 -14.7419 -45.6569 -0.789 -0.144 -0.597 160 164 175
235.0837 -15.0708 -38.8537 -0.535 0.173 0.827 138 139 143
235.4352 -16.0386 -39.0438 -0.542 -0.592 0.596 151 155 158
232.9017 -16.8888 -38.4344 -0.601 0.528 0.600 154 158 161
232.7156 -17.1315 -38.4071 -0.601 0.528 0.600 153 158 161
231.9670 -17.2313 -38.2123 -0.575 0.247 0.780 153 158 163
232.2531 -17.5909 -38.3255 -0.614 -0.640 0.462 152 159 167
191.1121 -23.4080 -27.6521 -0.969 -0.115 0.220 192 202 203
377.8699 256.6310 -52.1699 -0.678 0.648 0.347 36 42 30
375.5203 253.7610 -51.8005 -0.612 0.362 0.703 36 42 30
389.7756 262.9095 -54.8434 -0.424 0.541 0.726 39 45 33
380.8776 253.4583 -53.3072 -0.519 0.628 0.580 39 45 33
392.9026 262.6251 -55.7333 -0.998 0.053 -0.024 40 46 36
388.4236 247.3054 -55.9851 -0.756 0.545 0.363 36 43 36
388.8150 246.8798 -56.1343 -0.750 0.632 0.194 29 36 28
388.0503 245.4826 -56.0591 -0.596 -0.540 0.595 21 26 19
387.8901 244.5952 -56.1010 -0.590 -0.532 0.607 23 29 19
387.1295 243.2085 -56.0259 -0.607 -0.657 0.448 28 34 24
387.7895 243.0062 -56.2275 -0.586 -0.647 0.488 32 38 28
370.4548 197.8079 -55.8342 -0.568 0.801 0.188 38 39 31
353.4784 183.7767 -52.5148 -0.730 0.623 0.281 37 39 28
368.1851 192.0629 -55.7659 -0.791 0.412 -0.452 38 40 26
378.9412 197.3981 -58.2141 -0.843 0.267 -0.467 58 59 45
375.3242 191.3836 -57.8004 -0.622 0.780 0.063 83 84 70
378.4375 187.7852 -59.0081 -0.392 -0.844 0.365 77 83 69
391.3288 179.8583 -63.3322 -0.504 0.826 0.251 46 52 40
365.2097 162.3126 -57.8329 -0.505 0.827 0.247 118 124 112
395.0063 175.3046 -64.7882 -0.848 -0.386 0.363 45 51 37
390.1398 171.7912 -63.7873 -0.640 0.746 0.181 37 43 29
347.0567 146.0643 -54.4042 -0.447 0.518 0.729 37 43 31
346.4698 144.4955 -54.3947 -0.492 0.263 0.830 39 45 31
346.6374 143.9697 -54.4919 -0.488 0.267 0.831 43 49 35
345.0672 141.8681 -54.2629 -0.369 0.355 0.859 45 49 35
344.3070 140.8375 -54.1533 -0.369 0.340 0.865 45 49 35
343.6182 139.8500 -54.0592 -0.369 0.340 0.865 44 48 34
354.9542 134.5321 -57.7012 -0.775 -0.460 -0.434 34 39 27
369.0028 136.8137 -61.3536 -0.314 -0.181 0.932 70 75 60
371.1134 137.1480 -61.9031 -0.307 -0.178 0.935 71 76 61
372.3724 137.0679 -62.2581 -0.332 -0.196 0.923 72 76 61
391.3398 140.9583 -67.1106 -0.349 -0.332 0.876 44 46 35
339.9162 106.2610 -56.2984 -0.760 -0.641 -0.107 40 42 35
363.8307 93.9222 -64.0902 -0.324 -0.843 0.429 37 32 28
367.7271 93.2012 -65.2346 -0.469 -0.651 0.597 76 71 68
369.6862 93.1521 -65.7796 -0.530 -0.199 0.824 69 64 61
369.7852 92.5231 -65.8679 -0.530 -0.199 0.824 67 62 59
381.5441 93.3711 -69.0281 -0.363 -0.845 0.393 64 61 56
377.6020 73.9575 -69.8252 -0.651 0.415 -0.635 35 37 24
350.2020 60.4835 -63.5775 -0.258 -0.013 0.966 45 45 35
369.6217 63.6710 -68.6231 -0.109 -0.204 0.973 39 40 29
342.8212 43.9329 -63.1486 -0.312 0.735 0.602 47 55 33
347.9756 21.7086 -66.7269 -0.907 -0.245 0.342 50 49 44
363.4873 13.5735 -71.7937 -0.511 -0.856 0.080 31 34 27
357.9252 12.3553 -70.3782 -0.964 -0.243 -0.107 31 34 28
373.7609 10.3667 -74.9378 -0.831 -0.388 0.399 34 33 38
320.1156 -7.8841 -61.9167 -0.596 0.610 0.522 123 126 135
305.5605 -7.8247 -57.8974 -0.779 -0.535 0.328 122 125 134
310.9716 -8.8947 -59.4934 -0.957 0.288 -0.031 118 121 130
311.4792 -10.4044 -59.7799 -0.864 0.460 -0.207 171 174 183
252.1126 -13.9090 -43.7500 -0.312 0.554 0.772 159 164 170
254.3584 -16.0547 -44.5775 0.176 -0.308 0.935 136 140 148
234.7971 -15.5931 -39.1387 -0.498 0.627 0.599 144 149 153
233.7172 -15.9249 -38.8732 -0.204 -0.326 0.923 142 147 151
232.2815 -16.7359 -38.5560 -0.472 0.555 0.685 155 160 163
232.6482 -17.9814 -38.7780 -0.597 -0.748 0.291 162 169 177
189.3520 -20.0773 -27.0427 -0.155 0.015 0.988 177 185 187
189.0938 -20.1484 -26.9784 -0.162 -0.315 0.935 174 182 184
191.0466 -23.3924 -27.8317 -0.978 -0.163 0.133 192 202 203
362.9397 245.3502 -49.8327 -0.647 0.240 0.724 38 44 34
377.3264 251.3015 -53.2602 -0.466 0.591 0.659 34 40 28
369.9364 243.9823 -51.9126 -0.466 0.591 0.659 34 40 28
382.2681 254.2348 -54.3513 -0.706 0.679 0.202 35 41 29
383.7674 254.8206 -54.7118 -0.610 -0.790 0.058 35 41 31
379.5096 243.7076 -54.6035 -0.733 0.668 0.128 33 40 33
392.7902 251.2711 -57.5669 -0.748 0.490 0.447 30 37 30
394.0834 251.5929 -57.8956 -0.653 0.501 0.568 31 36 29
393.5727 250.3931 -57.8698 -0.575 -0.697 0.429 30 35 28
390.5018 237.1841 -58.2949 -0.715 0.663 -0.222 52 59 46
357.3994 187.4072 -53.9050 -0.743 0.664 0.081 45 46 38
377.8798 198.3201 -58.5476 -0.914 0.312 -0.258 54 56 42
380.8689 199.6723 -59.2485 -0.812 0.541 -0.219 64 64 50
377.5794 193.1251 -58.9673 -0.620 0.780 0.085 94 92 79
384.1495 196.8321 -60.4367 -0.420 0.718 0.555 95 94 82
359.6771 179.0477 -55.3489 -0.281 0.237 0.930 84 90 76
359.0058 177.9386 -55.2695 -0.281 0.237 0.930 78 84 70
381.1091 189.7480 -60.2769 -0.625 -0.724 0.291 79 85 71
382.2540 181.8476 -61.3611 -0.240 -0.782 0.576 43 52 31
384.0735 181.5313 -61.8981 -0.870 0.317 -0.379 30 39 20
389.8690 182.8888 -63.3795 -0.654 0.583 -0.482 35 41 29
389.5641 180.4916 -63.5269 -0.312 0.654 0.689 31 37 25
344.8896 142.5515 -54.7694 -0.487 0.279 0.828 37 43 29
343.9220 141.4038 -54.6113 -0.372 0.347 0.861 39 43 29
343.0714 140.3255 -54.4791 -0.369 0.340 0.865 40 44 30
365.8778 146.1354 -60.2635 -0.840 -0.446 0.309 40 45 35
359.3131 140.1103 -59.0202 -0.724 0.658 -0.204 37 40 31
347.1057 133.2518 -56.2873 -0.836 0.469 -0.285 36 39 30
359.4304 131.0917 -59.9267 -0.639 -0.060 0.767 47 57 40
371.6195 135.5204 -62.8900 -0.500 -0.165 0.850 57 67 50
388.7467 138.5060 -67.3675 -0.819 -0.055 -0.571 37 43 31
358.1942 111.9212 -61.4401 -0.557 -0.663 -0.501 34 41 27
350.3141 103.8398 -60.0300 -0.614 -0.746 -0.259 44 46 36
378.4254 111.0499 -67.1552 -0.341 -0.612 0.714 49 50 40
372.1028 104.7141 -66.0094 -0.509 -0.575 0.641 61 61 50
346.9110 95.2786 -59.9124 -0.310 0.935 0.171 61 60 50
343.2939 89.8556 -59.4311 -0.377 -0.732 0.567 36 36 25
372.0049 93.3299 -67.0852 -0.494 -0.331 0.804 76 71 66
377.6897 93.7150 -68.6300 -0.439 -0.848 0.295 76 72 66
355.9642 75.9467 -64.3051 -0.408 0.909 -0.085 50 50 39
349.1286 73.5923 -62.6307 -0.441 0.883 -0.161 55 52 41
379.7718 74.5629 -71.0652 -0.650 0.414 -0.637 33 35 22
382.7091 71.1190 -72.2164 -0.792 0.233 0.565 62 62 52
387.6882 70.7853 -73.6345 -0.783 0.236 0.576 66 67 54
391.2214 70.8144 -74.6150 -0.743 0.191 0.641 60 61 49
357.4702 61.3947 -66.1342 -0.098 -0.535 0.839 45 47 36
344.4607 45.3923 -64.0639 -0.307 0.736 0.603 36 44 26
343.2447 44.6448 -63.7979 -0.312 0.735 0.602 37 45 27
349.3617 31.8336 -66.7417 -0.903 -0.279 -0.328 33 36 26
356.3031 31.7673 -68.6800 -0.940 0.037 -0.340 33 36 26
370.3331 24.4895 -73.2899 -0.921 0.145 0.362 54 53 48
361.5447 16.7017 -71.5986 0.138 -0.609 0.781 32 35 28
377.5819 14.3027 -76.2944 0.138 -0.609 0.781 31 34 27
363.1602 11.1515 -72.5860 -0.492 0.736 0.465 33 33 35
351.7659 -1.6972 -70.6597 -0.615 -0.700 -0.364 37 35 39
353.3582 -2.3862 -71.1696 -0.614 -0.704 -0.356 38 36 37
356.3478 -3.7734 -72.1360 -0.826 -0.371 -0.425 35 31 31
343.2922 -3.9972 -68.5241 -0.555 -0.399 0.730 35 31 30
334.6603 -6.6158 -66.3755 -0.133 0.714 0.687 157 157 162
318.8800 -7.7340 -62.0919 -0.571 0.596 0.565 125 127 132
305.3475 -7.7793 -58.3300 -0.779 -0.535 0.328 120 123 130
311.3585 -8.9149 -60.1130 -0.956 0.289 -0.041 117 120 127
311.1289 -10.3417 -60.1873 -0.884 0.401 -0.240 171 174 181
311.3605 -10.8534 -60.3014 -0.879 0.394 -0.267 171 174 181
242.1803 -15.7512 -41.5220 -0.163 0.415 0.895 131 134 142
232.4254 -15.9060 -38.8221 -0.249 -0.219 0.943 139 144 148
232.1903 -16.1377 -38.7791 -0.242 -0.208 0.948 158 163 168
231.9445 -16.9405 -38.7885 -0.568 0.381 0.729 162 167 171
231.4641 -17.1066 -38.6709 -0.643 0.456 0.615 163 170 176
232.1515 -17.5677 -38.9068 -0.825 -0.565 0.026 175 182 190
232.8598 -18.0374 -39.1495 -0.633 -0.706 0.318 158 165 173
190.9777 -23.1906 -27.9924 -0.960 -0.265 -0.093 181 191 192
191.0183 -23.3941 -28.0234 -0.977 -0.167 0.134 193 203 204
360.1027 243.0010 -49.9492 -0.817 0.520 -0.251 30 36 26
372.2629 252.0678 -52.4879 -0.751 0.634 0.188 29 35 23
386.2645 255.0557 -56.1318 -0.690 -0.451 0.565 29 36 28
386.6527 251.6263 -56.5725 -0.669 0.707 0.228 94 101 94
384.8888 249.3513 -56.2971 -0.684 0.685 0.249 82 89 82
393.0256 251.7502 -58.3506 -0.750 0.510 0.421 52 59 52
386.1364 203.5457 -61.0783 -0.698 0.716 0.017 54 55 41
388.0443 201.9015 -61.7732 -0.626 0.277 0.729 80 81 67
360.0559 178.1760 -56.2065 -0.795 -0.527 -0.300 75 83 68
356.4601 173.8301 -55.6168 -0.994 -0.102 0.034 74 80 66
361.0091 176.1420 -56.6710 -0.893 -0.430 0.133 76 82 68
360.7549 175.3111 -56.6799 -0.929 0.228 -0.292 78 84 72
373.6714 180.2034 -59.8348 -0.497 -0.732 0.466 74 83 62
382.0725 184.1055 -61.8172 -0.450 -0.826 0.340 74 83 64
392.9554 181.9964 -65.0781 -0.351 0.723 0.595 29 35 23
342.8185 141.5711 -54.9054 -0.536 -0.076 0.841 34 38 24
341.8930 140.4509 -54.7538 -0.546 -0.067 0.835 34 38 24
367.2995 149.7423 -60.9915 -0.088 -0.060 0.994 28 31 20
367.2668 148.3797 -61.1141 -0.079 -0.088 0.993 52 55 46
349.6189 135.9401 -57.3602 -0.955 -0.270 0.124 36 39 30
347.3736 134.1657 -56.9012 -0.979 -0.196 0.060 36 39 30
342.9315 128.2514 -56.2255 -0.742 -0.484 -0.463 34 40 28
359.7219 132.0377 -60.5755 -0.901 -0.434 -0.013 33 42 23
358.4014 130.7616 -60.3281 -0.900 -0.436 -0.007 33 42 23
358.8762 130.3412 -60.5021 -0.908 -0.418 0.022 32 41 22
390.8579 133.0937 -69.2192 -0.302 -0.616 0.727 50 51 45
357.2327 109.1354 -62.0916 -0.995 0.039 0.090 41 47 33
363.4089 107.6394 -63.9712 -0.205 -0.855 0.477 46 51 37
335.7714 90.9431 -57.8231 -0.324 0.941 0.095 60 62 48
341.7107 91.8143 -59.4071 -0.474 -0.843 0.254 48 50 36
343.7957 91.3316 -60.0395 -0.479 -0.865 0.148 49 49 36
349.1033 91.8934 -61.4760 -0.421 -0.888 0.184 39 40 26
368.9395 92.5140 -66.9877 -0.475 -0.343 0.810 80 77 67
373.1363 92.4663 -68.1712 -0.298 -0.677 0.673 77 76 65
363.8078 78.0667 -66.9438 -0.401 0.913 -0.078 50 53 37
340.3210 70.2960 -61.0982 -0.658 0.400 -0.638 55 56 39
385.8100 78.8362 -73.0495 -0.632 0.415 -0.655 34 36 19
351.4132 63.3321 -64.8875 -0.797 0.602 -0.045 59 63 49
350.6897 62.5769 -64.7573 -0.798 0.600 -0.054 59 63 49
349.4429 61.7190 -64.4901 -0.801 0.597 -0.042 59 63 49
342.0202 59.0449 -62.6638 -0.935 0.346 -0.074 60 63 49
349.3968 59.3078 -64.7104 -0.220 -0.408 0.886 41 47 32
409.7305 65.7149 -81.0377 -0.155 -0.862 0.483 33 40 24
373.1996 52.7195 -72.0336 -0.577 -0.536 0.616 38 51 26
354.0011 34.6765 -68.3862 -0.703 0.436 -0.562 35 42 25
346.7065 31.6921 -66.6259 -0.923 -0.039 -0.383 38 45 28
346.8433 31.1177 -66.7199 -0.928 -0.032 -0.371 38 45 28
347.3990 29.9876 -66.9853 -0.838 0.343 -0.424 34 41 26
343.0309 27.9534 -65.9551 -0.817 -0.003 -0.576 32 38 23
375.2874 13.7004 -76.3943 0.140 -0.619 0.773 45 44 41
336.5009 9.2064 -65.9342 -0.649 0.759 -0.048 42 38 40
326.7309 8.8528 -63.2241 -0.921 -0.343 0.184 43 39 41
323.8431 6.8270 -62.6090 -0.918 0.030 0.395 41 41 42
338.1773 2.5072 -67.0531 -0.903 -0.429 -0.028 29 25 25
339.0259 1.9103 -67.3492 -0.903 -0.427 0.049 28 24 24
344.1170 -0.0493 -68.9688 -0.851 -0.524 0.029 14 10 10
347.6941 -0.8306 -70.0492 -0.792 -0.148 -0.593 19 15 15
348.5945 -1.4634 -70.3633 -0.790 -0.123 -0.601 26 22 21
339.3318 -4.2256 -68.0287 -0.671 0.221 0.708 43 40 36
339.0388 -5.8666 -68.1051 -0.073 -0.445 0.892 88 87 82
328.1388 -7.5892 -65.2100 -0.648 0.643 0.409 125 125 124
311.4722 -9.8757 -60.7497 -0.867 0.372 -0.331 163 166 171
311.4645 -10.3599 -60.7944 -0.884 0.353 -0.306 170 173 180
238.1531 -15.1612 -40.6664 -0.180 0.493 0.851 132 136 147
231.3420 -15.9319 -38.8277 -0.348 -0.611 0.711 148 153 156
231.5829 -16.2773 -38.9288 -0.246 -0.213 0.946 147 152 155
231.7746 -16.6116 -39.0150 -0.475 0.561 0.678 141 146 149
231.9586 -16.9448 -39.0989 -0.575 0.368 0.730 134 139 143
231.2653 -17.0575 -38.9151 -0.643 0.456 0.615 126 134 137
232.5589 -17.6728 -39.3379 -0.823 -0.568 -0.020 117 124 130
232.7522 -18.0113 -39.4250 -0.631 -0.706 0.321 112 119 127
190.8531 -22.9634 -28.1349 -0.938 -0.341 -0.063 179 189 190
190.8865 -23.1634 -28.1637 -0.936 -0.345 -0.076 183 193 194
190.9665 -23.3849 -28.2076 -0.974 -0.165 0.153 193 203 204
