ply
format ascii 1.0
element vertex 845
property float x
property float y
property float z
property float nx
property float ny
property float nz
property uchar diffuse_red
property uchar diffuse_green
property uchar diffuse_blue
end_header
-328.9630 105.0582 -36.4186 0.150 -0.663 0.733 61 51 41
-323.9378 103.5975 -35.7637 0.221 -0.732 0.644 64 51 42
-337.0106 113.6860 -36.8864 -0.057 -0.594 0.803 84 64 57
-340.2899 134.3187 -35.4957 0.607 0.343 0.716 84 74 65
-338.9397 137.1473 -35.0222 0.727 -0.386 -0.567 56 46 37
-338.4942 137.7948 -34.8924 0.727 -0.386 -0.567 67 57 48
-337.3929 138.9707 -34.6107 0.718 -0.406 -0.565 91 77 68
-315.6320 155.9360 -29.6233 0.916 0.206 0.345 87 69 59
-122.8097 33.9768 -10.5846 0.389 -0.921 -0.018 83 66 59
-330.2001 195.2746 -28.2788 0.697 -0.707 0.119 103 88 85
-334.8165 199.8072 -28.5857 0.763 -0.562 0.320 111 97 94
-331.7254 213.6694 -26.8193 0.942 0.184 -0.280 67 54 48
-330.7116 213.8635 -26.6420 0.357 -0.886 0.296 72 59 53
-328.3366 212.9213 -26.3558 0.334 -0.891 0.309 76 63 55
-325.1198 211.2615 -26.0035 0.324 -0.891 0.319 84 71 63
-318.2546 215.5341 -24.5298 0.207 -0.959 0.196 89 78 74
-325.5276 234.4904 -23.9217 0.442 -0.770 0.461 66 61 55
-326.3098 248.1978 -22.7784 0.964 -0.020 -0.265 68 65 56
-331.2727 255.2127 -22.9104 0.909 -0.337 -0.244 70 63 55
-119.1427 -33.1185 -16.3636 0.388 -0.696 -0.604 174 177 195
-118.2124 -32.8472 -16.1904 0.394 -0.875 -0.282 189 192 207
-273.6130 -20.3014 -39.8176 0.939 0.185 -0.291 51 43 40
-342.3835 -16.0021 -50.3881 0.989 -0.077 -0.129 63 52 50
-333.2638 12.6933 -46.3086 0.590 0.136 0.796 73 60 51
-275.7902 15.2668 -36.9103 -0.082 -0.935 0.344 68 55 49
-364.8860 49.6098 -47.9722 0.559 -0.565 0.607 65 57 54
-365.0503 50.4286 -47.9235 0.191 -0.918 0.347 65 55 53
-364.6509 51.1202 -47.7966 0.556 -0.585 0.591 65 57 54
-328.1266 58.2862 -41.3179 -0.065 -0.624 0.779 68 54 53
-292.8171 53.9577 -36.0847 0.915 0.180 0.362 55 43 43
-332.7484 86.0780 -39.5118 0.593 -0.524 -0.611 80 66 66
-354.9850 110.7286 -40.8014 0.843 -0.527 0.108 57 48 40
-347.3116 109.9910 -39.6456 0.919 -0.390 0.055 50 40 30
-326.8763 190.9833 -28.9769 0.810 -0.303 -0.502 72 57 54
-334.6951 199.9227 -29.4055 0.764 -0.555 0.328 59 45 42
-335.4667 201.5279 -29.3817 0.583 -0.690 0.429 47 36 32
-332.2235 200.0298 -29.0017 0.504 -0.778 -0.375 43 34 29
-329.9166 201.2412 -28.5231 0.517 -0.771 -0.373 49 40 35
-332.6421 213.6129 -27.8256 0.931 0.160 -0.329 64 51 45
-326.3720 210.4924 -27.1115 0.337 -0.885 0.321 77 64 58
-324.5367 233.8262 -24.6838 0.442 -0.774 0.454 65 60 54
-331.1671 255.3764 -23.7691 0.935 -0.193 -0.296 63 59 50
-319.9254 269.8981 -20.6481 0.773 0.520 -0.363 91 81 79
-320.3423 271.4799 -20.5699 0.805 0.498 -0.323 94 84 83
-118.6575 -32.9113 -16.4236 0.362 -0.881 -0.304 189 192 208
-213.7341 -19.0260 -30.5383 0.022 -0.998 -0.065 54 44 42
-323.9725 -4.4545 -47.0424 0.917 -0.075 0.391 55 40 43
-323.8473 -2.6441 -46.8581 0.903 -0.035 0.428 62 47 50
-358.3806 15.7953 -50.7708 0.617 0.383 0.688 69 57 45
-364.2795 50.3352 -48.5947 0.191 -0.918 0.347 66 56 54
-365.5470 51.4086 -48.7024 0.431 -0.307 0.849 71 63 60
-364.9762 53.6367 -48.4082 0.673 -0.513 -0.533 75 66 61
-293.3311 54.1945 -36.7734 0.914 0.164 0.370 53 41 41
-340.5537 91.5441 -41.0243 0.819 -0.392 -0.419 86 72 71
-366.8873 182.8189 -37.0111 0.592 -0.505 -0.628 96 77 70
-329.2237 200.9070 -29.2822 0.459 -0.888 -0.027 69 60 55
-329.2238 221.3638 -27.4285 0.685 -0.471 -0.555 78 65 57
-321.6962 223.1113 -26.0530 0.655 -0.534 -0.535 71 60 56
-329.7420 255.3762 -24.4302 0.859 -0.273 -0.434 60 51 44
-316.0713 260.5068 -21.7548 0.871 -0.448 -0.200 64 53 49
-326.3523 285.2340 -21.1764 0.499 0.263 0.826 63 53 52
-118.9538 -33.0888 -16.6446 0.635 0.703 0.321 159 162 179
-118.8286 -32.9353 -16.6103 0.324 -0.935 -0.147 188 191 206
-117.6798 -32.6344 -16.3950 0.257 -0.943 -0.210 204 208 219
-301.9679 -3.0218 -43.9528 0.862 0.261 0.434 73 58 61
-412.2093 48.8947 -57.3688 0.436 -0.774 0.459 72 59 51
-373.4892 42.9617 -51.5528 0.464 -0.293 0.836 85 68 61
-361.8496 49.8636 -49.0251 0.202 -0.901 0.383 66 58 55
-361.7716 50.6222 -48.9443 0.867 -0.309 0.391 73 65 62
-363.6524 52.6214 -49.0732 0.834 -0.542 -0.099 62 56 50
-365.3380 56.1833 -49.0300 0.408 -0.848 0.339 70 55 48
-373.1178 64.6440 -49.5463 0.936 0.228 -0.269 61 47 47
-342.4371 89.9502 -42.2452 0.510 -0.691 -0.513 69 55 55
-342.5052 93.2228 -41.9627 0.825 -0.356 -0.438 100 86 82
-345.5385 95.2251 -42.2803 0.834 -0.374 -0.404 100 87 81
-337.4784 97.7253 -40.7345 0.656 -0.084 0.750 48 38 31
-334.8748 112.2419 -39.0050 0.288 -0.812 0.507 77 57 50
-338.1508 138.9521 -37.1453 0.250 -0.144 0.957 78 64 55
-338.2203 140.7807 -36.9926 0.248 -0.129 0.960 90 73 65
-317.6172 176.8584 -30.3772 0.949 -0.116 0.292 83 66 59
-317.3056 177.5602 -30.2631 0.949 -0.223 0.224 76 59 52
-328.5179 194.6007 -30.5723 0.655 -0.738 -0.161 114 99 96
-332.6037 199.7368 -30.7813 0.596 -0.705 0.383 77 66 62
-324.6546 201.4834 -29.3213 0.600 -0.795 0.091 91 80 74
-331.1758 208.7469 -29.7387 0.586 -0.803 0.106 77 64 58
-322.3726 251.7298 -24.4383 0.805 -0.334 -0.491 56 43 37
-323.4704 263.9803 -23.5190 0.642 0.072 0.763 59 50 43
-316.1099 261.9320 -22.4960 0.907 -0.359 -0.219 73 64 57
-326.4304 280.9078 -22.4853 0.997 0.012 -0.079 57 49 47
-325.6293 283.5639 -22.1157 0.645 0.235 0.727 58 50 48
-171.2484 128.1614 -10.7490 0.966 0.217 0.143 56 51 48
-310.7650 -66.7715 -51.6781 0.044 -0.336 0.941 62 67 71
-119.0742 -32.9702 -16.8113 0.303 -0.940 -0.157 186 190 203
-117.7231 -32.6396 -16.5574 0.228 -0.973 -0.028 205 209 220
-332.0335 52.3952 -44.6254 0.047 -0.815 0.578 62 48 47
-312.8760 73.8199 -39.5374 0.830 0.295 0.474 58 40 40
-342.0412 91.5305 -42.8118 0.802 -0.331 -0.497 92 78 78
-333.4752 110.0595 -39.7416 0.413 -0.352 0.840 59 40 33
-333.5883 111.7726 -39.6082 0.268 -0.847 0.459 71 51 44
-326.3405 110.0285 -38.5584 -0.072 -0.710 0.700 76 56 49
-330.2375 118.5184 -38.4518 0.096 -0.994 0.052 71 58 50
-328.9656 118.7254 -38.2220 0.099 -0.994 0.051 71 58 50
-330.4730 120.3161 -38.3312 0.082 -0.996 0.046 71 58 50
-336.1469 139.7792 -37.5451 0.250 -0.144 0.957 84 67 59
-330.1992 138.2152 -36.6954 0.613 0.283 0.738 92 75 67
-328.4367 171.6122 -33.4351 0.513 -0.744 -0.428 80 61 54
-319.7472 166.5739 -32.4383 0.691 -0.337 -0.639 80 63 55
-316.8701 166.4049 -31.9751 0.771 -0.244 -0.588 81 63 55
-319.5820 180.3622 -31.1858 0.867 -0.466 -0.176 63 48 43
-100.8059 21.8208 -8.9065 0.316 -0.949 -0.018 92 83 78
-323.2443 207.5491 -29.3790 0.351 -0.666 0.658 69 56 50
-328.3197 222.0936 -28.9303 0.474 -0.712 -0.518 69 56 48
-319.0785 230.5857 -26.6397 0.443 -0.786 0.432 72 68 59
-320.5880 261.2881 -24.1627 0.872 -0.290 0.393 59 52 44
-320.3499 262.1618 -24.0455 0.872 -0.290 0.393 65 58 50
-321.8532 264.8441 -24.0570 0.724 0.238 0.647 69 62 54
-187.4873 151.5526 -11.7883 0.710 0.020 0.704 50 44 44
-122.9901 -34.1109 -17.7292 0.287 -0.921 -0.264 111 115 124
-119.2122 -33.1252 -17.0060 0.392 0.410 0.824 136 139 156
-119.3504 -33.0095 -17.0191 0.314 -0.913 -0.259 182 185 200
-117.7169 -32.6377 -16.7111 0.220 -0.975 -0.021 190 194 206
-333.8557 -41.2802 -53.8895 0.750 -0.659 -0.057 45 35 34
-307.9184 -3.6481 -46.2089 0.778 0.074 0.624 54 46 44
-279.2853 -4.1348 -41.4272 0.398 0.072 0.914 69 59 58
-296.1429 8.3740 -43.1672 0.567 0.033 0.823 46 39 29
-370.1882 39.3461 -52.9190 0.009 -0.549 0.836 59 48 42
-357.5784 48.2854 -50.0079 0.172 -0.903 0.394 66 58 55
-358.3174 49.2200 -50.0502 0.175 -0.900 0.399 61 53 50
-358.6007 50.0544 -50.0246 0.952 -0.070 0.298 62 54 51
-360.2336 51.2063 -50.1984 0.925 0.085 0.371 56 51 47
-363.8529 54.4108 -50.5263 0.973 0.228 0.044 54 43 37
-323.6401 108.8827 -38.9590 -0.073 -0.717 0.693 69 49 42
-333.1065 119.2245 -39.6444 0.489 -0.765 0.419 64 54 45
-336.4087 134.7514 -38.8349 0.597 0.310 0.740 76 66 57
-337.3390 138.8086 -38.6348 0.689 0.087 0.719 71 58 49
-319.0917 140.6192 -35.4009 0.864 0.447 0.230 90 71 64
-327.6729 177.8874 -33.5685 0.636 -0.258 -0.728 76 62 53
-319.0116 177.3192 -32.1591 0.687 -0.179 -0.704 74 59 54
-328.0493 192.6786 -32.3308 0.684 -0.622 -0.380 57 45 42
-327.4735 193.2234 -32.1859 0.684 -0.622 -0.380 60 46 43
-321.8803 234.4785 -27.6144 0.944 -0.264 -0.199 77 70 60
-324.0693 238.6558 -27.6158 0.954 -0.053 -0.296 76 69 59
-324.0402 239.7045 -27.5186 0.956 -0.052 -0.289 75 67 57
-328.9824 252.0833 -27.2624 0.807 -0.201 -0.556 63 49 46
-319.5649 259.3936 -25.0326 0.932 -0.208 0.296 60 53 45
-320.2982 262.3841 -24.8931 0.724 0.238 0.647 71 64 56
-320.9258 264.1589 -24.8427 0.724 0.238 0.647 73 66 58
-318.2729 262.5183 -24.5400 0.821 -0.307 0.481 73 66 58
-314.6815 259.8755 -24.1674 0.680 -0.286 0.676 73 66 58
-332.4199 -51.1866 -55.1457 0.962 0.250 -0.105 43 39 38
-352.9596 -32.7236 -57.0455 0.651 -0.425 -0.630 53 48 45
-263.3396 -4.8546 -39.3145 0.682 0.111 0.723 70 60 58
-351.4529 46.2303 -49.9129 0.910 -0.051 0.411 68 63 58
-355.7482 48.7135 -50.4301 0.940 -0.049 0.339 65 57 54
-356.3968 49.6266 -50.4614 0.933 -0.036 0.359 51 43 39
-358.1192 50.7950 -50.6538 0.934 0.070 0.350 47 42 37
-358.1994 51.5858 -50.5986 0.934 0.070 0.350 46 41 35
-382.6593 60.7008 -53.9818 0.224 -0.884 0.410 53 40 35
-322.0667 74.3479 -42.4462 0.590 -0.794 0.146 58 43 43
-339.0746 98.7334 -43.2271 0.756 -0.204 0.623 47 37 30
-335.3776 134.3432 -39.4949 0.597 0.310 0.740 77 67 58
-336.5751 138.5389 -39.3340 0.689 0.087 0.719 68 55 47
-331.8523 162.0898 -36.4767 0.510 -0.300 0.806 88 71 63
-328.7853 173.1597 -34.9890 0.576 -0.222 -0.786 63 50 41
-329.0432 176.1839 -34.7697 0.687 -0.169 -0.707 55 42 33
-329.9590 182.5886 -34.3683 0.606 -0.351 -0.714 81 66 61
-327.5122 182.7484 -33.9366 0.634 -0.335 -0.697 70 55 50
-330.3265 192.6334 -33.5564 0.723 -0.611 -0.324 64 50 47
-329.5026 197.9618 -32.9517 0.456 -0.781 -0.427 71 59 55
-328.8996 209.5960 -31.8356 0.533 -0.846 -0.020 84 70 67
-325.4890 208.8297 -31.3199 0.499 -0.867 -0.008 69 55 52
-326.2365 225.9858 -29.9536 0.208 -0.943 0.261 66 51 46
-321.9281 233.7068 -28.5456 0.939 -0.159 -0.306 68 61 51
-329.2963 252.6511 -28.1541 0.801 -0.215 -0.559 64 49 46
-323.9364 263.0302 -26.3350 0.959 -0.047 0.279 62 55 47
-101.2978 -33.7881 -14.2796 0.066 -0.710 0.701 44 48 49
-117.2947 -33.6305 -17.0341 0.642 0.429 -0.636 111 116 122
-330.2607 -53.1307 -55.5671 0.435 0.280 0.856 50 46 45
-321.9133 -42.6272 -53.2173 0.276 -0.910 -0.309 57 48 49
-321.9059 -42.0855 -53.1693 0.293 -0.905 -0.308 59 49 48
-353.0895 -42.5147 -58.6024 0.898 0.439 0.040 59 50 48
-302.6724 -8.9752 -46.9872 0.965 0.260 0.013 60 52 50
-325.9183 -1.6782 -50.3808 0.423 -0.635 0.646 56 51 48
-317.2523 -1.7158 -48.8845 0.401 -0.232 0.886 62 57 54
-269.1176 0.1110 -40.3977 -0.113 -0.964 0.240 63 56 51
-344.0150 42.4534 -49.7084 -0.229 -0.881 0.413 51 41 36
-355.8170 49.5733 -51.1370 0.948 -0.042 0.314 44 40 32
-357.9816 50.8446 -51.4020 0.988 0.049 0.144 44 40 31
-304.6405 54.0644 -41.8942 0.945 0.304 -0.125 58 44 36
-302.1496 54.6566 -41.4121 0.273 -0.753 0.599 69 56 48
-348.4586 103.5667 -45.2098 0.462 -0.155 0.873 47 33 32
-344.2452 127.6284 -42.4068 0.387 -0.703 0.596 50 42 34
-328.1700 140.1491 -38.5459 0.667 0.714 0.213 71 58 52
-320.8036 141.0801 -37.1909 0.996 -0.071 -0.060 81 65 58
-320.8313 141.9627 -37.1196 0.994 -0.084 -0.075 80 65 58
-320.4719 142.6153 -37.0012 0.993 -0.086 -0.080 81 66 59
-324.1831 148.3706 -37.1474 0.726 0.589 0.355 71 57 50
-326.7944 151.7614 -37.3070 0.723 0.581 0.374 83 70 62
-330.0941 161.1308 -37.0704 0.540 -0.240 0.807 87 70 62
-328.8747 161.2661 -36.8477 0.403 -0.478 0.780 90 76 67
-321.5193 237.8329 -28.9753 0.953 -0.077 -0.293 66 57 50
-319.2277 262.9474 -26.4141 0.673 0.128 0.728 71 64 56
-318.6552 263.4719 -26.2698 0.673 -0.015 0.739 68 61 53
-114.6179 -37.7525 -17.0701 0.106 -0.775 0.623 51 60 59
-102.2999 -34.0964 -14.5986 0.029 -0.645 0.764 38 42 43
-127.5009 -37.0333 -19.2674 0.244 -0.942 -0.229 51 62 56
-333.1198 -51.2346 -56.5281 0.248 -0.959 0.138 61 57 56
-329.7364 -50.3485 -55.8593 0.216 -0.971 0.100 61 57 56
-330.0057 -43.7654 -55.3449 0.559 -0.828 -0.038 69 59 58
-352.4865 -29.5451 -58.0732 0.378 -0.926 0.000 46 41 38
-341.1470 -3.1069 -53.8298 0.408 -0.691 0.597 47 42 39
-275.4892 -2.2904 -42.2490 0.543 -0.068 0.837 70 59 55
-349.1676 43.6449 -51.2478 -0.213 -0.934 0.286 50 43 36
-301.2231 51.1647 -42.2007 0.946 0.173 -0.273 70 57 48
-304.2677 52.7022 -42.6033 0.811 0.531 -0.244 70 57 48
-347.6942 78.6733 -48.0014 0.241 -0.969 -0.063 42 35 29
-364.5356 90.2491 -49.9666 0.743 -0.059 0.667 47 39 36
-348.5763 96.1616 -46.6642 0.705 0.253 0.663 62 51 47
-326.9659 130.0898 -39.9812 0.418 -0.724 0.549 71 58 50
-330.3717 140.6830 -39.6746 0.677 0.682 0.277 77 64 58
-320.8734 142.1425 -37.8849 0.994 -0.084 -0.075 75 60 53
-321.1422 143.1726 -37.8441 0.999 0.029 0.043 74 59 52
-321.9763 144.5469 -37.8731 0.992 0.022 -0.127 73 58 51
-341.9168 164.1341 -39.6982 0.818 -0.223 -0.531 60 47 39
-328.4135 160.2199 -37.6647 0.531 -0.229 0.816 83 69 60
-325.2123 159.9773 -37.1242 0.415 -0.483 0.771 90 76 67
-330.1852 179.2762 -36.3497 0.687 -0.181 -0.704 72 59 50
-324.7402 198.6290 -33.7442 0.281 -0.931 0.235 72 59 53
-327.4978 208.8870 -33.3526 0.502 -0.865 0.020 95 81 78
-321.6742 235.0250 -30.1019 0.942 -0.269 -0.200 58 51 41
-317.9674 258.5686 -27.4436 0.611 -0.179 0.771 56 49 41
-317.2560 260.0558 -27.1920 0.605 -0.193 0.772 56 49 41
-120.6386 -33.8854 -17.9570 0.652 0.603 0.460 110 115 119
-328.8705 -50.2513 -56.3208 0.211 -0.970 0.119 58 54 53
-330.5728 -44.3498 -56.1249 0.980 0.062 -0.187 60 50 49
-330.0288 -43.7516 -55.9778 0.559 -0.828 -0.038 59 49 48
-341.9087 -4.9509 -54.8122 0.432 -0.645 0.630 64 56 54
-340.5160 -4.3909 -54.5176 0.414 -0.677 0.609 77 72 69
-336.4207 -2.0988 -53.5968 0.403 -0.691 0.600 74 69 66
-277.7659 1.0514 -42.9137 0.791 0.340 -0.509 70 62 59
-327.6952 46.7149 -47.9264 0.024 -0.951 0.307 49 39 37
-249.3271 29.1074 -35.4945 0.557 -0.512 0.654 50 38 38
-304.9563 52.9805 -43.3591 0.806 0.532 -0.258 57 45 33
-328.0547 65.5263 -46.4023 0.977 -0.177 -0.118 35 28 20
-357.3019 76.2344 -50.6927 0.305 -0.952 -0.011 37 30 22
-333.4709 77.0900 -46.3880 0.882 -0.098 0.461 43 36 30
-344.4402 93.0166 -46.9917 0.462 -0.241 0.854 53 42 40
-349.5070 131.4604 -44.6463 0.444 -0.675 0.589 45 34 28
-346.8128 130.9961 -44.2070 0.372 -0.721 0.585 43 32 26
-340.3667 128.5991 -43.2645 0.403 -0.696 0.595 44 33 27
-327.2102 123.5581 -41.3535 0.252 -0.809 0.531 41 30 24
-327.2092 128.6536 -40.9231 0.326 -0.928 0.182 62 49 41
-327.9172 129.8900 -40.9445 0.386 -0.756 0.528 68 55 47
-327.2106 130.3664 -40.7788 0.386 -0.756 0.528 65 52 44
-323.6917 142.2287 -39.1525 0.963 -0.134 0.232 75 60 53
-321.2255 141.6387 -38.7643 0.988 -0.150 -0.036 68 53 46
-328.2896 159.3931 -38.5201 0.555 -0.197 0.808 66 52 43
-324.3778 159.6049 -37.8075 0.415 -0.483 0.771 89 76 67
-327.1950 208.8578 -34.1500 0.519 -0.854 0.020 84 70 67
-325.7421 232.6186 -31.8862 0.362 -0.754 -0.548 91 81 72
-330.2960 -50.9272 -57.2559 0.261 -0.953 0.155 116 115 113
-323.7258 -49.1964 -55.9294 0.204 -0.968 0.143 103 102 100
-320.6475 -48.3684 -55.3065 0.205 -0.968 0.147 100 99 97
-315.2660 -46.8161 -54.2088 0.288 -0.958 -0.012 95 94 92
-330.6975 -44.3443 -56.7783 0.980 0.062 -0.187 122 115 113
-330.3672 -43.7617 -56.6702 0.554 -0.831 -0.053 119 112 110
-326.4218 -41.8105 -55.7975 0.234 -0.941 -0.243 99 92 90
-333.6001 -41.1766 -57.0358 0.992 0.060 -0.112 99 91 89
-334.5542 -40.0975 -57.1173 0.992 0.113 -0.054 91 86 82
-319.8199 -38.6429 -54.3453 0.896 -0.147 -0.419 86 83 78
-339.1174 -6.9818 -55.1721 0.806 -0.526 0.270 82 74 72
-339.1674 -4.4311 -54.9680 0.927 0.358 -0.109 102 94 92
-339.6725 -3.1179 -54.9492 0.841 0.323 -0.434 103 98 95
-339.9207 -2.4584 -54.9388 0.841 0.323 -0.434 103 98 95
-300.1088 -1.2072 -47.6727 0.597 -0.802 0.038 91 77 76
-263.7305 73.6037 -34.8801 0.764 -0.642 -0.059 38 30 28
-307.8957 101.2941 -40.5118 0.973 -0.126 -0.195 51 40 36
-327.3250 128.0042 -41.7758 0.332 -0.912 0.240 52 39 31
-327.4149 137.5486 -40.9948 0.622 0.319 0.715 63 49 46
-325.6583 143.5469 -40.1778 0.606 0.337 0.721 68 51 44
-326.8116 148.6750 -39.9569 0.996 -0.036 -0.082 69 54 47
-327.6517 150.0823 -39.9905 0.996 -0.042 -0.079 68 55 47
-328.1933 151.3137 -39.9850 0.997 -0.037 -0.066 67 54 46
-324.4104 159.7973 -38.5959 0.411 -0.542 0.733 89 75 66
-332.4350 182.2225 -38.1663 0.650 -0.303 -0.697 62 49 40
-337.5016 188.8102 -38.5275 0.668 -0.323 -0.670 66 52 49
-340.1327 216.5076 -36.6873 0.288 -0.829 0.480 76 62 59
-324.3392 207.7432 -34.5784 0.632 -0.766 0.118 75 61 58
-324.0680 233.4675 -32.3809 0.366 -0.747 -0.554 65 58 48
-321.8806 233.5813 -31.9779 0.608 -0.608 -0.511 54 47 37
-328.7190 250.9192 -31.7598 0.915 -0.107 -0.390 70 56 53
-317.6410 -47.5461 -55.2967 0.222 -0.968 0.115 149 148 144
-315.9695 -46.3446 -54.8929 0.934 0.329 0.138 147 148 143
-326.4639 -44.5496 -56.6564 0.810 0.583 -0.061 140 138 133
-330.0047 -43.7188 -57.2327 0.552 -0.832 -0.050 135 132 128
-331.2206 -43.2508 -57.4156 0.310 -0.924 -0.224 124 121 117
-206.5607 -28.9556 -33.5250 0.272 -0.791 -0.548 105 102 96
-323.6626 -28.7848 -54.8433 0.656 -0.753 -0.051 105 103 98
-338.1210 -8.2580 -55.7809 0.789 -0.543 0.285 47 39 37
-337.7425 -7.6454 -55.6614 0.789 -0.543 0.285 49 42 39
-340.7663 -3.0046 -55.8287 0.857 0.268 -0.440 54 49 46
-342.3078 -2.2553 -56.0476 0.860 0.259 -0.440 54 49 46
-306.1825 -1.2427 -49.3830 0.578 -0.813 0.071 77 66 64
-299.5888 -1.2107 -48.1792 0.605 -0.785 0.132 79 65 64
-291.2493 -1.3550 -46.6719 0.462 -0.703 0.541 80 66 65
-278.2996 -0.3809 -44.2323 0.849 -0.428 0.311 76 62 61
-283.7648 1.7316 -45.0534 0.759 0.253 -0.600 67 60 55
-346.7865 11.4569 -55.7303 0.378 -0.830 -0.410 77 74 65
-341.3019 12.1854 -54.6710 0.427 -0.805 -0.412 76 73 64
-335.1262 13.4458 -53.4418 0.431 -0.808 -0.401 84 81 76
-305.1785 25.5193 -46.9886 0.665 -0.021 0.747 85 78 71
-322.4813 32.6856 -49.5484 0.860 -0.487 0.150 79 71 66
-300.7882 29.6212 -45.8498 0.412 -0.910 0.033 77 69 64
-314.2570 38.9166 -47.5353 -0.000 -0.972 0.235 68 61 54
-351.5222 85.1659 -50.5020 0.733 0.550 0.400 60 52 49
-326.1251 100.3054 -44.6243 0.097 -0.981 0.171 42 33 31
-338.0998 126.8508 -44.6122 0.118 -0.744 0.657 56 45 39
-327.4684 128.2232 -42.5620 0.348 -0.908 0.235 59 46 38
-328.5513 150.7944 -40.8941 0.994 0.027 0.108 53 40 32
-326.5717 158.6305 -39.8859 0.555 -0.197 0.808 65 48 40
-324.5196 159.1284 -39.4709 0.557 -0.705 0.439 87 70 62
-323.9519 159.6694 -39.3228 0.557 -0.705 0.439 87 71 62
-330.5283 167.7075 -39.8566 0.938 -0.309 -0.159 70 59 57
-330.2587 168.4678 -39.7446 0.938 -0.309 -0.159 64 53 50
-329.7727 169.0828 -39.6053 0.934 -0.324 -0.154 58 47 43
-334.6826 176.2311 -39.9090 0.685 0.329 0.650 56 45 37
-330.3908 206.7898 -36.6019 0.934 0.114 -0.338 74 61 55
-306.4220 195.0753 -33.2036 0.551 -0.832 0.065 68 54 51
-329.0362 251.4886 -32.6614 0.915 -0.107 -0.390 66 52 49
-296.4897 222.0626 -29.1641 0.974 -0.160 -0.161 68 57 53
-309.6454 -54.3551 -54.9788 0.541 -0.082 0.837 141 145 141
-311.1230 -54.0331 -55.2250 0.364 0.044 0.930 142 144 141
-314.0955 -53.8811 -55.7609 0.329 0.095 0.939 143 145 142
-252.5119 -24.5376 -42.0027 0.590 -0.306 -0.747 105 105 101
-224.5764 -22.7422 -36.7030 0.341 -0.637 0.691 114 114 108
-280.4364 -5.3488 -45.5850 0.879 0.284 0.383 69 66 63
-306.6648 -1.1637 -50.0809 0.565 -0.820 0.094 78 69 66
-339.8515 12.7388 -55.0660 0.450 -0.789 -0.418 68 65 58
-337.1920 13.0877 -54.5469 0.431 -0.816 -0.386 65 62 55
-334.0643 13.3679 -53.9471 0.435 -0.812 -0.389 65 62 55
-326.9990 13.7853 -52.6097 0.543 -0.756 -0.365 64 61 53
-328.6844 19.2285 -52.4756 -0.090 -0.908 0.409 70 67 54
-305.2933 24.3602 -47.7415 0.769 0.058 0.636 74 70 62
-303.8311 25.3301 -47.3925 0.627 -0.089 0.774 75 68 64
-320.0536 29.6281 -50.0335 0.680 -0.183 0.710 80 70 68
-328.3360 33.2303 -51.2668 0.846 -0.431 0.314 80 70 68
-312.6106 39.2701 -47.8724 0.612 -0.628 -0.480 94 87 84
-333.2896 49.0332 -50.8887 0.784 -0.531 0.321 100 88 88
-335.9980 54.0843 -50.9754 0.605 -0.468 0.644 80 69 69
-332.1429 54.5233 -50.2284 0.680 -0.423 0.599 80 73 66
-347.5087 83.8647 -50.6642 0.567 -0.597 -0.568 63 55 52
-334.8317 80.1919 -48.6261 0.539 -0.589 -0.602 63 55 52
-352.6987 87.3412 -51.3374 0.733 0.550 0.400 61 53 50
-329.6807 98.7523 -46.1587 0.995 0.070 0.073 55 41 40
-329.7436 99.5832 -46.1024 0.995 0.070 0.073 54 40 39
-331.3870 101.9093 -46.2154 -0.051 -0.963 0.264 54 42 40
-299.6658 94.7006 -40.9535 0.969 -0.205 -0.136 27 16 13
-302.2225 96.6192 -41.2682 0.997 -0.045 -0.065 38 27 23
-326.4732 123.5920 -43.5366 0.197 -0.865 0.461 54 43 37
-322.4469 126.5267 -42.5540 0.370 -0.872 0.321 42 29 21
-322.0907 142.6183 -41.1729 0.832 -0.268 0.486 55 40 33
-323.4111 144.2832 -41.2804 0.698 0.656 0.286 55 40 33
-325.6449 146.5081 -41.5105 0.695 0.658 0.290 55 40 33
-328.4698 150.9078 -41.6720 0.994 0.027 0.108 39 26 18
-328.5023 151.8310 -41.6025 0.994 0.027 0.108 38 25 17
-325.7187 158.2517 -40.5642 0.555 -0.197 0.808 65 49 41
-325.5006 159.0234 -40.4609 0.690 -0.591 0.418 76 60 52
-335.5534 167.4230 -41.6285 0.734 -0.575 0.361 79 65 56
-332.0627 169.8563 -40.7858 0.807 -0.521 -0.278 56 47 41
-326.8200 170.0805 -39.8004 0.727 -0.596 -0.341 54 43 36
-324.1347 171.0416 -39.2265 0.889 0.417 0.189 63 50 41
-329.1845 235.4073 -34.8964 0.572 -0.657 -0.491 52 39 33
-327.1459 234.6313 -34.5838 0.366 -0.751 -0.550 46 36 27
-326.2826 234.9179 -34.4011 0.366 -0.751 -0.550 44 37 27
-298.8277 -52.5535 -53.3896 0.456 -0.129 0.880 143 145 142
-297.3190 -42.6986 -52.3110 0.855 0.418 0.308 152 153 147
-274.8097 -6.2223 -45.1583 0.471 0.294 0.832 135 137 132
-293.1193 -1.6681 -48.2094 0.542 -0.254 0.801 131 120 118
-323.0991 12.0673 -52.6975 0.221 -0.690 0.690 142 142 131
-322.4595 12.6220 -52.5332 0.240 -0.678 0.695 140 140 128
-321.5821 13.1443 -52.3271 0.240 -0.678 0.695 137 138 124
-321.0192 13.7047 -52.1767 0.245 -0.680 0.691 134 134 120
-300.8695 16.9966 -48.1476 0.637 -0.729 -0.252 102 104 87
-313.6685 24.6454 -49.9194 0.617 0.119 0.778 83 84 68
-303.5148 24.0990 -48.0674 0.402 -0.297 0.866 83 83 69
-301.2016 24.2936 -47.6197 0.622 -0.158 0.767 90 89 77
-341.6581 40.2171 -53.8874 0.928 0.295 -0.229 107 102 93
-342.8615 41.1958 -54.0330 0.925 0.300 -0.232 103 98 89
-345.5653 43.2395 -54.3727 0.458 -0.023 0.889 87 83 74
-347.3303 44.3643 -54.6114 0.453 -0.063 0.889 83 80 71
-315.8173 38.7447 -49.1807 0.628 -0.478 -0.614 75 73 62
-338.8543 49.7571 -52.5925 0.626 -0.735 -0.260 66 57 54
-347.0711 57.0772 -53.5351 0.618 -0.614 0.490 47 39 34
-301.4066 52.9253 -45.3430 0.834 0.545 -0.086 45 34 22
-348.4409 76.2254 -52.2427 0.904 -0.404 -0.138 113 106 97
-352.2713 87.2986 -52.0628 0.733 0.550 0.400 78 70 67
-308.2417 78.0239 -44.5902 0.762 0.416 0.496 71 60 58
-332.3050 100.7999 -47.2425 0.141 -0.977 0.161 60 49 47
-295.0309 91.9585 -40.9964 0.919 -0.246 -0.309 49 41 39
-334.6162 121.9127 -45.9671 0.772 0.255 -0.582 50 43 33
-330.4337 125.7873 -44.8727 0.318 -0.751 0.579 59 48 42
-313.9362 120.4637 -42.2223 -0.082 -0.919 0.385 61 51 41
-326.4297 147.1404 -42.3986 0.685 0.663 0.303 54 41 33
-321.7035 153.1441 -41.0305 0.803 -0.564 0.192 60 48 40
-323.6354 156.1746 -41.1463 0.495 -0.233 0.837 63 50 41
-329.3521 169.1602 -41.1640 0.818 -0.467 -0.336 50 41 31
-327.2798 168.6992 -40.8142 0.713 -0.576 -0.400 54 44 35
-324.0148 171.1407 -40.0071 0.889 0.417 0.189 58 45 38
-117.8589 -32.3796 -18.1199 0.212 -0.944 -0.254 149 154 157
-272.7284 -11.7754 -45.7492 0.762 0.647 0.023 154 161 153
-279.3543 -1.7336 -46.1989 0.675 -0.559 0.482 134 120 120
-280.1870 -0.6139 -46.2668 0.792 -0.120 0.599 80 65 66
-323.3678 12.1515 -53.4090 0.275 -0.751 0.601 134 137 122
-322.4301 12.6695 -53.1904 0.275 -0.751 0.601 135 138 119
-321.4971 13.1850 -52.9728 0.275 -0.751 0.601 134 137 117
-320.8829 13.7388 -52.8124 0.275 -0.757 0.592 130 133 114
-317.3984 13.9097 -52.1400 0.250 -0.417 0.874 131 134 116
-328.2937 26.5909 -53.1857 0.575 -0.708 0.410 82 88 64
-300.8752 23.6824 -48.2350 0.651 -0.087 0.754 110 115 92
-314.7909 38.5824 -49.6743 0.609 -0.628 -0.485 137 141 116
-307.4623 52.0835 -47.2094 0.833 0.507 0.222 74 70 53
-300.8696 52.1867 -45.9548 0.833 0.547 -0.085 47 43 24
-301.1754 52.9363 -45.9527 0.832 0.547 -0.087 45 41 22
-322.5759 63.5462 -49.1499 0.767 0.633 0.101 76 73 58
-304.2677 78.7451 -44.4736 0.707 0.377 0.598 74 62 61
-330.4847 99.3307 -47.7837 0.759 0.279 0.588 72 61 61
-326.4641 101.6127 -46.8412 0.067 -0.977 0.205 61 54 53
-302.0984 116.6467 -41.0330 0.330 -0.762 0.557 70 61 50
-311.9494 135.1951 -41.4121 0.520 0.439 0.733 61 49 41
-324.1310 148.5763 -42.6450 0.183 -0.582 0.792 51 41 32
-325.2320 153.7419 -42.4401 0.036 -0.809 0.587 46 36 27
-328.5725 167.8759 -41.9415 0.718 -0.594 -0.363 46 38 24
-327.4804 169.0154 -41.6439 0.718 -0.594 -0.363 50 40 28
-231.6227 -39.8682 -40.6365 0.546 -0.443 -0.711 143 144 139
-289.6991 -44.9026 -52.1468 0.534 -0.444 -0.720 144 145 140
-264.8855 -24.6145 -45.7950 0.809 -0.495 -0.317 116 122 111
-263.8742 -24.1520 -45.5649 0.822 -0.467 -0.326 134 140 130
-272.5500 -8.3030 -45.9718 0.664 0.482 0.572 135 143 130
-277.4144 -1.8665 -46.3937 0.509 -0.289 0.811 141 131 126
-279.8591 -1.1295 -46.8032 0.792 -0.120 0.599 118 111 105
-322.2464 11.4308 -53.9204 0.294 -0.742 0.602 142 145 130
-321.4553 12.5979 -53.6767 0.288 -0.773 0.565 150 153 131
-320.5136 13.1103 -53.4560 0.288 -0.773 0.565 157 160 139
-319.4582 13.6045 -53.2150 0.294 -0.768 0.570 159 161 140
-327.8708 26.5795 -53.7988 0.575 -0.708 0.410 89 99 69
-297.1896 23.0765 -48.2053 0.716 -0.305 0.628 115 127 97
-312.7856 27.7993 -50.8160 0.913 0.194 0.360 125 137 107
-343.5862 78.8072 -52.6764 0.012 -0.843 0.538 144 148 141
-353.0521 86.9669 -53.8425 0.543 -0.835 -0.082 106 93 93
-300.8876 78.9403 -44.4961 0.909 0.361 0.211 57 53 49
-352.1626 102.6578 -52.4317 0.294 -0.927 -0.233 46 42 37
-341.8503 99.2896 -50.7249 0.784 -0.187 0.591 38 36 32
-329.5680 98.2537 -48.4567 0.759 0.279 0.588 68 65 67
-293.6205 90.8153 -42.1667 0.379 -0.921 -0.087 89 89 88
-297.1925 93.1694 -42.6641 0.579 0.047 0.814 93 92 90
-291.7998 114.9833 -39.9075 0.720 -0.197 0.666 70 65 51
-292.2061 115.9714 -39.9072 0.708 -0.231 0.668 74 69 57
-291.3889 116.2747 -39.7268 0.707 -0.365 0.605 72 67 55
-292.6111 117.7289 -39.8457 0.580 -0.475 0.662 69 64 52
-291.4765 142.3154 -37.6847 0.496 0.345 0.796 70 60 42
-327.1365 168.0256 -42.4751 0.876 -0.449 -0.178 66 57 40
-325.8053 168.0593 -42.2177 0.887 0.444 0.126 58 49 32
-330.1667 174.8264 -42.5172 0.414 -0.279 0.867 63 52 47
-328.8873 175.8482 -42.1916 0.328 -0.154 0.932 63 51 50
-151.5357 -43.2740 -25.8072 0.828 0.539 0.154 96 100 109
-290.8337 -44.0455 -52.8407 0.514 -0.468 -0.719 137 140 133
-307.5391 -41.9494 -55.9116 0.059 -0.867 0.495 142 143 138
-288.3699 -38.5922 -51.9373 0.200 -0.715 0.670 148 149 144
-281.3907 -7.7284 -48.1733 0.387 0.141 0.911 117 126 108
-282.1292 -7.1655 -48.2723 0.384 0.143 0.912 115 124 107
-283.5668 -5.5069 -48.4210 0.390 0.185 0.902 122 131 112
-280.1961 -0.5369 -47.3799 0.784 -0.131 0.606 81 79 67
-321.5986 12.0343 -54.4142 0.304 -0.753 0.584 161 164 144
-320.6285 12.5448 -54.1865 0.292 -0.768 0.570 154 157 136
-319.7069 13.0581 -53.9679 0.292 -0.768 0.570 148 151 130
-318.6270 13.5475 -53.7205 0.294 -0.768 0.570 140 143 122
-334.1610 32.5566 -55.2425 0.806 0.423 -0.415 97 111 78
-320.3065 39.2909 -52.0334 0.954 0.227 -0.195 85 97 59
-342.9830 49.5257 -55.6244 0.668 -0.695 -0.265 91 101 67
-319.7968 63.5813 -50.0360 0.787 0.617 -0.012 102 111 80
-319.3813 100.2978 -47.0855 -0.011 -0.958 -0.288 37 37 34
-296.0276 114.3874 -41.4620 0.180 -0.964 0.194 64 61 44
-285.2014 111.4361 -39.5963 0.483 -0.713 0.508 60 56 43
-284.2629 111.6511 -39.3978 0.487 -0.713 0.505 66 62 50
-297.4514 134.1373 -40.1939 0.365 -0.472 0.803 62 56 44
-301.9453 137.7498 -40.7817 0.609 -0.066 0.790 73 67 55
-286.7477 140.9081 -37.5920 0.588 0.196 0.785 79 72 53
-299.5852 152.1282 -39.2007 0.082 -0.863 0.499 65 56 36
-274.8558 138.2508 -35.4970 0.175 -0.883 0.436 54 39 37
-309.2618 163.2023 -40.2088 0.655 -0.663 -0.363 54 39 35
-308.3352 163.4411 -40.0108 0.654 -0.666 -0.359 58 43 40
-306.0206 163.5763 -39.5520 0.680 0.048 0.731 57 43 39
-305.1436 164.7220 -39.2926 0.691 -0.005 0.723 52 42 39
-334.6778 187.9574 -43.1952 0.735 0.411 0.539 48 41 35
-285.7378 161.5751 -35.7809 0.634 -0.430 -0.643 57 53 41
-279.6903 179.8060 -33.1848 0.339 -0.927 0.162 72 62 53
-272.5056 203.4259 -29.9473 0.627 -0.778 -0.046 59 50 43
-234.4379 -40.1188 -42.0324 0.797 -0.115 -0.594 133 134 129
-279.3062 -38.4291 -50.6932 0.451 0.204 0.869 119 120 115
-292.7177 -31.4496 -52.7817 0.845 0.529 0.075 99 101 88
-263.9736 -12.0912 -45.6538 0.757 0.646 -0.102 73 82 59
-274.7222 -2.5405 -47.0218 0.677 -0.576 0.458 92 98 78
-278.3367 -0.1491 -47.5452 0.754 -0.133 0.644 51 54 33
-317.1185 12.7762 -54.1453 0.684 0.175 -0.708 56 59 39
-313.6015 19.7993 -52.9135 -0.008 -0.975 -0.220 64 72 48
-294.8230 20.9804 -49.1428 0.599 -0.632 -0.492 69 80 48
-332.9457 103.1930 -50.2598 0.131 -0.983 -0.131 138 137 133
-337.0573 120.2268 -49.7492 0.811 0.516 -0.275 25 27 17
-343.4639 126.0044 -50.5580 0.840 0.432 -0.330 24 26 12
-345.4231 130.5578 -50.5901 0.636 -0.764 -0.105 32 30 17
-297.4904 114.5433 -42.4357 0.175 -0.953 0.247 61 60 40
-284.0208 111.6423 -40.0207 0.488 -0.715 0.501 54 52 39
-278.6292 124.1017 -38.0015 0.448 -0.541 0.712 69 63 51
-293.2288 143.8003 -39.3400 0.463 -0.886 0.029 79 71 50
-303.1025 159.0455 -40.0966 0.812 0.451 0.371 75 61 52
-305.4420 161.5719 -40.3598 0.819 0.348 0.456 59 45 36
-286.9281 160.9668 -36.7790 0.679 -0.423 -0.600 44 42 27
-294.3960 178.1134 -36.9173 0.420 -0.878 -0.229 58 52 40
-291.9236 215.1114 -33.5739 0.802 -0.455 -0.387 55 51 40
-277.0821 209.1272 -31.1283 0.503 -0.864 0.026 59 50 43
-274.3537 210.1036 -30.5183 0.479 -0.878 0.029 60 51 44
-273.7892 210.4589 -30.3802 0.488 -0.872 0.033 61 52 45
-278.4466 -38.8157 -51.0765 0.374 0.075 0.925 135 136 129
-288.4387 -29.7903 -52.3681 0.784 -0.491 -0.380 102 106 92
-265.1417 -17.1869 -46.7871 0.844 0.329 0.424 80 91 61
-280.9348 -14.3151 -49.6986 0.792 0.567 -0.228 62 73 43
-274.1143 -8.6100 -47.9108 0.835 0.355 0.421 61 72 41
-269.4876 -8.3954 -46.9772 0.763 0.431 0.482 57 68 36
-318.5576 12.3848 -55.1178 0.697 0.212 -0.685 67 70 51
-316.6583 14.6449 -54.5687 0.628 0.153 -0.763 64 67 46
-292.8626 22.4645 -49.2542 0.508 -0.271 0.818 62 73 41
-343.6754 50.5985 -57.1786 0.591 -0.796 -0.133 77 87 51
-343.1032 71.8435 -55.4426 0.749 0.659 -0.075 74 83 52
-337.5840 78.6417 -53.8293 0.022 -0.840 0.542 75 83 60
-352.7759 88.0305 -56.1239 0.681 -0.595 -0.427 61 62 44
-332.7256 103.2189 -50.9891 0.130 -0.983 -0.128 172 172 162
-340.6898 123.0130 -51.0562 0.762 0.484 -0.431 156 158 145
-341.9146 124.4944 -51.1859 0.835 0.428 -0.345 152 154 141
-344.0369 126.4316 -51.4586 0.840 0.432 -0.330 138 140 126
-280.3006 125.2896 -38.9107 0.183 -0.970 0.159 69 62 52
-277.5143 125.7970 -38.3196 0.089 -0.989 0.117 87 80 70
-278.8840 128.9547 -38.3500 0.810 -0.312 -0.496 77 73 62
-279.6377 130.2096 -38.4036 0.930 0.156 0.332 85 81 70
-286.4112 136.9943 -39.2282 0.864 0.223 0.451 85 81 68
-295.0983 153.5820 -39.6834 0.994 0.076 -0.082 99 90 73
-303.2991 183.6205 -39.0150 0.234 -0.724 0.649 64 58 45
-295.4204 179.1290 -37.7962 0.402 -0.889 -0.219 55 49 37
-262.5964 163.0051 -32.5206 0.190 -0.974 -0.121 55 42 34
-279.2427 209.6326 -32.2594 0.319 -0.911 -0.262 57 48 41
-278.5111 209.8428 -32.0983 0.319 -0.911 -0.262 59 50 43
-265.9038 -38.7780 -49.0808 0.239 0.168 0.956 126 129 119
-291.4778 -32.3608 -53.7252 0.787 0.606 0.116 69 74 58
-292.2609 -31.8939 -53.8471 0.786 0.606 0.124 71 76 60
-293.7500 -29.9356 -53.9979 0.866 -0.446 -0.225 83 90 73
-224.3652 -24.1030 -39.6428 0.398 -0.917 -0.030 76 86 52
-260.2265 -11.7430 -45.9018 0.738 0.669 0.089 62 73 39
-282.4200 2.9866 -49.2409 0.643 -0.703 0.304 63 67 40
-289.6584 7.0903 -50.3828 0.980 -0.066 0.187 64 66 43
-288.6493 7.5259 -50.1475 0.984 -0.080 0.157 67 69 47
-319.7023 18.9396 -55.5137 0.537 -0.668 0.515 66 71 48
-300.1926 18.4040 -51.6415 0.334 -0.931 0.151 62 67 44
-288.9640 17.7629 -49.4380 0.182 -0.971 0.156 59 68 39
-303.4901 48.0367 -50.0662 0.796 -0.594 0.117 81 88 54
-297.7021 47.1061 -48.9757 0.674 0.413 0.613 77 84 50
-296.2700 49.2886 -48.5238 0.699 0.374 0.609 66 76 42
-319.0632 100.5117 -49.2288 -0.009 -0.956 -0.292 99 103 82
-342.5106 124.9303 -52.0881 0.835 0.428 -0.345 177 178 164
-343.5991 126.3559 -52.1988 0.842 0.431 -0.326 166 167 153
-294.2014 116.0782 -43.0680 0.421 -0.724 0.547 123 120 103
-291.2423 129.9279 -41.4292 0.036 -0.969 0.243 69 60 51
-285.2952 136.4071 -39.7476 0.873 0.206 0.442 51 44 33
-285.5322 137.3573 -39.7234 0.873 0.206 0.442 54 46 32
-291.1100 141.8773 -40.5008 0.339 -0.927 -0.160 65 55 39
-280.9529 138.2301 -38.7391 0.546 -0.595 0.590 106 94 78
-277.0236 136.3287 -38.0946 0.570 -0.584 0.578 104 92 76
-277.4581 138.1835 -38.0418 0.122 -0.843 0.524 101 92 71
-308.6393 166.8755 -42.1295 0.593 0.037 0.804 81 70 52
-273.9292 154.6558 -36.0908 0.495 0.020 0.869 86 79 69
-285.4969 174.7979 -36.8904 0.178 -0.983 -0.032 52 41 37
-277.4464 170.7309 -35.5829 0.283 -0.891 -0.355 52 42 38
-278.0080 205.8415 -33.0456 0.504 -0.863 -0.041 48 41 31
-278.6708 208.3552 -32.9888 0.472 -0.864 -0.176 48 40 31
-282.0201 221.2485 -32.6873 0.490 -0.512 0.705 60 51 44
-277.2671 217.3090 -32.0315 0.460 -0.469 0.754 59 50 43
-284.5760 -23.2271 -52.2030 0.988 0.129 -0.085 63 76 40
-274.5642 -22.2291 -50.0976 0.590 0.268 0.761 58 70 37
-263.6263 -19.4809 -47.6739 0.018 -0.957 0.289 58 69 39
-262.2462 -3.9911 -46.2388 0.887 0.000 -0.462 58 80 37
-266.0391 -2.6879 -46.9110 0.953 0.088 -0.291 57 80 37
-301.3796 6.2079 -53.4166 0.669 0.160 -0.726 69 71 41
-296.3434 50.6818 -49.0783 0.534 0.337 0.775 56 67 35
-304.6301 73.0666 -49.0900 0.933 -0.350 -0.084 62 78 43
-343.0849 103.7565 -54.6020 0.297 -0.316 0.901 59 61 37
-343.7801 104.8969 -54.6580 0.329 -0.302 0.895 59 61 37
-293.6836 115.9216 -43.6734 0.421 -0.724 0.547 137 134 117
-294.4937 142.6449 -41.8449 0.728 0.240 0.643 105 100 89
-283.2071 140.7152 -39.6992 0.279 -0.957 -0.085 98 88 69
-281.2681 145.7643 -38.9294 0.553 -0.787 0.274 73 62 34
-313.1366 170.2881 -43.5652 0.651 -0.194 -0.734 36 28 9
-273.8640 155.5829 -36.6952 0.504 0.016 0.863 67 64 52
-278.2073 161.4478 -37.1389 0.865 0.497 -0.068 67 64 49
-302.3520 184.1793 -40.3415 0.057 -0.991 -0.120 82 78 67
-282.8794 174.5681 -37.1082 0.185 -0.983 -0.007 77 70 64
-300.8033 192.2290 -39.4271 0.420 -0.886 -0.197 73 67 61
-278.6419 210.4250 -33.5745 0.317 -0.910 -0.267 58 53 40
-268.8558 -46.7836 -51.2652 0.877 -0.089 0.473 132 132 132
-265.0550 -43.8311 -50.2678 0.864 -0.394 0.313 130 131 125
-265.5296 -38.2919 -49.9571 0.268 0.099 0.958 77 85 62
-290.1799 -29.7843 -54.3877 0.827 -0.375 -0.419 50 65 37
-294.8170 3.8257 -52.8629 0.910 -0.403 0.095 54 67 31
-256.5121 35.3740 -42.6797 0.617 -0.327 0.716 81 88 54
-339.4747 80.3954 -56.3839 0.636 -0.755 0.164 57 71 29
-318.1613 77.3959 -52.2321 0.574 -0.796 -0.190 59 81 40
-311.8244 76.5372 -50.9952 0.806 -0.572 -0.151 60 80 40
-349.6271 104.9285 -56.6594 0.937 0.338 0.087 71 74 43
-341.4704 105.7220 -54.9274 0.378 -0.908 -0.183 73 76 47
-340.3570 106.0829 -54.6724 0.375 -0.910 -0.175 77 80 51
-293.1671 115.7655 -44.2773 0.421 -0.724 0.547 88 87 67
-292.4487 139.0028 -42.4179 0.550 0.488 0.678 90 90 75
-282.5419 140.4134 -40.2814 0.280 -0.956 -0.089 107 100 79
-280.8140 140.0191 -39.9559 0.413 -0.908 -0.070 95 88 67
-312.0157 170.5783 -44.1060 0.576 0.374 0.727 83 79 65
-313.9825 173.8482 -44.2686 0.697 -0.160 -0.699 68 65 61
-304.8242 169.8541 -42.6839 0.559 -0.395 -0.729 52 48 42
-285.1709 169.6996 -38.6631 0.731 0.679 0.069 34 33 23
-277.5572 171.1919 -36.9911 0.286 -0.888 -0.359 87 85 76
-272.0381 167.4260 -36.1362 0.364 -0.870 -0.334 88 86 79
-274.5584 171.2222 -36.3736 0.326 -0.879 -0.348 91 89 82
-290.7522 231.7353 -35.2378 0.428 -0.571 0.700 62 59 44
-290.2798 232.2551 -35.1025 0.428 -0.571 0.700 59 55 44
-300.0334 257.3310 -35.2562 0.166 -0.775 0.610 43 43 35
-117.1181 -32.1319 -19.2112 0.199 -0.977 -0.071 151 160 165
-262.5473 -45.6662 -50.3698 0.876 -0.076 0.476 132 132 132
-266.7462 -38.3683 -50.7099 0.292 0.107 0.950 63 73 47
-280.2182 43.7167 -47.5315 0.882 0.464 0.089 68 79 44
-279.7099 44.1774 -47.3926 0.890 0.385 0.242 68 79 44
-293.9919 142.6247 -43.1915 0.711 0.225 0.667 114 118 97
-282.9506 140.0511 -41.0879 0.284 -0.954 -0.092 112 111 85
-282.1226 140.2797 -40.8995 0.284 -0.954 -0.092 105 105 79
-275.8582 137.5309 -39.7998 0.475 -0.848 -0.237 88 89 60
-273.6501 137.5431 -39.3408 0.488 -0.844 -0.223 79 78 44
-286.2025 170.7091 -39.5315 0.734 0.678 0.043 36 40 28
-303.2461 189.0290 -41.7345 0.161 -0.945 -0.284 28 30 19
-319.6269 220.7621 -42.8239 0.241 -0.956 0.170 58 58 53
-316.3211 218.8592 -42.2765 0.213 -0.972 0.098 57 59 52
-291.9801 203.7954 -38.3225 0.243 -0.938 0.246 73 74 68
-273.6053 190.4844 -35.4787 0.666 -0.196 -0.720 69 65 65
-278.7656 209.1228 -35.1930 0.500 -0.861 -0.097 76 83 59
-286.0927 232.1424 -35.0381 0.236 -0.868 0.438 63 61 49
-307.9113 260.6998 -37.4868 0.261 -0.575 0.776 53 53 43
-287.6612 259.7827 -33.3520 0.677 -0.629 -0.382 46 46 38
-261.6203 -42.6374 -50.4395 0.872 -0.331 0.360 125 126 120
-261.4810 -42.2046 -50.3792 0.872 -0.331 0.360 107 108 103
-260.4312 -41.6892 -50.1219 0.813 -0.581 -0.047 107 108 103
-291.1669 -29.7744 -55.7138 0.761 -0.369 -0.534 48 68 33
-281.9767 -25.6022 -53.4859 0.240 -0.944 -0.224 59 79 42
-265.9820 10.0272 -47.5696 0.365 -0.884 -0.293 55 73 34
-278.6440 75.4555 -45.5237 0.078 -0.996 -0.053 55 69 30
-319.0119 137.2882 -49.5488 0.775 -0.456 -0.437 63 79 41
-283.1732 127.8020 -42.7117 0.177 -0.984 -0.023 59 73 37
-281.5433 140.0358 -41.4905 0.286 -0.953 -0.103 66 75 41
-277.3485 137.9343 -40.7615 0.411 -0.844 -0.344 65 76 41
-316.2716 218.0200 -43.1716 0.220 -0.968 0.119 57 60 51
-292.6337 204.6132 -39.1760 0.215 -0.949 0.231 54 56 47
-277.2373 193.1777 -36.7678 0.634 -0.480 -0.607 56 54 50
-276.7635 193.6363 -36.6354 0.634 -0.480 -0.607 56 52 49
-274.5906 193.3958 -36.1968 0.523 -0.577 -0.627 57 54 51
-273.9348 193.6725 -36.0394 0.528 -0.575 -0.625 47 43 40
-274.4565 197.7685 -35.8544 0.788 -0.019 -0.616 57 63 44
-278.4179 209.9414 -35.8107 0.380 -0.910 -0.169 75 81 55
-276.2313 212.4418 -35.1722 0.723 -0.671 0.161 82 84 59
-275.7967 212.9405 -35.0452 0.723 -0.671 0.161 83 87 61
-288.0697 231.4573 -36.2892 0.253 -0.862 0.439 82 81 71
-285.0534 231.2931 -35.6682 0.232 -0.868 0.439 70 66 55
-236.7157 -44.3275 -45.7598 0.334 0.007 0.942 121 121 121
-334.2502 143.6075 -53.1113 0.723 -0.049 0.689 61 79 37
-279.3670 145.0438 -41.3677 0.512 -0.778 0.364 49 59 25
-305.2811 168.9369 -45.1689 0.572 -0.376 -0.729 18 27 9
-280.6964 213.3907 -36.7994 0.326 -0.920 0.218 66 70 43
-292.2425 235.0500 -37.7114 0.377 -0.586 0.717 67 68 54
-275.5063 230.1731 -34.5075 0.321 -0.929 0.184 50 50 42
-294.9547 121.9696 -47.0215 0.874 -0.182 0.451 62 80 38
-290.5226 126.4057 -45.7603 0.168 -0.984 -0.051 59 82 36
-306.6471 170.1244 -46.1549 0.576 -0.365 -0.732 62 72 47
-296.5547 184.1379 -43.0089 0.155 -0.959 -0.238 47 57 31
-289.1948 179.8744 -41.7294 0.116 -0.982 0.147 56 67 39
-274.4378 194.5674 -37.5355 0.537 -0.559 -0.632 65 63 50
-275.3520 212.9463 -36.4439 0.728 -0.666 0.162 45 50 20
-274.9220 213.4477 -36.3166 0.728 -0.666 0.162 63 68 38
-293.6535 235.7474 -38.7709 0.197 -0.980 -0.032 113 114 97
-287.4443 230.2971 -37.8213 0.330 -0.874 0.356 121 119 107
-285.7580 231.5354 -37.3729 0.265 -0.552 0.790 137 138 124
-289.1553 241.2650 -37.4198 0.323 -0.577 0.750 96 96 84
-288.2540 241.3191 -37.2227 0.335 -0.598 0.729 88 88 80
-276.3765 232.3655 -35.3030 0.065 -0.542 0.838 38 38 30
-283.3310 251.3753 -35.4625 -0.044 -0.450 0.892 61 61 53
-288.4649 259.4181 -35.9999 0.457 -0.655 -0.602 64 64 54
-284.9128 256.3604 -35.4524 0.462 -0.694 -0.552 64 64 54
-118.0638 -32.9363 -20.1016 0.013 -0.313 0.950 101 113 113
-125.2938 -32.9570 -21.6702 0.482 0.636 0.602 117 125 128
-244.4909 -36.3046 -47.7391 0.064 -0.262 0.963 51 59 35
-297.2447 185.8239 -43.8125 0.159 -0.952 -0.263 61 70 37
-310.7633 215.8362 -44.6673 0.253 -0.961 0.112 61 70 41
-276.8943 210.0368 -37.7269 0.244 -0.961 0.130 83 87 62
-275.0189 211.8954 -37.1918 0.401 -0.908 0.119 38 43 13
-274.5479 214.2370 -36.9278 0.745 -0.645 0.169 87 89 65
-283.9506 230.8726 -37.8155 0.239 -0.529 0.815 159 157 145
-285.6615 239.7846 -37.5700 0.332 -0.624 0.707 140 137 132
-280.5348 236.1995 -36.7067 0.592 -0.292 0.751 135 132 127
-275.6087 231.7710 -35.9452 0.326 -0.929 0.177 126 123 118
-273.1919 232.0424 -35.4025 0.319 -0.929 0.189 104 101 96
-275.0681 238.1184 -35.3890 0.851 0.358 -0.385 70 67 60
-281.8550 246.8423 -36.2568 0.882 0.285 -0.375 71 68 61
-283.5029 249.7580 -36.4124 0.887 0.274 -0.372 72 69 62
-286.0780 254.8104 -36.6212 0.064 -0.486 0.871 61 58 51
-285.1909 254.8447 -36.4265 0.057 -0.482 0.874 59 56 49
-283.9887 256.6211 -36.0431 0.463 -0.692 -0.554 58 58 50
-245.5756 -67.9663 -50.5881 0.189 -0.867 0.461 84 86 75
-117.1944 -32.6733 -20.0525 0.018 -0.312 0.950 97 107 109
-232.6966 -36.9393 -45.6489 0.293 -0.398 0.869 52 60 36
-287.5321 172.7026 -43.3548 0.766 0.639 -0.073 60 72 35
-278.1474 210.5788 -38.7137 0.228 -0.965 0.130 77 81 58
-275.7008 211.8787 -38.0889 0.721 -0.685 -0.100 46 50 23
-275.2141 212.3241 -37.9519 0.721 -0.684 -0.111 49 52 25
-274.6971 214.6233 -37.6817 0.669 -0.743 -0.029 70 72 48
-275.1328 231.4973 -36.6255 0.322 -0.930 0.179 143 143 137
-274.1303 231.3723 -36.4144 0.312 -0.934 0.177 150 150 144
-275.0513 234.3726 -36.4114 0.410 -0.660 -0.630 145 144 138
-275.3756 236.7262 -36.3219 0.842 0.385 -0.376 135 135 126
-275.2555 237.5896 -36.2366 0.843 0.391 -0.369 121 122 112
-275.9722 239.4038 -36.2698 0.850 0.352 -0.391 122 122 113
-281.7270 246.9648 -37.0146 0.885 0.278 -0.372 121 121 112
-290.3651 262.1881 -37.8681 0.455 -0.647 -0.612 101 101 92
-285.5075 258.6773 -37.0435 0.478 -0.665 -0.574 103 103 94
-282.3527 256.0408 -36.5322 0.204 -0.979 0.018 109 108 102
-116.5971 -32.7181 -20.0810 0.114 -0.339 0.934 103 113 115
-116.4964 -32.5706 -20.0488 0.139 -0.248 0.959 89 98 102
-117.1775 -32.5358 -20.1973 0.497 0.709 0.500 143 150 156
-278.6945 182.1554 -41.5024 0.534 -0.443 -0.720 64 70 33
-277.4122 210.0705 -39.3386 0.234 -0.962 0.139 63 70 43
-275.7843 210.3127 -38.9619 0.467 -0.866 -0.177 54 61 32
-275.6408 212.0472 -38.8133 0.721 -0.685 -0.100 46 53 24
-275.1767 212.5160 -38.6790 0.721 -0.685 -0.100 37 45 14
-274.5139 231.0650 -37.2831 0.323 -0.929 0.180 84 89 75
-277.8902 242.8591 -37.2364 0.463 -0.547 -0.697 109 114 98
-282.2084 248.8198 -37.7911 0.898 0.154 -0.412 109 114 98
-284.1298 252.0670 -37.9979 0.895 0.170 -0.412 107 112 96
-283.0239 251.8424 -37.7682 0.890 0.117 -0.441 100 105 89
-122.1425 -37.5938 -21.8022 0.154 -0.785 0.600 41 53 41
-249.1694 -41.8042 -50.5042 0.948 -0.058 0.312 100 111 93
-248.3326 -41.3289 -50.2854 0.938 -0.083 0.336 97 108 86
-282.9078 209.1119 -41.3841 0.757 0.040 -0.652 60 73 43
-274.2602 214.6369 -39.0822 0.532 -0.840 -0.111 57 70 36
-277.8606 219.3248 -39.5763 0.482 -0.868 -0.121 56 68 35
-279.3967 243.8194 -38.2928 0.459 -0.562 -0.688 58 72 43
-277.9144 243.1516 -38.0055 0.459 -0.548 -0.699 57 72 43
-254.6425 -43.1344 -52.2867 0.939 -0.001 0.344 105 117 103
-254.6740 -42.7314 -52.2674 0.947 0.030 0.320 97 110 92
-252.2155 -40.4737 -51.5637 0.953 0.206 0.223 57 75 32
-282.7307 245.8074 -39.7046 0.347 -0.938 -0.002 52 72 33
-282.4792 246.5571 -39.5987 0.354 -0.935 -0.007 52 73 33
-167.1176 -54.8467 -33.5208 0.242 -0.943 0.228 84 92 104
-262.1535 -76.2775 -56.6139 0.748 -0.572 0.336 193 201 214
-228.8156 -44.4262 -46.9408 0.177 -0.982 0.072 124 123 119
-237.7949 -43.6716 -48.9431 -0.084 -0.386 0.919 120 119 115
-242.0847 -39.5698 -49.6579 0.766 -0.441 -0.468 58 75 32
-119.3183 -32.2837 -21.3084 0.944 0.327 0.033 129 136 142
-131.7776 -33.6553 -24.2709 0.095 -0.408 0.908 123 130 136
-225.1246 -39.4538 -46.9922 -0.022 -0.278 0.960 61 74 53
-107.3566 -32.6132 -18.9764 0.043 -0.478 0.877 113 125 121
-118.8839 -32.6356 -21.7190 0.306 -0.840 -0.448 153 160 166
-118.5786 -32.1787 -21.6185 0.938 -0.025 -0.344 148 155 163
-231.2458 -29.6491 -48.2564 0.677 0.523 0.518 46 61 28
-258.4486 -75.3996 -57.9661 0.199 -0.725 0.659 173 189 206
-119.1630 -32.6740 -21.9515 0.280 -0.899 -0.338 145 152 158
-214.6590 -38.4352 -45.2306 0.211 -0.123 0.970 59 72 53
-230.5965 -31.4920 -48.6411 0.983 -0.120 -0.138 47 63 27
-227.4189 -63.8750 -50.2125 0.267 -0.960 -0.089 33 43 32
-119.6422 -32.7408 -22.2356 0.247 -0.956 -0.155 137 146 153
-121.6127 -31.7205 -22.6532 0.031 -0.716 0.697 137 143 141
-207.5799 -38.3823 -43.8942 0.844 -0.049 0.534 62 77 52
-229.9408 -31.8197 -48.9288 0.986 0.164 0.012 48 64 28
-230.0024 -31.4491 -48.9218 0.986 0.164 0.012 46 62 26
-224.3497 -63.1783 -49.8110 0.254 -0.966 -0.049 30 42 31
-119.9922 -32.5079 -22.4730 0.720 -0.670 0.180 166 175 182
-119.8294 -32.3448 -22.4237 0.730 -0.646 0.222 146 155 164
-188.8880 -39.2870 -39.7373 0.275 -0.792 -0.545 125 133 118
-228.7534 -31.3736 -49.0380 0.962 0.225 -0.154 49 64 31
-229.8569 -31.0543 -49.2896 0.990 0.140 -0.024 33 48 15
-230.3764 -30.7032 -49.3964 0.999 -0.000 -0.051 33 48 15
-230.2031 -29.1864 -49.2657 0.812 -0.353 -0.465 30 45 14
-264.5376 -13.3658 -56.7518 0.016 -0.995 -0.094 52 68 30
-119.7596 -32.6149 -22.5881 0.860 0.090 -0.502 176 185 192
-119.6424 -32.4583 -22.5502 0.843 0.032 -0.537 166 175 182
-119.6426 -32.3179 -22.5422 0.843 0.032 -0.537 152 161 168
-119.5868 -32.1698 -22.5199 0.853 0.075 -0.516 140 149 158
-228.7048 -31.3581 -49.4491 0.961 0.217 -0.171 51 66 33
-229.4772 -31.0228 -49.6209 0.967 0.215 -0.136 38 53 20
-118.6468 -32.7341 -22.4831 0.628 -0.776 -0.062 105 114 123
-119.2875 -32.5476 -22.6325 0.459 0.441 0.771 176 185 192
-119.3963 -32.4230 -22.6527 0.513 0.401 0.759 167 176 183
-119.4854 -32.2951 -22.6677 0.517 0.434 0.738 158 167 174
-119.6189 -32.1726 -22.6941 0.551 0.466 0.692 146 155 162
-119.8179 -32.0581 -22.7373 0.550 0.470 0.691 127 136 143
-230.9841 -29.5668 -50.3414 0.812 -0.353 -0.465 43 58 27
-223.6234 -24.1088 -48.1967 0.672 -0.460 -0.580 43 60 24
-214.9369 16.7746 -43.7242 0.354 -0.887 0.296 68 85 41
-213.2256 17.2241 -43.2718 0.384 -0.779 0.495 68 85 40
-116.5612 -32.7010 -22.1193 0.406 0.239 0.882 109 120 121
-117.4430 -32.5600 -22.3336 0.327 0.167 0.930 102 111 120
-117.7621 -32.4695 -22.4090 0.344 0.228 0.911 131 140 147
-118.8704 -32.3491 -22.6816 0.417 0.417 0.807 167 176 183
-119.1173 -32.2436 -22.7379 0.413 0.408 0.815 168 177 184
-119.2635 -32.1234 -22.7681 0.415 0.413 0.810 157 166 171
-119.7705 -32.0502 -22.8918 0.582 0.529 0.617 135 144 149
-119.4751 -31.8702 -22.8074 0.659 -0.060 -0.750 118 127 132
-120.0357 -31.6587 -22.9369 0.697 -0.022 -0.717 114 122 124
-219.5727 -27.3099 -47.7732 0.300 -0.900 -0.315 46 59 31
-215.5702 16.5386 -44.3335 0.401 -0.916 0.007 51 70 25
-212.8082 17.1709 -43.6026 0.389 -0.773 0.501 62 79 34
-117.1851 -32.6571 -22.4343 0.490 0.537 0.686 94 103 110
-117.3616 -32.5473 -22.4732 0.493 0.538 0.684 84 93 102
-117.6474 -32.4521 -22.5407 0.469 0.511 0.720 119 128 135
-118.2907 -32.4056 -22.7018 0.423 0.423 0.801 180 189 196
-118.7695 -32.3338 -22.8196 0.458 0.433 0.776 188 197 204
-119.0143 -32.2281 -22.8761 0.517 0.472 0.714 209 218 225
-119.5110 -32.1551 -22.9984 0.538 0.575 0.616 211 220 225
-119.9389 -32.0708 -23.1026 0.750 -0.015 -0.661 203 212 219
-235.1630 -22.1974 -51.8667 0.740 0.673 -0.003 36 53 17
-216.1552 19.2984 -44.7703 0.335 0.226 0.915 64 81 36
-186.2785 -58.1520 -41.6960 0.561 -0.451 -0.694 125 137 154
-115.9671 -32.4789 -22.2725 0.386 0.190 0.903 104 113 120
-116.9783 -32.3561 -22.5255 0.461 0.437 0.772 137 146 153
-117.3524 -32.2731 -22.6171 0.471 0.443 0.763 201 210 215
-118.0169 -32.2286 -22.7853 0.406 0.459 0.790 211 220 227
-119.3437 -32.1311 -23.1206 0.541 0.573 0.615 222 231 238
-210.5758 47.8544 -42.2504 0.838 -0.357 0.413 57 75 30
-105.2547 -34.4392 -19.7587 -0.072 -0.548 0.834 65 73 62
-115.9981 -32.4824 -22.4387 0.382 0.072 0.921 125 134 141
-116.2019 -32.3786 -22.4860 0.652 0.460 0.602 112 121 128
-116.8091 -32.3310 -22.6408 0.461 0.437 0.772 145 154 161
-117.8285 -32.2013 -22.8980 0.406 0.459 0.790 211 220 227
-118.4099 -32.1430 -23.0456 0.447 0.528 0.722 198 207 214
-230.3974 38.8294 -48.3171 0.991 -0.113 0.065 60 82 35
-210.6459 47.4789 -42.7449 0.817 -0.378 0.436 62 79 35
