ply
format ascii 1.0
element vertex 831
property float x
property float y
property float z
property float nx
property float ny
property float nz
property uchar diffuse_red
property uchar diffuse_green
property uchar diffuse_blue
end_header
-83.2244 -56.1630 -19.0288 0.548 0.592 -0.591 156 165 164
-92.7126 -50.2372 -18.9625 0.785 -0.430 0.447 128 130 129
-118.6794 -54.8976 -22.6312 0.927 -0.223 0.302 67 71 71
-109.0296 -46.0639 -19.9581 -0.231 0.801 0.553 56 57 59
-115.4141 -43.7891 -20.2294 0.658 -0.398 0.640 176 180 188
-115.9693 -43.2964 -20.1986 0.749 -0.302 0.590 194 201 215
-123.8604 -42.4089 -20.8886 0.717 0.330 -0.614 62 64 61
-123.7621 -41.7406 -20.7547 0.583 0.416 -0.698 126 131 134
-27.8843 -72.7986 -16.2599 0.950 0.312 -0.013 89 98 105
-27.9482 -72.6025 -16.2304 0.950 0.312 -0.013 78 87 94
-27.9894 -72.3601 -16.1898 0.950 0.311 -0.015 65 72 82
-40.6789 -83.0448 -19.5732 0.859 0.277 0.430 95 99 100
-40.9321 -82.7510 -19.5463 0.754 0.375 -0.540 105 109 110
-43.4393 -79.1470 -19.1507 0.923 -0.178 0.341 153 157 158
-43.8157 -79.3786 -19.2352 0.758 0.534 0.375 148 152 153
-42.2514 -70.4649 -17.4037 0.527 0.841 -0.123 161 167 167
-42.5911 -70.0793 -17.3692 0.930 -0.053 0.364 190 195 198
-42.0558 -59.7800 -15.3927 0.905 0.350 -0.241 155 158 162
-40.1623 -50.2478 -13.4099 0.747 0.629 0.215 156 157 152
-40.2931 -50.1914 -13.4138 0.664 0.685 0.302 156 157 152
-40.6458 -50.1584 -13.4464 0.901 -0.293 0.320 170 176 174
-40.5541 -49.7321 -13.3569 0.958 0.254 0.136 184 190 190
-40.3062 -49.3442 -13.2575 0.074 0.982 -0.173 179 185 185
-68.9446 -59.5248 -18.2991 0.904 -0.150 -0.400 53 55 54
-68.6500 -58.6609 -18.1059 0.885 -0.009 -0.466 171 173 172
-110.2183 -47.6538 -20.6229 0.477 -0.219 0.851 140 149 152
-114.9763 -43.6172 -20.3940 0.648 -0.399 0.649 189 193 202
-114.9721 -43.1957 -20.3151 0.658 -0.398 0.640 225 233 243
-115.7658 -43.1853 -20.4003 0.749 -0.302 0.590 171 178 193
-114.6076 -42.0670 -20.0649 0.749 0.395 -0.532 83 85 84
-120.4028 -40.5141 -20.4124 0.523 0.076 0.849 177 185 187
-119.4260 -39.8905 -20.1890 -0.014 0.955 0.295 201 209 211
-120.0105 -39.8113 -20.2384 0.358 0.202 0.912 195 203 205
-120.2968 -39.6675 -20.2431 0.384 0.211 0.899 182 190 192
-120.6338 -39.5340 -20.2553 0.404 0.196 0.893 137 145 147
-121.2324 -39.4546 -20.3062 0.333 0.128 0.934 69 77 79
-121.6721 -39.3408 -20.3333 0.321 0.144 0.936 46 54 56
-127.6959 -38.8840 -20.9100 0.959 -0.266 0.097 84 93 92
-131.6505 -35.6396 -20.7404 0.189 0.498 0.846 115 125 127
-131.9443 -35.4820 -20.7433 0.025 0.933 0.358 139 149 152
-133.4735 -35.5215 -20.9187 0.411 0.759 0.505 173 182 187
-27.7770 -72.9298 -16.4231 0.941 0.337 -0.036 85 94 101
-27.9372 -72.6045 -16.3798 0.724 0.672 -0.156 79 88 95
-28.0293 -72.4680 -16.3645 0.733 0.669 -0.126 65 72 82
-40.6812 -83.0636 -19.7671 0.924 0.145 0.352 95 99 100
-43.7567 -79.2965 -19.4020 0.778 0.516 0.359 144 148 149
-43.6949 -78.8745 -19.3158 0.770 0.567 0.293 137 141 142
-44.7465 -79.7654 -19.6005 0.296 0.921 -0.253 126 130 131
-42.3136 -70.5475 -17.5965 0.537 0.834 -0.124 159 165 165
-42.6799 -70.4737 -17.6235 0.962 -0.140 0.235 187 192 195
-65.8246 -85.9411 -23.1121 0.554 0.610 -0.567 131 134 139
-40.1780 -50.2488 -13.5428 0.542 0.562 0.625 156 157 152
-40.3706 -50.2475 -13.5641 0.519 0.607 0.601 156 157 152
-40.5237 -50.2101 -13.5741 0.473 0.662 0.581 164 167 166
-40.4681 -49.9872 -13.5260 0.959 -0.222 0.176 171 177 175
-40.5933 -49.7529 -13.4959 0.724 0.429 0.540 180 186 186
-40.3556 -49.3736 -13.3981 0.066 0.990 -0.126 182 188 188
-40.4960 -49.3260 -13.4048 0.880 0.451 -0.148 187 193 193
-68.6526 -59.7540 -18.5051 0.908 -0.024 -0.418 53 55 54
-69.1498 -59.6297 -18.5372 0.905 -0.149 -0.399 43 44 46
-64.8673 -54.9349 -17.1771 0.886 -0.041 -0.462 180 188 191
-41.9125 -38.1997 -11.4714 -0.383 0.923 -0.032 81 80 60
-50.4956 -42.3926 -13.2168 0.077 -0.319 0.945 113 115 104
-105.5345 -64.5530 -23.5205 -0.455 0.801 0.389 159 165 163
-116.3008 -51.0749 -22.1877 0.811 0.558 -0.178 62 70 56
-113.4061 -49.9266 -21.6490 0.907 0.318 -0.275 56 67 50
-113.8973 -49.8515 -21.6897 0.918 0.235 -0.320 82 95 77
-113.9839 -49.6493 -21.6613 0.916 0.237 -0.325 123 135 121
-115.2592 -49.8151 -21.8348 0.920 0.290 -0.263 144 156 146
-105.7067 -45.8106 -20.0167 0.849 0.435 -0.299 178 186 198
-114.5294 -43.0245 -20.4769 0.658 -0.396 0.640 225 234 244
-114.9862 -42.9303 -20.5102 0.763 -0.326 0.558 161 168 183
-123.2540 -41.9276 -21.2438 0.808 0.363 -0.464 103 105 104
-121.7298 -41.3726 -20.9695 0.569 0.042 0.821 125 129 130
-120.4295 -40.6650 -20.6914 0.480 0.045 0.876 153 158 161
-119.3851 -39.8197 -20.4161 -0.014 0.955 0.295 201 209 211
-119.8214 -39.5045 -20.4055 0.390 0.155 0.908 179 187 189
-120.1545 -39.3708 -20.4175 0.446 0.187 0.876 128 136 138
-120.8095 -39.3036 -20.4779 0.333 0.128 0.934 64 72 74
-121.2414 -39.1887 -20.5045 0.321 0.144 0.936 46 54 56
-120.5308 -38.8392 -20.3595 0.892 0.439 0.103 60 68 70
-126.8049 -37.4034 -20.7894 -0.053 0.924 0.378 191 200 199
-128.1035 -37.4342 -20.9400 -0.055 0.928 0.370 136 145 144
-129.7513 -37.5241 -21.1407 -0.096 0.953 0.288 65 74 73
-134.6733 -37.1202 -21.6137 0.088 0.458 0.885 117 126 125
-135.2730 -37.0086 -21.6596 0.323 0.278 0.904 129 138 138
-133.9937 -36.5817 -21.4366 0.449 0.333 0.829 129 137 139
-131.3083 -35.7208 -20.9753 0.203 0.483 0.852 110 119 118
-131.2062 -35.4991 -20.9223 0.189 0.498 0.846 121 130 129
-131.8489 -35.3982 -20.9750 0.022 0.795 0.607 143 151 153
-132.6319 -35.3181 -21.0473 0.054 0.934 0.352 180 188 191
-40.7158 -83.5017 -20.0447 0.967 0.188 -0.170 88 92 93
-40.7445 -83.1859 -19.9880 0.964 0.217 -0.152 95 99 100
-41.2465 -82.9454 -19.9992 0.789 0.316 -0.528 109 113 114
-43.9804 -81.3301 -20.0021 0.960 -0.194 0.204 180 186 186
-43.6038 -80.4137 -19.7856 0.939 -0.246 0.239 162 171 170
-43.6730 -79.1778 -19.5589 0.786 0.514 0.344 142 146 147
-44.7609 -79.4597 -19.7356 0.491 0.760 -0.426 117 121 122
-45.8135 -80.3245 -20.0188 0.475 0.602 -0.642 105 109 110
-46.1889 -80.5311 -20.1005 0.466 0.660 -0.589 100 104 103
-47.2273 -77.7378 -19.6881 0.667 -0.477 0.573 118 124 124
-46.6054 -76.5871 -19.3993 0.671 -0.480 0.565 109 115 115
-42.3052 -70.5358 -17.7643 0.657 0.731 -0.184 156 162 162
-42.6258 -70.6816 -17.8283 0.967 0.142 0.210 153 159 159
-42.6624 -70.4497 -17.7884 0.965 -0.133 0.227 190 195 198
-65.9611 -86.0763 -23.3909 0.554 0.610 -0.567 128 131 136
-42.0633 -59.7705 -15.6942 0.975 -0.196 -0.105 153 156 160
-40.1614 -50.2207 -13.6669 0.546 0.539 0.641 156 157 152
-40.3092 -50.1792 -13.6757 0.830 0.403 0.385 156 157 152
-40.4881 -50.1650 -13.6933 0.482 0.664 0.571 175 178 177
-40.4366 -49.9457 -13.6458 0.959 -0.222 0.176 171 177 175
-40.5427 -49.6946 -13.6102 0.724 0.429 0.540 155 161 161
-40.3962 -49.3952 -13.5368 0.063 0.987 -0.145 200 206 206
-40.5382 -49.3488 -13.5441 0.883 0.446 -0.145 193 199 199
-40.6709 -49.2938 -13.5487 0.611 0.790 -0.051 183 189 189
-68.8958 -59.8856 -18.7535 0.889 0.027 -0.457 54 56 55
-69.3723 -59.7457 -18.7808 0.881 -0.017 -0.472 42 44 43
-48.4445 -40.8057 -12.8180 0.068 -0.307 0.949 155 156 150
-88.1981 -59.2578 -20.8193 -0.038 0.855 -0.517 150 153 152
-88.4665 -59.1562 -20.8304 -0.116 0.895 -0.431 156 163 163
-62.6325 -40.0246 -14.2758 0.912 0.073 -0.403 160 168 170
-115.4250 -50.7375 -22.2847 0.810 0.527 -0.259 59 67 53
-113.4949 -49.8961 -21.9065 0.907 0.318 -0.275 58 69 52
-114.0401 -49.8375 -21.9571 0.916 0.237 -0.325 84 97 80
-114.0832 -49.6214 -21.9210 0.916 0.237 -0.325 127 139 125
-114.2329 -43.3083 -20.7400 0.723 -0.354 0.594 203 207 217
-114.3357 -43.1251 -20.7169 0.735 -0.356 0.577 199 206 214
-114.2662 -42.8989 -20.6661 0.735 -0.356 0.577 225 233 243
-114.4917 -42.7472 -20.6629 0.751 -0.352 0.558 154 161 175
-114.5977 -42.5657 -20.6404 -0.176 0.797 0.579 71 75 88
-121.4015 -41.4473 -21.1984 0.362 0.052 0.931 107 109 108
-119.2137 -39.3140 -20.5459 0.391 0.135 0.910 174 182 184
-119.9044 -39.0530 -20.5746 0.416 0.069 0.907 53 61 63
-128.5083 -39.1196 -21.5612 0.964 -0.111 0.241 73 82 81
-127.6038 -38.7335 -21.3855 0.959 -0.264 0.101 97 106 105
-126.6243 -38.1291 -21.1600 0.579 0.286 0.764 115 124 123
-126.8013 -37.3368 -21.0297 -0.059 0.926 0.373 188 197 196
-128.2283 -37.3901 -21.2013 -0.087 0.892 0.443 123 132 131
-133.4532 -37.2665 -21.7693 0.191 0.392 0.900 81 89 92
-133.8620 -37.1245 -21.7887 0.304 0.156 0.940 100 108 111
-133.9371 -36.7136 -21.7192 0.326 0.219 0.920 130 138 141
-133.3280 -36.4011 -21.5909 0.770 -0.022 0.638 128 136 138
-133.3523 -36.1957 -21.5547 0.770 -0.022 0.638 119 127 129
-130.5941 -35.5358 -21.1173 0.216 0.437 0.873 109 118 117
-130.9982 -35.3972 -21.1367 0.408 0.705 0.580 124 133 132
-131.3326 -35.2468 -21.1460 -0.002 0.826 0.563 147 155 157
-132.1040 -35.1654 -21.2179 -0.045 0.931 0.362 181 189 191
-133.6480 -35.2037 -21.4000 -0.068 0.935 0.347 157 165 167
-42.5024 -85.4317 -20.8112 0.797 0.574 -0.187 104 108 109
-41.5569 -83.1156 -20.2590 0.715 0.397 -0.576 113 117 118
-43.9775 -81.3334 -20.1957 0.968 -0.176 0.180 182 188 188
-43.3808 -79.7450 -19.8230 0.987 -0.040 0.156 168 174 174
-43.6650 -79.1718 -19.7458 0.765 0.562 0.314 142 146 147
-44.8051 -79.5290 -19.9452 0.490 0.762 -0.424 117 121 122
-46.4328 -80.8862 -20.3921 0.482 0.662 -0.573 99 103 102
-42.1904 -70.3819 -17.8929 0.728 0.644 -0.235 157 163 163
-42.5703 -70.6071 -17.9797 0.974 0.121 0.191 152 158 158
-42.6176 -70.3893 -17.9434 0.965 -0.133 0.227 190 195 198
-42.5010 -69.9569 -17.8472 0.974 -0.111 0.198 191 196 199
-41.9940 -59.9081 -15.8642 0.917 0.397 0.039 128 131 136
-42.0843 -59.7844 -15.8509 0.974 -0.199 -0.105 153 156 160
-40.3203 -50.3504 -13.8414 0.818 0.399 0.413 155 156 151
-40.2752 -50.1354 -13.7950 0.830 0.403 0.385 156 158 153
-40.5544 -50.2105 -13.8415 0.640 0.754 -0.149 173 176 175
-40.5154 -50.0020 -13.7970 0.964 -0.224 0.145 165 171 169
-40.5054 -49.6481 -13.7281 0.729 0.426 0.536 151 157 157
-40.4717 -49.4474 -13.6858 0.061 0.988 -0.143 199 205 205
-40.6394 -49.4228 -13.7003 0.903 0.364 -0.227 192 198 198
-40.7611 -49.3577 -13.7019 0.632 0.773 -0.053 182 188 188
-40.6355 -49.0797 -13.6342 -0.089 0.960 -0.265 143 149 149
-40.9863 -49.2114 -13.6997 0.340 0.765 -0.547 137 139 138
-41.2319 -49.2514 -13.7356 0.363 0.722 -0.590 142 144 143
-41.2860 -49.1276 -13.7181 0.350 0.737 -0.579 88 88 88
-41.4601 -49.1056 -13.7339 0.412 0.658 -0.631 54 54 54
-41.6275 -49.0772 -13.7477 0.327 0.736 -0.593 61 61 61
-69.6706 -60.3698 -19.1320 0.892 0.045 -0.450 55 57 56
-69.6336 -59.8870 -19.0353 0.865 0.012 -0.501 42 44 43
-36.3231 -36.7190 -10.7713 0.910 -0.033 -0.414 191 199 202
-36.1349 -36.4891 -10.7056 0.920 -0.083 -0.383 197 205 208
-36.6427 -36.3501 -10.7374 0.847 0.017 -0.531 183 190 196
-113.1691 -49.7351 -22.0920 0.900 0.375 -0.224 59 70 53
-113.7941 -49.7018 -22.1575 0.907 0.344 -0.243 87 100 83
-113.7557 -49.4609 -22.1069 0.901 0.330 -0.281 129 141 128
-110.1514 -47.4629 -21.3102 0.396 -0.212 0.894 157 166 171
-120.0604 -45.6186 -22.0952 -0.045 0.990 0.130 121 131 122
-119.7566 -45.0956 -21.9602 0.361 0.103 0.927 134 143 139
-113.9968 -43.1888 -20.9333 0.727 -0.349 0.591 207 211 221
-113.9298 -42.9631 -20.8824 0.727 -0.349 0.591 201 208 216
-113.8630 -42.7383 -20.8316 0.727 -0.349 0.591 225 232 240
-113.9473 -42.5521 -20.8057 0.754 -0.349 0.556 147 153 167
-113.8476 -42.3206 -20.7499 -0.176 0.797 0.579 63 66 79
-120.4223 -41.1647 -21.2837 0.292 -0.018 0.956 113 115 114
-119.0005 -40.2269 -20.9408 0.470 0.027 0.882 158 163 167
-119.0437 -39.6224 -20.8300 0.348 0.042 0.936 190 195 199
-119.5416 -38.9155 -20.7518 0.416 0.069 0.907 36 41 45
-127.4388 -38.6354 -21.6053 0.961 -0.267 0.077 100 109 108
-126.8805 -38.1115 -21.4409 0.929 -0.196 0.312 115 124 123
-126.6963 -37.2517 -21.2550 -0.050 0.969 0.241 182 191 190
-128.1049 -37.3011 -21.4263 -0.064 0.977 0.204 110 119 118
-133.0422 -37.1262 -21.9600 0.176 0.406 0.897 83 91 93
-133.4187 -36.5570 -21.8942 0.319 0.235 0.918 131 139 142
-133.3447 -36.3345 -21.8431 0.527 0.321 0.787 127 135 137
-130.5612 -35.4625 -21.3563 0.884 0.459 0.086 111 119 121
-131.2247 -35.3657 -21.4140 0.851 0.497 0.171 127 135 137
-131.0728 -35.1370 -21.3527 0.003 0.819 0.574 152 160 162
-131.9534 -35.0729 -21.4416 -0.070 0.933 0.352 182 190 192
-27.7358 -72.9207 -16.8700 0.975 0.213 -0.070 89 100 104
-40.7208 -83.9086 -20.5076 0.989 0.002 -0.146 81 85 84
-42.5327 -85.4973 -21.0260 0.795 0.576 -0.190 104 108 109
-43.4507 -81.5669 -20.3731 -0.081 0.992 0.095 164 169 172
-43.6219 -80.4560 -20.1783 0.928 -0.302 0.217 163 169 169
-43.4937 -79.2537 -19.9310 0.776 0.631 -0.014 139 143 144
-43.5869 -79.0614 -19.9046 0.778 0.628 -0.022 143 147 148
-44.7484 -79.4510 -20.1153 0.413 0.737 -0.535 118 122 123
-46.8489 -81.4891 -20.7542 0.478 0.666 -0.573 100 104 105
-46.4421 -78.9127 -20.2087 0.286 0.924 0.253 102 106 105
-46.5558 -78.7459 -20.1897 0.276 0.922 0.272 108 112 111
-46.7683 -78.7161 -20.2087 0.190 0.974 0.125 111 117 117
-42.1143 -70.2799 -18.0354 0.735 0.659 -0.159 155 161 161
-42.5623 -70.3152 -18.0944 0.964 -0.133 0.230 189 194 197
-42.4632 -69.9060 -18.0038 0.974 -0.111 0.198 192 198 198
-45.6003 -65.8089 -17.5773 0.913 -0.051 -0.405 144 146 143
-66.3640 -86.8414 -24.0635 0.468 0.700 -0.538 166 169 174
-41.9933 -59.8986 -16.0144 0.991 0.064 0.114 129 132 137
-40.2669 -50.1147 -13.9217 0.724 0.488 -0.488 155 157 152
-40.2984 -49.9692 -13.8972 0.129 0.797 -0.590 169 172 171
-40.4211 -49.9048 -13.8991 0.765 0.434 -0.475 158 164 162
-40.6105 -49.5547 -13.8535 0.726 0.672 -0.145 195 201 201
-40.7073 -49.1272 -13.7821 -0.089 0.960 -0.265 143 149 149
-41.0737 -49.2719 -13.8528 0.018 0.955 -0.296 139 141 140
-41.2947 -49.2903 -13.8821 0.014 0.954 -0.299 140 142 141
-41.4692 -49.2683 -13.8982 0.042 0.953 -0.301 110 110 110
-41.5984 -49.2075 -13.9015 0.314 0.743 -0.591 56 56 56
-41.7544 -49.1688 -13.9122 0.326 0.736 -0.594 62 62 62
-42.2017 -49.3731 -14.0038 0.621 0.486 -0.614 61 61 61
-69.9081 -60.0366 -19.2946 0.867 0.012 -0.499 38 42 44
-36.2820 -36.5637 -10.8376 0.931 -0.098 -0.353 198 208 210
-36.7825 -36.4181 -10.8677 0.852 -0.026 -0.523 194 199 205
-36.9737 -36.1955 -10.8470 0.423 0.509 -0.750 156 164 167
-37.0547 -36.1317 -10.8441 -0.200 0.909 -0.365 145 152 158
-37.4205 -36.2361 -10.9069 -0.194 0.909 -0.369 88 93 98
-44.4585 -39.3388 -12.3271 0.302 0.908 0.290 82 82 56
-46.7556 -40.3691 -12.7940 0.106 -0.379 0.920 82 84 65
-97.5093 -63.1388 -23.1114 -0.074 0.806 0.587 158 164 164
-82.2245 -53.2986 -19.4276 -0.455 0.800 0.391 156 165 164
-44.4024 -34.4993 -11.3849 -0.423 0.754 0.503 209 217 219
-113.8525 -50.1218 -22.4998 0.356 0.014 0.934 56 64 50
-113.8096 -49.4188 -22.3589 0.750 -0.064 0.658 132 144 132
-111.1564 -47.0508 -21.5919 0.571 0.493 -0.656 159 167 181
-118.4314 -45.1304 -22.0686 -0.166 0.946 0.278 123 133 123
-114.3535 -43.4302 -21.2646 0.645 -0.302 0.701 157 162 167
-113.4636 -42.9941 -21.0766 0.830 -0.417 0.371 207 211 222
-113.2641 -42.7359 -21.0034 0.781 -0.353 0.515 204 208 219
-113.6675 -42.6301 -21.0300 0.752 -0.348 0.560 213 220 228
-113.6019 -42.4069 -20.9792 0.752 -0.348 0.560 133 138 152
-112.8431 -42.0135 -20.8147 0.238 0.407 0.882 63 65 77
-120.9246 -41.6369 -21.6838 -0.055 0.278 0.959 57 57 57
-127.6130 -38.8129 -21.9175 0.812 -0.233 0.534 79 88 87
-127.2950 -38.5415 -21.8279 0.956 -0.108 0.274 103 112 111
-126.8185 -38.2417 -21.7144 0.986 -0.066 0.153 117 126 125
-126.7024 -37.1868 -21.4970 -0.056 0.987 0.154 175 184 183
-128.1366 -37.2401 -21.6745 -0.056 0.987 0.154 98 107 106
-132.6152 -36.9835 -22.1468 0.173 0.401 0.900 85 93 95
-133.6393 -36.3139 -22.1368 0.958 0.253 -0.135 126 134 136
-131.2164 -35.2961 -21.6576 0.851 0.497 0.171 130 138 141
-131.6808 -35.1657 -21.6865 0.280 0.727 0.627 156 164 167
-27.9794 -72.7946 -17.0258 0.543 0.735 -0.407 78 89 93
-28.1182 -72.7536 -17.0342 0.527 0.747 -0.407 74 85 87
-28.2916 -72.7837 -17.0606 0.546 0.746 -0.381 65 75 77
-40.1783 -84.4718 -20.7465 0.961 -0.252 -0.110 84 86 85
-40.8031 -83.6967 -20.6692 0.983 0.095 -0.155 86 90 91
-41.6952 -84.4736 -20.9262 0.619 0.780 -0.094 97 101 104
-42.5505 -85.5419 -21.2358 0.795 0.576 -0.190 101 105 106
-43.6202 -80.4609 -20.3709 0.926 -0.303 0.225 160 165 168
-43.4455 -79.1879 -20.1019 0.755 0.655 -0.012 132 136 139
-43.5569 -79.0226 -20.0828 0.538 0.828 -0.155 136 140 143
-44.8428 -79.5938 -20.3463 0.456 0.834 -0.312 116 120 123
-46.0825 -80.7265 -20.7139 0.231 0.933 -0.276 105 109 110
-46.9343 -81.6162 -20.9882 0.349 0.901 -0.257 100 104 105
-46.4987 -78.6683 -20.3615 0.192 0.973 0.126 106 112 112
-45.3600 -75.2199 -19.5541 0.807 -0.406 0.430 116 122 122
-44.8818 -73.9740 -19.2544 0.851 -0.415 0.323 153 159 159
-42.5397 -70.2843 -18.2576 0.973 -0.141 -0.184 187 192 195
-42.4962 -69.9481 -18.1869 0.970 -0.122 0.212 195 199 200
-45.7051 -65.9197 -17.7803 0.914 -0.057 -0.402 144 146 143
-45.9389 -65.9314 -17.8102 0.936 0.055 -0.349 152 154 152
-41.9692 -59.8635 -16.1569 0.981 -0.032 0.192 129 132 137
-40.3353 -50.1625 -14.0710 0.724 0.488 -0.488 155 157 152
-40.4681 -50.1067 -14.0758 0.128 0.797 -0.591 166 170 169
-40.4423 -49.9100 -14.0344 0.795 0.420 -0.438 155 161 159
-40.3116 -49.6221 -13.9627 0.597 0.638 -0.486 148 154 154
-40.5892 -49.5222 -13.9761 0.916 0.376 -0.142 195 201 201
-40.8582 -49.4134 -13.9867 0.195 0.974 -0.118 180 186 186
-41.1029 -49.2824 -13.9900 -0.210 0.975 -0.079 140 142 141
-41.3959 -49.3619 -14.0402 -0.209 0.975 -0.075 136 138 137
-41.6706 -49.4242 -14.0848 -0.209 0.975 -0.075 125 125 125
-41.7341 -49.3070 -14.0695 0.338 0.746 -0.574 57 57 57
-41.8687 -49.2497 -14.0742 0.338 0.746 -0.574 62 62 62
-42.2238 -49.3763 -14.1409 0.826 0.512 -0.237 62 62 62
-70.1822 -66.2518 -20.7392 -0.552 0.626 0.551 45 47 44
-70.1800 -63.2586 -20.1549 0.728 -0.358 0.584 55 64 71
-70.0549 -62.6879 -20.0288 0.728 -0.356 0.586 67 68 72
-69.4121 -61.7677 -19.7733 0.302 0.384 0.873 49 48 52
-36.5723 -36.7266 -11.0046 0.819 0.183 -0.545 199 209 210
-36.9477 -36.6149 -11.0272 0.900 -0.134 -0.415 197 202 206
-36.8657 -36.4516 -10.9856 0.850 -0.021 -0.526 199 204 208
-36.9071 -36.3636 -10.9733 -0.011 0.938 -0.347 157 162 166
-37.1397 -36.3904 -11.0061 -0.022 0.923 -0.384 147 150 155
-37.1210 -36.2664 -10.9797 0.423 0.534 -0.732 160 165 168
-37.2419 -36.2257 -10.9860 -0.270 0.934 -0.232 142 150 153
-79.5110 -44.4992 -17.5981 -0.128 -0.016 0.992 99 108 105
-138.6098 -63.6837 -28.3289 -0.334 0.938 0.099 114 120 120
-114.0048 -49.4203 -22.6367 0.716 -0.038 0.698 135 147 135
-109.5009 -47.1529 -21.6618 0.683 0.403 -0.610 178 187 193
-57.2334 -29.8545 -12.1067 0.933 0.355 0.054 70 71 65
-127.8316 -47.9975 -23.9939 -0.066 -0.060 0.996 101 110 93
-118.5786 -44.8872 -22.2930 0.101 0.070 0.992 125 132 125
-114.0891 -43.3032 -21.4532 0.645 -0.302 0.701 177 182 187
-113.1069 -42.8446 -21.2475 0.774 -0.356 0.524 212 216 227
-113.0389 -42.6203 -21.1957 0.774 -0.356 0.524 207 211 222
-113.4711 -42.5219 -21.2276 0.768 -0.349 0.538 192 196 207
-113.1356 -42.2321 -21.1314 0.770 -0.352 0.533 116 119 134
-112.4993 -41.8701 -20.9856 0.475 -0.116 0.872 65 67 78
-118.5738 -40.6268 -21.4612 0.287 0.072 0.955 128 128 128
-127.8490 -39.0032 -22.2411 0.796 -0.248 0.553 67 76 75
-127.3372 -38.6932 -22.1201 0.797 -0.235 0.556 82 91 90
-126.9085 -38.4013 -22.0125 0.988 0.047 0.148 105 114 113
-96.7561 -32.3286 -17.2625 -0.103 0.994 -0.022 112 121 120
-100.8302 -32.9280 -17.8612 0.996 -0.093 0.012 124 133 132
-126.7404 -37.1276 -21.7441 -0.057 0.979 0.196 168 177 176
-128.0251 -37.1533 -21.9010 -0.056 0.979 0.196 88 97 96
-132.1348 -36.4127 -22.2424 0.109 0.201 0.973 126 134 136
-133.6426 -36.2448 -22.3880 0.944 0.283 -0.168 124 132 134
-131.2080 -35.2264 -21.9014 0.851 0.497 0.171 140 148 151
-131.3694 -35.0477 -21.8856 0.413 0.661 0.626 188 196 198
-27.8513 -72.8834 -17.1800 0.531 0.741 -0.411 84 95 99
-27.9945 -72.8519 -17.1910 0.530 0.745 -0.405 78 89 93
-28.1424 -72.8292 -17.2042 0.527 0.747 -0.407 74 85 87
-28.3591 -72.9488 -17.2538 0.997 0.081 -0.013 64 75 77
-28.4033 -72.7092 -17.2119 0.997 0.076 -0.012 62 72 74
-42.5837 -85.6124 -21.4532 0.647 0.757 -0.091 101 105 106
-43.8873 -81.2188 -20.7444 0.922 -0.313 0.227 186 190 193
-43.4730 -79.2355 -20.3042 0.742 0.669 0.032 127 131 134
-43.5746 -79.0551 -20.2808 0.583 0.798 -0.153 133 134 138
-45.1840 -79.7630 -20.6132 -0.120 0.989 0.084 109 113 116
-46.6637 -81.2306 -21.0797 0.174 0.920 0.352 99 103 104
-47.0969 -81.5120 -21.1870 0.297 0.909 0.294 96 100 101
-42.4981 -70.5089 -18.4690 0.969 0.112 0.220 151 157 157
-42.5485 -70.2949 -18.4329 0.973 -0.145 -0.178 180 185 187
-42.0300 -60.3695 -16.4163 0.990 -0.107 -0.087 166 169 174
-42.0088 -59.8980 -16.3209 0.860 -0.486 0.158 132 135 140
-40.4041 -50.2106 -14.2210 0.724 0.488 -0.488 140 142 137
-40.4910 -50.1135 -14.2123 0.093 0.818 -0.568 176 180 179
-40.5024 -49.9496 -14.1814 0.795 0.420 -0.438 164 170 168
-40.3817 -49.6701 -14.1119 0.597 0.638 -0.486 158 164 164
-40.4957 -49.5982 -14.1114 0.946 0.296 -0.133 139 145 145
-40.5925 -49.5111 -14.1059 0.899 0.394 -0.189 189 195 195
-40.8881 -49.4250 -14.1244 0.033 0.993 -0.118 167 173 173
-41.2220 -49.3697 -14.1535 -0.286 0.925 0.252 138 141 139
-41.5115 -49.4456 -14.2032 -0.286 0.925 0.252 133 135 132
-41.7442 -49.4718 -14.2363 -0.191 0.978 -0.082 70 70 68
-41.7934 -49.3420 -14.2166 0.563 0.792 0.235 68 68 66
-41.9039 -49.2641 -14.2145 0.563 0.792 0.235 62 62 60
-72.2986 -66.7491 -21.3024 -0.363 0.706 0.608 48 60 62
-72.6997 -66.7811 -21.3568 -0.358 0.689 0.630 54 70 77
-73.4092 -67.0336 -21.4916 -0.399 0.661 0.636 43 64 72
-70.4029 -63.1415 -20.3647 0.900 -0.151 0.410 61 73 81
-70.3024 -62.8295 -20.2912 0.638 0.770 -0.009 46 51 58
-71.3356 -62.5735 -20.3647 -0.237 0.901 -0.364 51 51 58
-72.0618 -62.8238 -20.5011 -0.238 0.904 -0.356 50 52 59
-70.5437 -60.3919 -19.8402 0.545 0.837 -0.050 39 43 51
-70.4473 -60.0981 -19.7708 0.973 0.163 -0.164 129 133 141
-70.4063 -59.8417 -19.7154 0.969 0.170 -0.181 188 191 196
-70.3053 -59.5479 -19.6454 0.991 0.098 -0.093 175 180 184
-35.9498 -36.6643 -11.0195 0.916 -0.285 -0.283 182 192 192
-36.4842 -36.6557 -11.0819 0.920 0.329 -0.214 199 209 210
-37.0017 -36.6309 -11.1391 0.900 -0.134 -0.415 197 202 206
-36.9894 -36.5096 -11.1138 0.854 -0.008 -0.521 199 204 208
-36.9513 -36.3733 -11.0823 0.010 0.946 -0.325 155 160 164
-37.1643 -36.3881 -11.1108 -0.035 0.947 -0.318 149 152 157
-37.8935 -36.4805 -11.2164 -0.265 0.936 -0.231 86 91 94
-40.2014 -37.3610 -11.6666 -0.459 0.800 0.386 80 81 55
-41.4095 -37.9364 -11.9248 -0.461 0.797 0.390 75 79 49
-44.0301 -38.6714 -12.3837 0.074 -0.350 0.934 89 93 78
-92.5172 -60.7887 -22.5535 -0.292 0.934 -0.205 158 164 164
-114.7154 -49.5806 -23.0087 0.625 -0.102 0.774 137 149 138
-57.2842 -30.0566 -12.2770 -0.280 0.851 0.445 69 70 64
-113.5918 -43.1170 -21.6012 0.762 -0.394 0.515 183 188 193
-112.8351 -42.7169 -21.4317 0.772 -0.354 0.527 212 214 225
-112.8562 -42.5155 -21.3946 0.774 -0.356 0.524 207 211 222
-113.2839 -42.4160 -21.4263 0.768 -0.349 0.538 186 190 202
-112.9506 -42.1273 -21.3294 0.770 -0.352 0.533 109 113 126
-112.3390 -41.7721 -21.1861 0.728 -0.238 0.643 68 68 80
-70.6378 -30.5161 -13.9688 -0.135 0.123 0.983 86 84 85
-118.5839 -40.5671 -21.6978 0.364 0.087 0.927 132 132 133
-136.4057 -41.9615 -24.1096 -0.181 0.983 0.045 45 50 54
-127.4028 -38.8501 -22.4173 0.755 -0.380 0.534 67 76 75
-97.0314 -32.3296 -17.4912 -0.093 0.993 -0.074 114 123 122
-100.5881 -32.8305 -18.0163 0.986 -0.146 -0.078 130 139 138
-133.1612 -36.9385 -22.7315 -0.123 0.744 0.657 97 105 107
-133.5067 -36.7854 -22.7428 -0.105 0.833 0.543 116 124 126
-133.7067 -36.1856 -22.6487 0.944 0.283 -0.168 119 127 130
-131.2221 -35.3651 -22.1891 0.973 0.136 -0.188 111 119 121
-131.4785 -35.2012 -22.1876 0.971 0.148 -0.189 156 164 166
-131.3421 -34.9749 -22.1267 0.045 0.999 -0.005 203 211 213
-132.6556 -34.9768 -22.2846 -0.032 0.999 0.015 188 196 198
-28.0278 -72.9476 -17.3665 0.543 0.735 -0.407 80 91 95
-28.1647 -72.9011 -17.3739 0.530 0.749 -0.397 79 89 91
-28.3370 -72.9278 -17.4002 0.526 0.756 -0.390 67 77 79
-28.5055 -72.9449 -17.4241 0.858 0.512 0.043 63 73 74
-40.5190 -85.4848 -21.3767 0.946 -0.301 -0.120 82 84 81
-41.5132 -84.1959 -21.2416 0.370 0.881 0.296 96 102 102
-42.3206 -85.1848 -21.5362 0.330 0.755 0.567 101 105 106
-43.6979 -79.2451 -20.5235 0.578 0.807 -0.123 131 135 138
-45.0744 -79.6081 -20.7631 -0.171 0.977 0.127 109 113 116
-45.7518 -80.2565 -20.9743 -0.109 0.994 0.010 103 107 108
-46.5760 -81.1083 -21.2437 0.193 0.845 0.498 98 104 104
-46.8423 -81.1510 -21.2846 0.345 0.626 0.699 95 101 99
-42.6916 -70.7652 -18.7162 0.984 -0.089 -0.156 152 156 157
-78.6120 -113.4121 -31.5585 0.089 0.931 -0.355 145 147 142
-41.7328 -60.2583 -16.5118 0.087 0.976 0.201 169 174 177
-42.0446 -60.3772 -16.5734 0.990 -0.107 -0.087 164 169 172
-40.5371 -49.9666 -14.3215 0.801 0.418 -0.428 167 171 172
-40.5608 -49.8141 -14.2940 0.805 0.411 -0.427 159 165 165
-40.5180 -49.6039 -14.2471 0.935 0.324 -0.145 139 145 145
-40.7008 -49.5916 -14.2669 0.976 -0.029 -0.217 189 195 195
-40.9836 -49.4931 -14.2817 0.028 0.989 -0.143 165 171 171
-41.2030 -49.3390 -14.2778 -0.326 0.911 0.251 136 141 138
-41.5170 -49.4356 -14.3351 -0.326 0.911 0.251 134 136 133
-41.7967 -49.5013 -14.3822 -0.339 0.902 0.268 68 68 66
-41.7697 -49.3071 -14.3403 0.694 0.051 0.719 68 68 66
-71.4648 -66.3694 -21.3419 -0.424 0.761 0.491 78 85 84
-70.3067 -63.0445 -20.5404 0.900 -0.151 0.410 136 149 159
-70.5295 -62.9567 -20.5501 0.544 0.825 -0.152 60 68 75
-70.6589 -62.8040 -20.5355 0.097 0.835 -0.542 36 42 49
-70.6935 -62.5865 -20.4965 -0.187 0.905 -0.382 41 44 52
-71.0137 -62.5645 -20.5310 -0.210 0.904 -0.373 44 49 58
-70.7098 -60.9357 -20.1704 0.280 0.941 -0.190 58 63 69
-70.7225 -60.7106 -20.1272 0.984 0.181 0.005 49 54 60
-36.3165 -36.7633 -11.1847 0.893 0.427 -0.141 188 198 199
-36.3570 -36.6744 -11.1720 0.893 0.427 -0.141 193 203 204
-36.5044 -36.6516 -11.1854 0.944 0.263 -0.200 199 209 210
-37.0811 -36.5481 -11.2349 0.651 0.508 -0.564 198 203 207
-37.0909 -36.4403 -11.2147 0.016 0.943 -0.332 153 158 162
-37.2576 -36.4268 -11.2323 -0.028 0.938 -0.346 150 153 158
-37.5357 -36.3654 -11.2539 -0.273 0.939 -0.209 138 145 151
-37.9815 -36.5148 -11.3378 -0.240 0.954 -0.177 84 89 94
-43.4273 -38.4406 -12.3827 0.085 -0.358 0.930 69 72 51
-113.2108 -59.8347 -25.1203 -0.336 0.534 0.776 164 169 172
-113.4852 -50.0604 -23.2115 0.586 0.137 0.799 62 66 55
-112.8566 -47.6002 -22.6462 0.301 0.892 -0.337 169 172 189
-113.4018 -43.0094 -21.8003 0.762 -0.394 0.515 189 194 197
-112.9211 -42.4729 -21.6353 0.978 -0.179 -0.106 208 212 223
-113.4814 -42.4061 -21.6901 0.965 -0.225 -0.132 181 184 198
-113.2548 -42.1435 -21.6104 0.876 0.031 -0.482 103 106 120
-117.3205 -40.0206 -21.6830 0.640 0.141 0.755 151 154 157
-126.7760 -38.8728 -22.6049 -0.046 0.659 0.751 64 73 72
-127.6876 -38.8385 -22.7089 0.779 -0.260 0.571 67 76 75
-99.1218 -32.8314 -18.0413 0.081 0.980 -0.184 126 135 134
-97.3353 -32.3356 -17.7256 -0.091 0.992 -0.088 122 131 130
-100.5958 -32.7794 -18.2103 0.986 -0.146 -0.078 138 147 146
-127.2084 -37.0795 -22.3011 -0.176 0.909 0.378 145 154 153
-129.1098 -37.0050 -22.5176 -0.103 0.894 0.437 56 65 64
-131.9256 -36.8686 -22.8329 -0.093 0.792 0.604 86 94 96
-133.0758 -36.6430 -22.9279 -0.129 0.747 0.652 118 126 128
-133.5891 -36.0966 -22.8818 0.946 0.291 -0.145 117 125 127
-131.3005 -35.1042 -22.4063 0.973 0.136 -0.188 171 179 181
-131.4057 -34.9164 -22.3818 0.043 0.999 -0.018 202 210 212
-133.0498 -34.9692 -22.5922 -0.042 0.998 0.051 164 172 174
-28.0540 -73.0283 -17.5389 0.625 0.734 -0.267 85 96 100
-28.1923 -72.9842 -17.5471 0.628 0.733 -0.262 86 96 98
-28.3448 -72.9688 -17.5629 0.526 0.754 -0.393 71 81 83
-28.4209 -72.7944 -17.5373 0.896 0.391 -0.210 63 73 74
-40.9942 -86.7293 -21.8816 0.945 -0.299 -0.136 22 24 23
-40.6017 -85.6488 -21.6165 0.946 -0.301 -0.120 75 77 76
-42.0832 -84.4285 -21.5545 0.864 0.295 0.408 106 110 111
-43.6257 -80.8341 -21.0240 0.961 -0.050 -0.273 187 191 194
-43.5059 -79.9698 -20.8360 0.749 0.238 -0.618 170 174 177
-43.5773 -79.7403 -20.7988 0.750 0.232 -0.619 114 118 121
-43.6550 -79.5212 -20.7644 0.744 0.304 -0.595 125 129 132
-43.7694 -79.3580 -20.7458 0.743 0.286 -0.605 132 136 139
-45.0216 -79.5359 -20.9359 -0.177 0.977 0.116 109 113 116
-46.5122 -81.0205 -21.4173 0.193 0.845 0.498 98 104 104
-44.1397 -73.2771 -19.5722 0.861 -0.400 0.314 109 115 115
-43.8983 -72.6594 -19.4186 0.863 -0.399 0.308 149 155 155
-42.3408 -61.1520 -16.9193 0.103 0.984 0.147 165 170 173
-41.7033 -60.2175 -16.6534 0.093 0.973 0.213 168 173 176
-42.0561 -60.3813 -16.7297 0.996 -0.074 -0.044 165 170 173
-40.6621 -50.0635 -14.4891 0.989 0.121 -0.085 167 171 170
-40.7066 -49.9286 -14.4675 0.799 0.418 -0.432 159 165 165
-40.5536 -49.6212 -14.3870 0.932 0.331 -0.145 140 146 146
-40.7321 -49.6048 -14.4058 0.976 -0.029 -0.217 190 196 196
-40.7181 -49.4208 -14.3671 0.976 -0.029 -0.217 189 195 195
-41.0102 -49.5018 -14.4194 0.038 0.990 -0.133 164 170 170
-40.9301 -49.2615 -14.3613 -0.323 0.917 0.233 137 143 143
-41.1734 -49.2991 -14.3989 -0.315 0.919 0.237 136 140 138
-41.4746 -49.3847 -14.4532 0.097 0.829 0.551 133 135 132
-41.6360 -49.3503 -14.4662 0.093 0.822 0.562 69 68 66
-70.0654 -66.0795 -21.3259 0.670 0.725 -0.160 73 76 73
-70.2176 -65.9367 -21.3160 0.670 0.725 -0.160 61 65 64
-70.6304 -65.9853 -21.3767 0.166 0.957 0.239 94 98 99
-71.4096 -66.2996 -21.5358 -0.307 0.736 0.604 134 139 138
-70.2662 -62.9863 -20.7305 0.903 -0.145 0.404 154 170 183
-70.6453 -63.0066 -20.7813 0.530 0.831 -0.172 119 131 145
-70.9119 -62.9479 -20.8024 0.097 0.835 -0.542 65 75 87
-71.7382 -62.7847 -20.8715 0.115 0.791 -0.601 41 54 69
-72.6905 -62.6982 -20.9716 0.402 0.715 -0.572 46 55 64
-70.7386 -60.9237 -20.3752 0.292 0.937 -0.192 59 64 70
-71.8288 -61.1713 -20.5592 0.312 0.947 -0.078 47 52 58
-36.3757 -36.6694 -11.2750 0.893 0.427 -0.141 194 204 205
-36.5181 -36.6435 -11.2874 0.943 0.269 -0.194 198 208 209
-37.0189 -36.4936 -11.3191 0.079 0.920 -0.384 202 207 211
-37.2587 -36.5241 -11.3548 0.055 0.956 -0.290 155 160 164
-37.4424 -36.5202 -11.3767 0.055 0.956 -0.290 150 153 158
-37.4307 -36.3993 -11.3510 0.112 0.944 -0.309 163 168 172
-37.6175 -36.3964 -11.3734 0.013 0.967 -0.255 127 134 140
-37.7769 -36.3767 -11.3891 0.555 0.810 0.192 89 95 97
-38.1306 -36.4704 -11.4515 -0.202 0.894 0.400 109 112 102
-38.3373 -36.4766 -11.4783 -0.338 0.870 0.359 86 90 65
-38.9756 -36.7323 -11.6082 -0.423 0.786 0.451 69 72 41
-69.3053 -48.0958 -17.6264 -0.375 0.890 0.261 156 162 162
-126.4857 -54.8835 -26.0380 -0.153 0.084 0.985 52 53 45
-114.6021 -49.4268 -23.4786 0.490 0.224 0.843 148 155 147
-113.4307 -42.9576 -22.0371 0.761 -0.404 0.507 195 200 203
-113.2331 -41.8735 -21.7953 0.858 0.051 -0.510 69 69 79
-127.4414 -38.7243 -22.9159 0.784 -0.261 0.563 69 78 77
-129.8750 -38.7639 -23.2239 -0.134 0.962 0.239 117 126 125
-98.1833 -32.4425 -18.0487 -0.091 0.992 -0.088 121 130 129
-129.3542 -36.9806 -22.8021 -0.120 0.792 0.599 61 70 69
-131.2283 -36.6801 -22.9730 -0.093 0.792 0.604 87 95 97
-131.1278 -35.0082 -22.6253 0.513 0.517 0.685 184 192 194
-131.6602 -34.8878 -22.6668 0.038 0.905 0.424 196 204 206
-133.0353 -34.8974 -22.8383 -0.006 0.932 0.363 137 145 147
-27.9567 -73.1847 -17.7119 0.757 0.616 -0.219 85 96 100
-28.0559 -73.0580 -17.6986 0.757 0.616 -0.219 86 97 101
-28.1801 -72.9840 -17.6992 0.738 0.665 -0.115 85 96 98
-28.3207 -72.9436 -17.7086 0.988 0.147 -0.045 72 82 84
-28.3569 -72.6865 -17.6611 0.988 0.147 -0.045 63 73 74
-40.9986 -86.7560 -22.0876 0.946 -0.301 -0.117 18 20 19
-40.6465 -85.7461 -21.8393 0.946 -0.301 -0.117 58 60 59
-43.6351 -80.8564 -21.2237 0.932 0.080 -0.354 185 189 192
-43.5819 -80.0921 -21.0624 0.733 0.272 -0.623 168 172 175
-43.6991 -79.9307 -21.0444 0.749 0.229 -0.622 132 136 139
-43.7412 -79.6570 -20.9943 0.749 0.229 -0.622 122 126 129
-43.8353 -79.4623 -20.9667 0.744 0.252 -0.618 130 134 137
-44.4437 -79.6958 -21.0899 0.386 0.877 -0.286 130 134 137
-43.9143 -72.9743 -19.6640 0.861 -0.405 0.307 109 115 115
-43.7041 -72.3996 -19.5214 0.897 -0.383 0.218 149 155 155
-46.0091 -66.2318 -18.5618 0.938 -0.287 -0.193 150 152 147
-41.7183 -60.2257 -16.8104 0.116 0.964 0.238 169 174 177
-40.8362 -50.2036 -14.6726 0.993 0.022 -0.116 165 169 168
-40.8013 -49.9981 -14.6267 0.992 0.023 -0.128 159 165 165
-40.5734 -49.6246 -14.5226 0.932 0.331 -0.145 140 146 146
-40.7597 -49.6148 -14.5439 0.977 -0.212 -0.028 189 195 195
-40.6988 -49.3899 -14.4908 0.987 0.004 -0.158 189 195 195
-41.0317 -49.5060 -14.5559 -0.052 0.995 -0.088 164 170 170
-41.0956 -49.3892 -14.5403 0.048 0.998 -0.028 137 143 143
-41.2129 -49.3183 -14.5406 0.310 0.934 0.180 135 139 138
-70.1117 -66.0853 -21.5450 0.670 0.725 -0.160 59 61 58
-70.2641 -65.9422 -21.5351 0.670 0.725 -0.160 36 38 35
-70.6165 -65.9460 -21.5799 0.200 0.951 0.234 100 104 103
-71.1371 -66.0712 -21.6703 -0.077 0.971 0.225 143 148 147
-70.1664 -62.8870 -20.9048 0.897 -0.158 0.414 133 151 167
-71.0283 -63.2412 -21.0842 0.453 0.875 -0.171 143 159 177
-71.3858 -63.2435 -21.1293 0.072 0.848 -0.525 125 140 159
-72.0345 -62.9545 -21.1520 0.115 0.791 -0.601 74 92 111
-72.9174 -62.8179 -21.2347 0.369 0.735 -0.569 40 53 61
-36.3943 -36.6645 -11.3784 0.893 0.427 -0.141 194 204 205
-37.1437 -36.5519 -11.4493 0.031 0.920 -0.391 207 212 216
-37.3662 -36.5715 -11.4811 0.050 0.956 -0.288 159 162 167
-37.5244 -36.5519 -11.4969 0.055 0.956 -0.290 151 155 158
-37.5098 -36.4290 -11.4702 0.112 0.944 -0.309 165 170 173
-37.6751 -36.4130 -11.4876 0.015 0.966 -0.258 119 126 131
-37.7295 -36.3313 -11.4779 0.953 -0.222 -0.207 95 100 102
-37.8072 -36.2633 -11.4738 0.533 0.700 0.476 101 104 95
-91.2993 -60.7821 -23.1206 -0.366 0.912 -0.184 144 146 143
-114.3708 -49.2963 -23.6809 0.409 0.750 -0.521 149 156 148
-112.9522 -47.5111 -23.1424 -0.124 0.629 0.768 169 172 189
-120.2279 -48.7165 -24.2957 0.950 0.291 0.116 53 52 47
-114.3572 -43.9800 -22.6037 -0.122 0.579 0.806 146 154 140
-117.0725 -44.4700 -23.0422 0.155 0.324 0.933 139 146 137
-112.9191 -42.7687 -22.1789 0.818 -0.403 0.410 202 207 210
-112.8855 -42.3460 -22.0891 0.975 -0.037 -0.221 211 215 227
-113.2364 -41.8151 -22.0256 0.882 0.023 -0.470 66 66 75
-117.1305 -39.6530 -22.0750 0.896 0.432 0.101 151 156 160
-123.9598 -38.4008 -22.6753 -0.143 0.949 0.280 67 75 77
-130.9223 -38.8937 -23.6453 -0.154 0.936 0.315 119 128 127
-99.0719 -32.5559 -18.3819 -0.093 0.986 -0.136 123 132 131
-129.7195 -37.1862 -23.1495 -0.123 0.926 0.356 79 88 87
-129.6479 -36.9645 -23.0957 -0.088 0.909 0.408 66 75 74
-130.0003 -36.8175 -23.1101 -0.077 0.870 0.488 75 84 83
-130.9620 -34.9134 -22.8451 0.649 0.454 0.610 191 199 201
-132.7996 -34.7913 -23.0501 -0.004 0.842 0.539 115 123 125
-28.1488 -73.2797 -17.9094 0.993 0.118 -0.026 85 96 100
-28.2073 -73.0665 -17.8733 0.957 0.289 0.032 85 96 99
-28.2881 -72.9009 -17.8498 0.985 0.168 -0.041 71 82 84
-40.6309 -84.9741 -21.8778 0.976 0.178 -0.128 84 86 85
-38.4600 -77.7184 -20.1218 0.349 0.286 0.892 115 119 120
-43.6392 -80.8704 -21.4214 0.794 0.279 -0.540 184 188 191
-43.6356 -80.5217 -21.3498 0.793 0.276 -0.542 168 172 175
-43.6871 -80.2587 -21.3026 0.728 0.276 -0.628 166 170 173
-43.7687 -80.0425 -21.2688 0.739 0.239 -0.630 156 160 163
-43.8629 -79.8461 -21.2407 0.745 0.234 -0.625 115 119 122
-43.9342 -79.6160 -21.2027 0.744 0.234 -0.626 126 130 133
-45.3615 -80.3767 -21.5388 0.865 0.270 -0.422 114 115 119
-45.2602 -79.8921 -21.4271 -0.093 0.988 -0.123 106 110 113
-45.7593 -80.2803 -21.5696 -0.017 1.000 0.014 100 104 107
-44.0181 -73.4103 -19.9467 0.857 -0.388 0.339 111 120 119
-41.6960 -60.1928 -16.9547 0.116 0.964 0.238 163 168 171
-42.0477 -60.1295 -16.9863 0.969 -0.238 -0.068 168 173 176
-40.9710 -50.3090 -14.8454 0.389 0.761 -0.519 165 169 168
-40.8987 -50.0698 -14.7874 0.998 0.064 -0.020 163 169 169
-40.7176 -49.5641 -14.6613 0.977 -0.213 -0.032 181 187 187
-40.7206 -49.3946 -14.6271 0.987 0.004 -0.158 189 195 195
-41.0636 -49.5191 -14.6959 -0.054 0.995 -0.083 161 167 167
-41.1791 -49.4463 -14.6957 0.059 0.998 -0.013 136 142 142
-41.2632 -49.3466 -14.6860 0.360 0.910 0.208 134 138 137
-70.4194 -66.2846 -21.8373 0.805 0.593 -0.026 54 56 53
-70.3107 -65.9478 -21.7547 0.670 0.725 -0.160 40 42 39
-70.5051 -65.8352 -21.7564 0.264 0.914 0.307 120 124 123
-70.9706 -65.9202 -21.8327 -0.065 0.969 0.240 140 145 147
-71.5484 -66.0845 -21.9395 -0.054 0.969 0.242 134 146 150
-71.6364 -65.8918 -21.9113 -0.356 0.723 0.592 125 145 153
-72.2819 -65.8438 -21.9833 -0.446 0.836 0.319 121 145 155
-73.1557 -66.2103 -22.1688 -0.445 0.836 0.320 124 147 155
-71.2543 -63.3669 -21.3475 -0.086 0.874 -0.478 137 156 178
-72.3337 -63.1259 -21.4351 0.115 0.791 -0.601 153 176 200
-72.8771 -63.0031 -21.4789 0.420 0.713 -0.562 76 98 116
-73.1747 -62.9577 -21.5073 0.340 0.766 -0.546 53 68 80
-35.7851 -36.7237 -11.4155 0.885 -0.032 0.465 181 191 192
-36.4622 -36.6899 -11.4944 0.895 0.423 -0.144 194 204 205
-37.3669 -36.5547 -11.5814 0.038 0.952 -0.303 156 159 164
-37.5287 -36.5372 -11.5983 0.049 0.944 -0.325 150 154 157
-37.5737 -36.4497 -11.5862 0.110 0.944 -0.310 164 169 172
-37.7349 -36.4310 -11.6028 0.056 0.955 -0.290 116 124 127
-37.7215 -36.3091 -11.5762 0.954 -0.220 -0.205 96 101 102
-38.1545 -36.3345 -11.6362 -0.174 0.814 0.554 84 86 61
-38.3424 -36.3294 -11.6590 -0.220 0.866 0.449 68 71 41
-38.8752 -36.5222 -11.7659 -0.421 0.746 0.516 65 68 40
-39.9253 -37.0086 -11.9982 -0.440 0.717 0.541 73 76 47
-41.6143 -37.4879 -12.3100 0.325 -0.449 0.833 74 76 52
-136.8323 -63.5919 -29.7020 0.239 -0.178 0.955 184 190 190
-131.7348 -61.1751 -28.5629 -0.320 0.918 0.235 169 173 176
-113.4621 -49.1867 -23.8008 0.766 0.622 -0.160 122 130 117
-114.1511 -49.1695 -23.8846 0.930 0.349 0.111 150 157 150
-119.8216 -49.0054 -24.5696 -0.299 0.900 0.318 55 55 61
-119.7701 -48.5225 -24.4645 0.961 0.243 0.129 50 49 44
-114.3669 -44.5651 -22.9721 0.260 0.492 0.830 59 67 50
-118.1930 -39.8222 -22.4888 0.935 0.281 -0.217 156 161 164
-117.2571 -39.2142 -22.2461 0.952 0.299 0.058 194 197 202
-117.3183 -39.0256 -22.2154 0.952 0.299 0.058 199 204 208
-131.0276 -38.8449 -23.9155 -0.158 0.934 0.320 121 130 129
-100.0786 -32.6902 -18.7381 -0.091 0.986 -0.138 126 135 132
-129.2352 -36.6166 -23.2336 0.090 0.913 0.397 79 88 85
-132.9993 -34.7527 -23.3300 -0.035 0.853 0.521 111 119 121
-133.8383 -34.6753 -23.4205 -0.027 0.852 0.523 45 53 55
-28.0885 -73.1785 -18.0355 0.979 0.168 0.112 85 96 101
-39.5389 -89.3362 -22.8329 0.906 -0.422 0.007 24 28 31
-40.6793 -85.8406 -22.2595 0.946 -0.325 0.009 55 57 56
-43.6871 -81.2980 -21.7103 0.980 -0.043 -0.194 167 171 174
-43.6912 -80.9580 -21.6408 0.807 0.366 -0.464 184 188 191
-43.7259 -80.6668 -21.5853 0.808 0.370 -0.458 169 173 176
-43.7898 -80.4215 -21.5430 0.792 0.370 -0.485 166 170 173
-43.8707 -80.2031 -21.5084 0.792 0.370 -0.485 159 163 166
-43.9387 -79.9663 -21.4684 0.755 0.494 -0.432 113 117 120
-44.0420 -79.7832 -21.4440 0.787 0.371 -0.494 127 131 134
-45.4292 -80.4807 -21.7657 0.861 0.277 -0.426 112 116 119
-45.3215 -79.9859 -21.6500 0.295 0.793 -0.533 106 110 113
-45.8575 -80.4268 -21.8096 0.341 0.867 -0.363 100 104 107
-46.4270 -80.9100 -21.9822 0.392 0.859 -0.330 96 100 103
-54.2930 -86.8988 -24.2254 0.923 -0.348 0.163 109 115 115
-43.2974 -71.8555 -19.7159 0.929 -0.359 0.084 127 133 133
-41.6914 -60.1795 -17.1053 0.115 0.966 0.233 159 164 167
-42.0865 -60.1633 -17.1527 0.968 -0.242 -0.066 165 170 173
-41.0051 -50.3252 -14.9880 0.147 0.850 -0.505 169 173 172
-41.1603 -50.2858 -14.9998 0.999 -0.024 0.028 167 173 173
-40.7402 -49.5696 -14.7984 0.978 -0.210 -0.011 182 188 188
-40.6447 -49.3147 -14.7337 0.990 -0.030 -0.140 188 194 194
-41.0709 -49.5111 -14.8288 -0.065 0.994 -0.085 161 167 167
-41.2295 -49.4751 -14.8418 0.079 0.987 -0.138 137 143 142
-70.4375 -66.2692 -22.0503 0.805 0.593 -0.026 51 55 54
-70.2991 -65.9103 -21.9586 0.674 0.684 0.280 39 43 42
-71.4717 -65.7430 -22.0747 -0.365 0.569 0.737 123 144 152
-71.2909 -63.6075 -21.6118 0.017 0.986 -0.169 136 158 180
-72.3017 -63.3180 -21.6820 0.115 0.791 -0.601 141 167 192
-72.6358 -63.2990 -21.7209 0.115 0.791 -0.601 145 173 198
-72.8578 -63.2032 -21.7297 0.382 0.723 -0.576 141 168 196
-73.1575 -63.1591 -21.7591 0.375 0.732 -0.569 128 151 175
-73.5382 -63.1680 -21.8099 0.225 0.854 -0.470 125 141 157
-35.7507 -36.6858 -11.5047 0.892 -0.109 0.438 181 191 192
-37.4289 -36.8049 -11.7447 0.885 -0.071 -0.461 202 207 211
-37.2892 -36.6054 -11.6857 0.022 0.917 -0.398 209 214 218
-37.3228 -36.5111 -11.6706 0.045 0.993 0.110 153 158 162
-37.5490 -36.4176 -11.6804 0.644 0.689 -0.334 165 170 173
-37.6306 -36.3519 -11.6773 0.531 0.756 -0.383 113 121 124
-37.6172 -36.2303 -11.6506 0.962 -0.259 -0.086 97 103 103
-37.6540 -36.0258 -11.6132 0.583 0.692 0.426 82 85 60
-38.2658 -36.2672 -11.7415 -0.220 0.866 0.449 68 71 42
-38.8180 -36.4711 -11.8544 -0.347 0.779 0.522 65 68 42
-41.2449 -37.2612 -12.3287 0.992 -0.033 0.122 75 77 54
-41.2670 -37.1537 -12.3094 0.900 0.180 0.397 76 79 60
-41.2955 -37.0501 -12.2917 0.900 0.180 0.397 55 57 44
-105.7746 -68.3618 -27.0185 0.926 -0.091 0.367 136 141 137
-135.2345 -62.9451 -29.6857 0.576 -0.270 0.771 186 192 192
-131.6090 -61.0624 -28.8325 -0.320 0.918 0.235 162 166 169
-125.5036 -54.6307 -26.7242 -0.146 0.089 0.985 50 51 43
-112.4431 -42.7378 -22.5982 -0.085 0.275 0.958 162 168 169
-111.7447 -42.1490 -22.3873 0.193 0.421 0.886 214 218 226
-112.6778 -42.1762 -22.5127 0.169 0.227 0.959 208 212 224
-112.9641 -42.0410 -22.5216 0.179 0.229 0.957 125 128 143
-114.1285 -40.0771 -22.2667 -0.172 0.955 0.240 56 54 55
-117.5688 -39.2191 -22.5318 0.946 -0.174 0.272 194 197 202
-117.4377 -38.5873 -22.3848 -0.098 0.960 0.261 139 144 148
-137.0601 -41.7359 -25.5527 -0.205 0.946 0.252 68 73 77
-130.7873 -38.7310 -24.1285 -0.158 0.934 0.320 124 133 130
-129.6293 -36.6171 -23.5445 -0.025 0.999 -0.021 83 89 87
-129.6544 -35.7941 -23.3783 -0.089 0.974 0.208 116 124 126
-130.9199 -34.9741 -23.3719 0.751 0.256 0.608 163 172 171
-133.4658 -34.5484 -23.6111 -0.046 0.691 0.721 52 61 60
-40.9820 -86.7834 -22.6938 0.954 -0.290 0.071 18 19 21
-40.7568 -85.9959 -22.5009 0.954 -0.290 0.071 52 53 55
-40.6339 -83.1479 -21.8933 0.967 -0.202 -0.152 91 95 96
-43.7538 -81.7582 -22.0105 0.982 -0.049 -0.184 139 143 146
-43.8130 -81.1524 -21.8924 0.957 0.164 -0.238 184 188 191
-43.8492 -80.8623 -21.8368 0.957 0.160 -0.243 170 174 177
-43.9595 -80.6860 -21.8146 0.889 0.388 0.242 165 169 172
-43.9959 -80.3989 -21.7597 0.906 0.340 0.251 159 163 166
-44.1323 -80.2633 -21.7492 0.688 0.714 0.133 114 118 121
-44.2428 -80.0891 -21.7274 0.902 0.332 0.275 127 131 134
-45.5213 -80.6203 -22.0041 0.862 0.272 -0.427 112 116 119
-45.3218 -79.9909 -21.8474 0.287 0.791 -0.540 107 111 114
-45.6627 -80.1490 -21.9246 0.635 0.404 -0.659 100 104 107
-45.8581 -80.0945 -21.9387 0.617 0.432 -0.658 95 100 103
-54.2231 -86.8046 -24.4209 0.923 -0.348 0.163 109 114 117
-41.6697 -60.1471 -17.2500 0.115 0.966 0.233 159 164 167
-68.9711 -89.5863 -26.9176 0.585 0.539 -0.606 165 170 173
-69.6911 -77.4668 -24.4936 0.218 0.867 0.447 148 150 145
-41.1052 -50.3996 -15.1517 0.099 0.865 -0.491 175 179 180
-41.3048 -50.3987 -15.1775 0.999 -0.024 -0.041 174 180 180
-40.6238 -49.2824 -14.8570 0.988 -0.025 -0.155 188 194 194
-41.1058 -49.5267 -14.9704 -0.069 0.993 -0.094 161 167 167
-72.3440 -63.3153 -21.8990 0.148 0.973 -0.179 128 157 182
-74.6623 -63.8848 -22.3189 0.039 0.749 -0.662 118 133 149
-35.8386 -36.7251 -11.6258 0.947 -0.129 0.293 182 190 192
-37.4239 -36.4400 -11.7729 0.626 0.764 -0.160 150 155 159
-37.4513 -36.3422 -11.7561 0.966 -0.248 -0.076 162 169 172
-37.5978 -36.2014 -11.7459 0.965 -0.252 -0.069 100 106 108
-37.4868 -36.0235 -11.6945 0.555 0.700 0.449 98 102 92
-37.6051 -35.9798 -11.7009 0.461 0.887 0.021 75 77 54
-38.3953 -36.3241 -11.8752 -0.322 0.817 0.479 66 69 41
-39.0045 -36.5601 -12.0035 -0.274 0.703 0.657 66 68 45
-42.4234 -37.1691 -12.5748 -0.141 0.792 -0.594 138 140 129
-134.2346 -62.5152 -29.7850 0.164 -0.193 0.967 187 193 193
-131.8221 -61.0703 -29.1710 -0.305 0.939 0.157 153 157 160
-113.7332 -48.6945 -24.2467 0.488 -0.394 0.779 133 139 136
-111.8349 -47.8945 -23.8335 0.301 -0.201 0.932 111 117 119
-115.3680 -47.1394 -24.1363 0.496 0.322 0.806 49 48 43
-112.7623 -43.3873 -23.0179 -0.072 0.960 -0.271 132 140 128
-113.7651 -39.9349 -22.4312 -0.191 0.943 0.271 48 46 47
-116.6585 -40.3846 -22.9010 -0.195 0.940 0.279 52 52 52
-117.4914 -39.1409 -22.7510 0.946 -0.174 0.272 193 197 200
-117.8045 -38.6017 -22.6798 -0.110 0.980 0.165 126 131 134
-126.0547 -38.8222 -23.7989 -0.099 0.995 -0.008 71 77 77
-131.1847 -38.9532 -24.4936 -0.128 0.992 -0.006 111 120 115
-132.5638 -36.6313 -24.1907 0.473 0.858 -0.200 113 122 121
-40.9715 -83.7376 -22.2558 0.905 -0.425 0.033 87 91 92
-43.8002 -82.1912 -22.3046 0.967 0.102 -0.233 124 128 131
-43.7177 -81.7111 -22.1932 0.949 0.015 -0.316 132 136 139
-43.6887 -81.3169 -22.1067 0.948 0.018 -0.317 162 166 169
-43.7534 -81.0690 -22.0633 0.811 0.373 -0.450 189 193 196
-43.8898 -80.9317 -22.0525 0.878 0.419 0.233 169 173 176
-43.9893 -80.7384 -22.0251 0.878 0.419 0.233 162 166 169
-44.0677 -80.5141 -21.9885 0.909 0.280 0.309 167 171 174
-44.1045 -80.2282 -21.9334 0.893 0.329 0.307 110 114 117
-44.2634 -80.1261 -21.9329 0.906 0.319 0.277 126 130 133
-44.3483 -79.9139 -21.8997 0.906 0.319 0.277 128 134 134
-45.5992 -80.7393 -22.2375 0.862 0.272 -0.427 114 118 121
-45.4170 -80.1341 -22.0867 0.294 0.791 -0.536 108 112 115
-45.8021 -80.3551 -22.1838 0.631 0.413 -0.656 99 104 107
-45.9568 -80.2407 -22.1802 0.618 0.433 -0.656 94 99 102
-43.8443 -73.1758 -20.4213 0.938 -0.309 0.156 114 119 122
-43.3653 -72.2366 -20.1613 0.925 -0.366 0.098 109 114 117
-43.1032 -71.3070 -19.9320 0.948 -0.310 0.071 164 168 171
-42.7963 -70.0513 -19.6284 0.962 0.228 0.148 180 184 183
-41.7572 -60.2356 -17.4346 0.199 0.820 0.536 159 164 167
-41.4281 -50.8493 -15.4243 -0.200 0.955 -0.221 173 177 177
-41.1790 -50.4508 -15.3079 0.261 0.748 -0.610 180 184 185
-41.6565 -50.6935 -15.4217 0.924 0.324 -0.201 179 185 185
-40.6454 -49.2868 -14.9937 0.988 -0.025 -0.155 188 193 196
-41.0966 -49.5043 -15.0987 -0.070 0.996 -0.061 160 165 168
-82.3279 -78.0838 -26.5223 0.462 0.579 -0.672 156 150 144
-81.2229 -76.9154 -26.1318 0.262 -0.404 0.876 155 152 143
-69.0334 -65.1730 -22.0645 0.329 -0.272 0.904 53 55 51
-72.9706 -65.2177 -22.5928 -0.067 -0.153 0.986 127 143 153
-75.1208 -64.1574 -22.6541 0.039 0.749 -0.662 112 124 137
-37.4152 -36.4174 -11.8711 0.959 -0.281 -0.033 151 157 163
-37.4645 -36.3327 -11.8598 0.966 -0.249 -0.072 157 164 170
-37.4985 -36.2390 -11.8447 0.970 -0.233 -0.070 124 133 138
-37.4684 -35.9953 -11.7897 0.208 0.955 0.211 92 97 87
-37.7000 -36.0173 -11.8248 0.285 0.954 -0.093 63 66 44
-38.2870 -36.2436 -11.9496 -0.406 0.868 0.285 65 68 42
-38.9987 -36.5384 -12.1052 -0.297 0.708 0.641 65 67 45
-38.9148 -36.3749 -12.0599 -0.402 0.623 0.671 66 68 46
-41.5619 -37.2787 -12.5982 -0.004 0.687 -0.726 71 72 55
-41.7146 -37.2429 -12.6108 0.070 0.631 -0.773 61 63 50
-41.8426 -37.1931 -12.6172 0.085 0.623 -0.777 129 131 120
-41.9971 -37.1576 -12.6302 0.059 0.642 -0.764 161 163 150
-42.4749 -37.1767 -12.6972 -0.118 0.789 -0.603 137 139 126
-136.6733 -64.2264 -30.7818 -0.352 0.747 0.565 191 200 197
-132.7131 -61.8987 -29.7721 0.163 -0.198 0.967 186 192 192
-130.8090 -60.9275 -29.3176 -0.046 0.085 0.995 220 224 227
-110.0944 -46.6554 -23.5964 0.923 0.280 0.264 169 172 189
-110.4846 -46.5522 -23.6263 0.947 0.305 0.098 146 149 168
-109.8351 -46.1455 -23.4554 0.909 0.414 -0.053 68 69 85
-114.7797 -46.9113 -24.2676 0.350 0.616 0.706 49 48 43
-112.6507 -43.5096 -23.2742 0.991 0.134 -0.026 105 114 97
-110.5172 -41.9289 -22.6617 -0.023 0.057 0.998 202 207 211
-110.7869 -41.7930 -22.6688 -0.051 0.110 0.993 216 220 229
-116.5986 -40.3099 -23.1241 -0.191 0.943 0.271 63 63 63
-117.7598 -39.1361 -23.0311 0.899 -0.145 0.414 178 182 185
-117.6146 -38.5006 -22.8788 -0.131 0.981 0.139 106 112 112
-124.8920 -39.5806 -24.0644 -0.178 0.961 0.210 45 51 51
-128.2617 -38.5459 -24.2917 0.169 0.245 0.955 85 92 85
-131.0400 -36.3044 -24.1882 0.494 0.654 0.574 112 121 118
-40.9732 -83.7559 -22.4564 0.902 -0.431 0.039 86 90 91
-43.8956 -82.3487 -22.5492 0.974 0.070 -0.214 123 126 131
-43.7852 -81.8242 -22.4236 0.948 0.018 -0.317 114 118 121
-43.7643 -81.4417 -22.3399 0.948 0.018 -0.317 150 154 157
-43.8294 -81.1936 -22.2962 0.793 0.380 -0.476 197 201 204
-43.9036 -80.9605 -22.2568 0.989 -0.006 0.145 165 169 172
-45.5439 -80.3235 -22.3412 0.291 0.793 -0.536 108 113 116
