ply
format ascii 1.0
element vertex 856
property float x
property float y
property float z
property float nx
property float ny
property float nz
property uchar diffuse_red
property uchar diffuse_green
property uchar diffuse_blue
end_header
392.8078 29.6181 -34.2872 -0.040 -0.943 -0.330 57 56 64
377.9876 26.3840 -32.9482 -0.879 0.023 0.476 58 57 65
375.1130 24.7025 -32.7720 -0.092 -0.944 -0.317 48 47 55
367.4973 24.0310 -32.0054 -0.329 -0.943 -0.047 57 57 67
376.1986 23.6526 -32.9720 -0.326 -0.159 0.932 62 62 72
371.0668 20.4349 -32.6745 0.036 -0.883 0.469 65 65 75
338.7921 17.9448 -29.3979 -0.454 -0.205 0.867 87 87 97
335.2488 17.5030 -29.0515 -0.558 -0.314 0.768 106 103 112
359.5253 16.4068 -31.7514 -0.554 -0.801 0.225 99 96 105
360.1984 15.9094 -31.8632 -0.554 -0.801 0.225 92 89 98
361.6222 15.4022 -32.0567 -0.538 -0.812 0.228 90 87 96
358.5568 14.9501 -31.7625 -0.594 -0.782 0.191 93 90 99
355.0034 14.0374 -31.4523 -0.677 -0.712 0.189 70 67 76
351.2231 12.2180 -31.1896 -0.191 -0.967 -0.168 73 70 79
354.3058 11.6729 -31.5646 -0.204 -0.976 -0.081 71 69 80
355.4019 10.6979 -31.7598 -0.436 -0.826 0.356 83 83 95
352.8170 10.3031 -31.5128 -0.161 -0.553 0.817 88 88 100
352.9778 9.8308 -31.5676 -0.163 -0.546 0.821 92 92 104
354.8284 8.8340 -31.8457 -0.178 -0.515 0.838 99 99 111
354.6066 6.5139 -32.0057 -0.990 0.123 -0.067 90 90 102
359.6924 3.0150 -32.8303 -0.959 0.066 -0.275 51 50 64
367.7797 -1.6950 -34.0739 -0.059 -0.932 0.358 71 71 82
336.1521 -5.7176 -30.9883 -0.704 0.318 0.635 55 60 80
333.3463 -6.2635 -30.7295 -0.735 0.392 0.554 75 84 106
282.1781 338.0027 1.2794 -0.138 -0.867 0.479 65 77 65
269.0268 310.8553 0.6008 -0.078 -0.054 0.995 55 68 52
270.2380 303.3329 -0.1194 -0.032 -0.070 0.997 66 80 55
260.1572 280.2396 -0.8179 -0.413 -0.899 0.145 81 95 69
260.1784 279.2125 -0.9005 -0.888 -0.372 0.272 66 81 50
252.4006 258.4920 -1.6661 -0.792 0.557 0.251 110 117 123
334.7520 281.8957 -8.8637 -0.979 0.148 -0.137 86 80 90
333.4049 279.4193 -8.9095 -0.968 0.207 0.139 86 80 90
341.5343 275.0163 -10.1442 -0.436 -0.900 0.007 92 86 100
344.4460 276.6597 -10.3350 -0.478 -0.876 -0.062 92 85 101
384.2393 278.5161 -14.5511 -0.611 -0.647 -0.455 114 110 127
388.5127 277.3043 -15.1141 -0.712 -0.431 -0.554 102 100 114
392.5867 261.8598 -16.7666 -0.949 0.050 -0.312 52 45 52
319.3759 194.9799 -13.9658 -0.158 -0.563 0.811 50 39 43
379.1166 166.7132 -22.7203 -0.701 -0.416 0.579 94 91 97
367.9915 145.0429 -23.1933 -0.456 -0.829 -0.325 87 74 78
393.7055 149.1891 -25.6876 -0.614 -0.750 0.244 79 66 79
376.3366 129.5662 -25.3164 -0.556 0.463 0.690 69 64 75
332.4834 108.9965 -22.1167 0.075 -0.782 0.619 59 52 63
346.1799 106.3429 -23.8250 -0.441 0.445 0.779 88 81 90
383.5372 102.1040 -28.2501 -0.537 -0.744 -0.398 81 71 80
366.1169 88.7608 -27.3829 -0.947 -0.127 0.294 85 73 93
374.6884 82.7954 -28.7881 -0.659 0.296 0.691 79 72 88
368.7117 78.3192 -28.4826 -0.796 0.261 0.546 82 70 82
400.4897 58.2998 -33.5286 -0.058 -0.853 0.519 94 91 98
373.1972 52.6371 -30.9797 -0.842 -0.019 -0.539 113 110 117
370.1615 39.1847 -31.6975 -0.100 -0.928 0.360 110 106 121
359.8051 35.2706 -30.8682 -0.337 -0.923 -0.187 119 118 126
348.8124 32.1000 -29.9110 -0.403 -0.903 -0.151 64 63 71
370.3451 30.9749 -32.3587 -0.222 -0.759 0.613 84 83 91
395.4393 29.6763 -35.2103 -0.055 -0.942 -0.332 54 53 61
364.7555 28.1103 -31.9698 -0.431 -0.736 0.522 48 47 55
359.5288 20.8356 -31.9651 -0.017 -0.858 0.514 66 66 76
362.6379 20.3531 -32.3435 -0.014 -0.848 0.530 70 70 80
365.6741 19.8606 -32.7147 -0.019 -0.850 0.527 77 77 87
352.4694 19.3232 -31.3095 -0.534 -0.692 0.485 86 86 96
338.1413 18.3730 -29.8135 -0.778 -0.507 0.371 108 108 118
361.7490 16.8493 -32.5197 -0.905 -0.425 0.021 107 104 113
359.2109 16.3741 -32.2787 -0.524 -0.689 0.501 106 103 112
356.8646 15.9067 -32.0580 -0.291 -0.565 0.772 106 103 112
362.4284 15.3568 -32.7107 -0.521 -0.817 0.247 105 102 111
352.4265 13.0969 -31.7911 -0.805 -0.565 0.181 81 75 85
365.8187 10.3634 -33.4722 -0.736 -0.498 0.459 86 86 98
355.4337 10.1862 -32.3479 -0.780 -0.054 0.623 89 88 102
353.4764 9.7767 -32.1654 -0.592 -0.184 0.785 92 92 104
351.4690 7.0685 -32.1569 -0.828 -0.494 -0.266 92 92 104
355.7803 3.1864 -32.9325 -0.911 0.325 -0.255 61 61 73
349.7735 2.1711 -32.3535 -0.938 -0.205 -0.279 61 59 69
348.4710 1.3609 -32.2740 -0.976 -0.126 -0.176 61 60 68
360.0741 -0.7494 -33.7104 -0.063 -0.960 0.273 74 73 81
359.7656 -2.5555 -33.8177 -0.740 0.570 0.356 62 65 84
359.2241 -2.9692 -33.7906 -0.739 0.569 0.360 59 61 81
231.1259 322.6404 5.0191 0.092 -0.993 0.071 78 92 66
266.3264 298.0051 -0.8035 -0.005 -0.147 0.989 52 66 43
261.5029 275.0103 -2.0350 -0.603 -0.489 -0.630 68 76 78
247.0164 250.6125 -2.2965 -0.923 0.384 0.030 109 117 120
315.4246 316.0651 -4.8907 -0.782 0.586 0.214 57 58 62
346.2810 284.3461 -10.7738 -0.299 -0.941 0.156 100 94 106
349.2981 281.4810 -11.3308 -0.354 0.092 0.931 95 89 103
350.5245 280.3432 -11.5552 -0.847 0.428 0.313 87 83 97
359.1871 281.4592 -12.4357 -0.916 0.397 -0.067 55 48 64
354.4807 276.0069 -12.3302 -0.865 0.498 0.062 67 58 75
355.3729 273.4092 -12.6297 -0.966 0.247 0.078 94 85 102
373.5156 286.1412 -13.6738 -0.752 -0.086 -0.653 71 62 79
365.2458 266.2369 -14.2830 -0.187 -0.974 0.124 91 87 101
376.2172 274.3466 -14.8828 -0.510 -0.838 0.195 82 79 92
389.4761 275.9174 -16.2410 -0.831 0.536 0.150 77 71 81
375.3035 262.1656 -15.7182 -0.807 0.527 0.267 114 106 116
397.1735 265.5246 -17.8994 -0.915 0.043 -0.400 69 62 69
313.7404 191.0802 -14.3211 -0.084 -0.606 0.791 79 68 72
320.5992 192.5684 -14.9717 -0.966 0.005 0.259 140 129 133
259.8975 122.9457 -13.5581 -0.854 -0.197 -0.481 90 79 85
372.8544 177.6634 -21.9479 0.116 -0.120 0.986 92 83 88
395.4652 171.9528 -24.9097 -0.263 -0.324 0.909 54 53 58
366.4901 145.2551 -23.7320 -0.466 -0.824 -0.321 99 86 94
358.4283 136.4312 -23.5117 -0.524 -0.851 0.038 108 95 103
401.2321 151.4411 -27.1315 -0.926 0.157 -0.343 135 116 125
347.1863 121.0755 -23.4393 -0.259 -0.817 0.515 102 80 98
364.7162 103.2156 -26.7693 0.243 -0.645 0.724 71 61 72
397.4620 96.9801 -30.9020 -0.294 -0.753 0.589 82 70 90
359.3439 75.2058 -28.3255 -0.748 0.411 0.521 89 77 89
381.3593 57.2050 -32.1666 -0.002 -0.864 0.504 79 73 83
369.6069 52.2187 -31.2393 -0.954 -0.021 0.298 111 106 113
360.8744 50.6687 -30.3845 -0.454 -0.284 0.845 94 89 96
386.2949 43.2202 -33.7934 -0.999 0.029 -0.014 113 107 121
380.2759 41.5893 -33.2475 -0.997 0.080 -0.003 120 114 128
376.0237 40.1333 -32.8852 -0.996 0.070 -0.058 140 134 148
362.8696 35.4233 -31.7802 -0.332 -0.921 -0.201 123 122 130
355.9775 34.5037 -31.0822 -0.597 0.264 0.757 118 117 125
350.3412 33.6782 -30.5170 -0.738 0.102 0.667 113 112 120
348.6850 33.0815 -30.3781 -0.677 -0.672 0.299 109 108 116
348.2383 32.5526 -30.3690 -0.683 -0.680 0.266 97 96 104
358.5692 32.0248 -31.5621 -0.057 -0.981 0.187 53 52 60
360.2285 30.0107 -31.9021 0.065 -0.617 0.784 79 78 86
379.3710 29.1012 -34.1075 0.026 -0.681 0.732 63 62 70
356.7790 19.7930 -32.3037 -0.726 -0.624 0.287 69 69 79
339.5620 18.8013 -30.4594 -0.888 0.056 0.456 94 94 104
363.3944 15.3093 -33.3867 -0.460 -0.801 0.383 102 99 108
359.4731 14.8659 -32.9834 -0.571 -0.716 0.402 100 97 106
352.8371 10.2264 -32.6001 -0.722 -0.088 0.686 77 77 90
352.0793 9.7829 -32.5497 -0.767 -0.082 0.637 78 78 90
365.1179 3.5820 -34.4814 -0.958 0.246 -0.146 69 69 77
354.3994 3.2199 -33.3136 -0.920 0.303 -0.249 72 72 80
349.7489 2.5778 -32.8442 -0.770 -0.227 -0.597 77 76 82
351.2241 2.0421 -33.0500 -0.866 -0.300 -0.399 74 73 80
351.4095 1.5817 -33.1061 -0.866 -0.300 -0.399 71 70 76
350.3546 1.1997 -33.0178 -0.958 -0.165 -0.234 73 72 78
356.0351 -0.9729 -33.8187 -0.076 -0.907 0.415 73 72 79
358.9325 -2.5398 -34.2625 -0.793 0.548 0.266 59 61 81
332.4953 -6.2714 -31.6005 -0.730 0.397 0.556 69 79 101
230.3106 321.4660 4.3659 0.092 -0.994 0.067 77 91 67
238.2237 330.3178 4.1388 0.012 -0.991 -0.134 50 67 51
210.4253 238.7760 0.3537 -0.956 -0.211 -0.204 42 53 47
203.3233 224.9552 0.1120 -0.520 -0.753 -0.402 51 60 55
310.9595 328.1788 -4.2800 -0.658 -0.578 -0.482 108 110 125
313.5103 330.2108 -4.4155 -0.787 -0.528 -0.321 103 105 120
331.9720 285.2233 -9.9221 -0.520 0.489 0.700 82 74 85
329.9136 276.3787 -10.3591 -0.970 0.063 -0.234 51 45 55
336.1678 278.1121 -10.9376 -0.973 0.000 -0.230 86 80 92
336.5140 277.3289 -11.0363 -0.973 -0.003 -0.232 72 66 78
364.2012 298.2893 -12.5900 -0.140 -0.094 0.986 96 90 102
359.8544 288.1606 -12.8645 -0.596 0.332 0.731 66 62 76
367.2164 293.8491 -13.2689 -0.351 -0.935 0.055 52 48 62
354.5523 276.2840 -13.1631 -0.916 0.398 -0.057 64 55 72
356.0235 275.3409 -13.4016 -0.959 0.267 0.094 85 76 93
394.1635 283.5449 -17.1091 -0.858 -0.362 -0.365 110 104 116
397.3219 268.1589 -18.6342 -0.881 -0.069 -0.468 70 63 71
317.6855 187.3117 -15.7240 -0.340 -0.419 0.842 102 92 95
271.5955 127.1180 -15.0559 -0.283 -0.935 0.215 83 72 78
389.0103 169.8628 -25.1435 -0.089 -0.485 0.870 49 45 52
369.6196 145.8628 -24.7620 -0.462 -0.825 -0.326 100 90 99
358.3446 136.4523 -24.1956 -0.524 -0.851 0.038 105 85 88
398.9534 149.7233 -27.7991 -0.380 -0.734 0.563 129 105 109
345.5667 107.5404 -24.9372 -0.347 0.113 0.931 43 36 43
345.2559 106.7734 -24.9601 -0.347 0.113 0.931 50 43 50
344.9760 93.0696 -25.9673 -0.712 0.003 0.703 63 53 64
357.7428 95.8908 -27.2027 -0.510 0.142 0.848 63 53 62
383.1937 102.0557 -29.6243 -0.447 -0.787 -0.426 68 58 67
365.5498 88.6531 -28.6376 -0.563 -0.066 0.824 69 57 77
357.0204 85.9809 -27.8720 -0.959 -0.124 0.255 68 56 76
352.5085 81.7999 -27.6768 0.152 -0.547 0.823 65 56 73
359.7994 77.1577 -28.8565 -0.465 0.101 0.879 88 76 88
352.7991 73.3199 -28.3528 -0.860 0.248 0.446 87 75 87
345.6378 71.3405 -27.6900 -0.221 -0.972 -0.081 88 76 88
362.7204 58.9454 -30.5689 -0.751 0.229 -0.619 90 82 95
358.9177 57.8405 -30.2210 -0.746 0.228 -0.625 90 82 95
373.8814 53.8735 -32.2204 -0.714 -0.423 -0.558 103 98 104
387.0245 49.2666 -34.0616 -0.874 0.141 -0.465 87 81 93
376.1166 47.0370 -32.9924 -0.877 0.333 -0.347 96 90 102
359.7590 44.9597 -31.2931 -0.864 0.242 -0.442 100 94 106
361.8796 35.3425 -32.2630 -0.353 -0.908 -0.225 102 101 109
345.0344 32.8682 -30.5384 -0.462 0.055 0.885 80 79 87
344.8416 32.3584 -30.5552 -0.713 -0.638 0.291 74 73 81
358.4843 32.5180 -32.0917 -0.134 -0.804 0.579 61 60 68
364.8672 31.7584 -32.8739 -0.021 -0.792 0.611 50 49 57
359.9088 29.4513 -32.4860 0.061 -0.620 0.783 59 58 66
363.1649 28.5245 -32.9258 -0.281 -0.716 0.639 57 56 64
358.3015 27.8466 -32.4252 -0.415 -0.745 0.522 56 55 63
368.0457 22.9035 -33.9061 -0.025 -0.949 0.316 66 66 76
360.2400 22.2870 -33.0667 -0.963 -0.180 0.199 64 64 74
358.3026 21.7615 -32.8867 -0.927 -0.367 0.073 63 63 73
351.3337 19.7400 -32.2489 -0.826 -0.551 0.117 69 69 79
348.4040 19.2500 -31.9534 -0.499 -0.836 0.227 80 80 90
366.1281 16.2455 -34.1932 -0.870 -0.164 0.464 98 95 104
372.5861 11.6017 -35.2784 -0.718 -0.685 -0.128 72 69 78
352.6376 10.6630 -33.0851 -0.922 0.195 0.336 58 56 69
350.3809 10.2630 -32.8592 -0.889 0.193 0.416 60 59 71
351.5421 9.2970 -33.0643 -0.610 -0.766 0.203 63 61 72
351.3242 8.8407 -33.0742 -0.605 -0.768 0.210 65 63 74
351.3045 8.3787 -33.1070 -0.597 -0.774 0.212 76 74 85
349.3598 7.9921 -32.9155 -0.883 0.011 -0.469 84 82 93
355.0821 6.8373 -33.6526 -0.966 0.251 -0.059 90 87 98
354.9637 6.3771 -33.6741 -0.966 0.251 -0.059 89 86 96
365.1923 3.5348 -35.0507 -0.958 0.246 -0.146 82 81 86
350.2233 2.5081 -33.4293 -0.770 -0.227 -0.597 87 86 91
350.9074 2.0185 -33.5441 -0.833 -0.397 -0.386 78 77 82
351.1432 1.5553 -33.6060 -0.882 -0.244 -0.403 74 73 78
349.2476 1.2268 -33.4157 -0.961 -0.166 -0.220 73 72 77
353.0812 -0.8122 -34.0055 -0.076 -0.907 0.415 73 72 79
356.7946 -1.5235 -34.4809 -0.891 0.450 -0.060 67 70 83
285.6409 371.5957 1.0655 -0.932 0.064 -0.357 37 49 37
215.1842 242.0911 -0.4698 -0.630 -0.688 -0.359 35 46 40
261.3715 282.7643 -2.7660 -0.527 -0.823 0.213 55 66 48
327.5776 362.4678 -4.4591 -0.803 0.586 -0.111 64 70 66
356.6735 336.7103 -9.7427 -0.504 0.450 0.737 54 49 56
333.5128 281.3370 -11.2035 -0.931 0.101 -0.351 58 52 62
330.3835 277.0732 -11.1606 -0.974 0.108 -0.201 56 50 60
328.6279 266.5682 -11.7424 0.028 -0.946 0.324 102 96 108
375.3426 300.4252 -14.6085 -0.116 -0.806 0.580 83 81 94
369.2912 291.1653 -14.6013 -0.928 0.361 -0.086 67 61 75
361.1584 282.5315 -14.3069 -0.944 0.327 0.029 68 59 76
357.8861 277.2379 -14.3243 -0.965 0.241 0.103 113 104 121
376.9240 275.3438 -16.6643 -0.729 -0.487 0.481 90 84 96
382.0082 269.0885 -17.7186 -0.720 0.503 0.477 98 84 91
372.4576 259.1319 -17.3592 -0.720 0.492 0.490 128 114 121
364.1454 153.1655 -24.3132 -0.360 -0.142 0.922 86 73 82
354.2675 120.9305 -25.5799 -0.069 -0.036 0.997 79 76 83
343.7788 106.9910 -25.4097 -0.357 0.086 0.930 52 45 52
386.7630 90.2225 -31.6258 -0.960 -0.051 0.277 74 65 84
386.6692 88.1170 -31.7722 0.171 -0.550 0.818 75 68 84
387.2959 68.1261 -33.3376 -0.005 -0.866 0.501 85 82 91
359.5005 57.9117 -30.8906 -0.746 0.228 -0.625 89 78 92
348.0498 55.2391 -29.7678 -0.773 0.016 0.634 85 74 88
381.2838 51.6916 -33.8707 -0.367 0.288 0.884 71 64 72
372.3021 48.9814 -33.0359 -0.309 0.231 0.923 60 54 66
372.2412 47.2355 -33.1592 -0.486 0.191 0.853 91 85 97
360.4413 28.4046 -33.2029 -0.237 -0.753 0.613 52 51 59
355.8818 27.7414 -32.7259 -0.244 -0.691 0.681 52 51 59
377.9948 26.8036 -35.3496 -0.002 -0.283 0.959 44 43 51
349.6996 22.1255 -32.4314 -0.817 -0.481 -0.317 61 61 71
358.2711 21.7292 -33.4508 -0.927 -0.367 0.073 64 64 74
364.5489 20.7731 -34.2472 -0.516 -0.726 -0.454 57 57 67
357.2633 19.2339 -33.5208 -0.536 -0.786 0.308 74 74 84
363.8857 16.2285 -34.5100 -0.876 -0.147 0.459 93 90 99
350.4312 15.8668 -32.9833 -0.777 -0.228 0.587 93 90 99
366.1033 11.2222 -35.1400 -0.913 -0.406 -0.043 61 58 67
351.6888 8.3254 -33.6917 -0.605 -0.771 0.198 78 75 84
349.7582 5.6536 -33.6683 -0.980 0.194 0.035 107 104 111
359.0668 4.7459 -34.8111 -0.715 -0.206 0.668 94 92 98
352.1802 3.2579 -34.1269 -0.968 0.215 -0.129 96 96 98
350.5216 2.8986 -33.9622 -0.770 -0.227 -0.597 97 97 99
351.1983 1.9585 -34.1106 -0.833 -0.397 -0.386 78 77 82
350.7965 1.5339 -34.0959 -0.927 -0.195 -0.322 73 72 77
349.0149 1.1987 -33.9152 -0.960 -0.065 -0.271 73 72 77
344.8413 0.5888 -33.4787 -0.205 -0.918 0.340 73 72 77
331.0542 -6.6210 -32.4250 -0.760 0.409 0.504 67 79 101
227.8334 260.2032 -1.1589 -0.503 -0.619 -0.603 24 36 27
253.9858 286.4330 -2.3014 -0.743 -0.376 -0.553 43 55 41
320.5121 324.4407 -7.3197 -0.812 0.524 0.258 67 64 71
330.1862 300.1403 -10.2430 -0.499 0.432 0.751 71 64 72
321.4890 263.0363 -11.9503 0.009 -0.960 0.280 86 80 92
354.6501 287.2378 -14.0652 -0.068 -0.835 0.546 95 89 103
372.6281 273.0767 -17.2181 -0.695 -0.518 0.497 78 72 86
384.9114 272.7997 -18.6812 -0.296 0.380 0.876 105 92 100
394.3299 265.0664 -20.3561 -0.045 -0.256 0.966 87 79 90
394.4358 263.9871 -20.4479 -0.048 -0.288 0.957 58 50 61
356.4789 225.0033 -18.8569 -0.711 -0.676 0.195 93 81 85
358.4301 213.6566 -19.9206 0.146 -0.796 0.587 134 122 122
276.2165 137.2167 -15.8863 -0.615 -0.788 -0.037 112 102 111
314.2370 146.8772 -19.6413 -0.878 0.117 0.464 128 116 118
326.4167 150.3404 -20.8171 -0.583 0.059 0.810 113 101 103
310.7277 134.6415 -20.1290 0.340 -0.754 0.563 103 96 104
372.2557 152.8309 -26.0177 -0.004 -0.610 0.792 111 101 110
343.6005 137.0500 -23.8128 -0.803 0.101 0.588 80 77 88
335.6591 112.8894 -24.6569 -0.072 -0.039 0.997 102 80 93
383.7624 117.7556 -29.9487 0.298 -0.875 0.381 106 99 106
359.2766 101.0417 -28.3021 -0.974 -0.192 -0.119 79 69 80
356.7860 96.9952 -28.3072 -0.573 0.133 0.809 72 62 73
349.0634 87.2420 -28.1174 -0.942 -0.108 -0.318 96 85 101
366.1203 87.5009 -30.1017 -0.644 0.188 0.741 77 65 85
383.3670 89.4619 -31.9831 -0.998 -0.040 -0.051 73 64 83
364.7184 84.5711 -30.1525 -0.780 -0.491 0.388 76 67 84
364.8826 83.9611 -30.2167 -0.321 -0.642 0.696 79 72 88
366.3676 81.0627 -30.6042 -0.035 -0.480 0.876 105 98 114
363.3552 79.1552 -30.3907 0.069 -0.246 0.967 117 109 124
362.8381 77.7871 -30.4306 0.146 -0.605 0.782 96 84 96
345.8260 71.3832 -28.9035 -0.355 -0.834 -0.423 98 86 98
374.7097 51.5661 -33.7533 -0.988 -0.131 0.077 84 74 82
370.2417 39.1008 -34.1453 -0.815 -0.088 -0.572 73 67 81
355.5275 27.1937 -33.2928 0.052 -0.765 0.641 68 67 75
352.9412 26.1117 -33.0686 0.046 -0.251 0.967 79 78 86
367.0759 24.3871 -34.8556 0.082 -0.345 0.935 64 63 71
359.0464 21.7053 -34.1097 -0.955 -0.281 -0.098 63 63 73
361.0325 20.7154 -34.4158 -0.825 -0.375 -0.422 58 58 68
361.2958 20.2129 -34.4837 -0.825 -0.375 -0.422 62 62 72
358.5737 19.7003 -34.2017 -0.828 -0.332 -0.451 64 64 74
356.9113 19.1999 -34.0432 -0.218 -0.972 0.087 69 69 79
349.7689 8.8186 -33.9678 -0.574 -0.794 0.203 78 73 80
350.0591 8.3471 -34.0366 -0.760 -0.120 0.639 92 87 94
355.1279 6.7546 -34.7490 -0.966 0.251 -0.059 102 97 104
358.5699 5.1970 -35.2678 -0.777 -0.003 0.630 100 98 103
359.0324 4.2369 -35.3928 -0.786 -0.013 0.618 97 96 101
359.0150 3.7701 -35.4251 -0.786 -0.013 0.618 98 98 100
358.1239 -0.7969 -35.6563 -0.958 -0.240 -0.158 73 72 78
347.8067 -0.5324 -34.4251 -0.069 -0.897 0.436 73 72 80
214.0756 260.4200 -0.0821 -0.781 -0.120 0.613 24 36 25
255.4384 288.8692 -2.9618 -0.715 -0.432 -0.549 36 49 32
323.1757 329.3062 -8.1233 -0.764 0.550 0.338 76 73 80
317.2662 320.7377 -8.0380 -0.836 0.484 0.260 61 58 65
351.0500 281.7187 -14.8975 -0.200 -0.953 -0.228 89 85 99
357.4266 286.5570 -15.3087 -0.154 -0.946 -0.285 88 84 98
369.3253 296.5125 -16.0088 -0.027 -0.960 0.277 84 80 94
375.9599 297.7460 -16.7118 -0.915 0.011 -0.403 52 46 60
369.3694 286.8823 -16.7114 -0.983 -0.021 -0.182 56 47 64
365.3017 278.5267 -16.8306 -0.672 0.262 0.693 72 63 80
380.9657 277.9752 -18.7411 -0.349 -0.815 0.463 76 70 80
386.7917 258.3427 -20.8583 -0.041 -0.293 0.955 58 50 61
360.7358 92.1171 -29.7819 -0.737 -0.543 -0.402 81 70 76
345.3688 83.8770 -28.5434 -0.990 0.119 0.079 83 71 91
345.2898 83.2457 -28.5797 -0.990 0.119 0.079 77 65 85
345.2111 82.6162 -28.6158 -0.990 0.119 0.079 75 63 83
345.1325 81.9884 -28.6519 -0.990 0.119 0.079 76 64 84
353.8417 83.3816 -29.5911 -0.969 -0.246 0.036 74 65 84
353.1373 76.4287 -30.0104 0.143 -0.623 0.769 113 103 116
358.2275 74.3886 -30.7660 -0.753 -0.212 -0.623 106 94 106
389.6550 74.4387 -34.5154 -0.576 -0.010 0.817 107 99 109
379.8667 66.9514 -33.8886 0.021 -0.887 0.462 90 84 96
368.3796 63.9302 -32.7355 -0.589 0.132 0.798 89 83 95
380.8785 57.7145 -34.6782 0.084 -0.985 0.153 89 77 90
408.2377 59.1672 -37.8402 -0.811 -0.257 -0.525 78 69 74
381.6661 53.5217 -35.0758 -0.278 0.338 0.899 56 46 54
374.0602 52.0726 -34.2724 -0.294 0.350 0.889 63 53 61
373.9683 51.4709 -34.3050 -0.993 -0.107 0.050 69 59 67
379.6759 40.8778 -35.7536 -0.993 0.108 0.057 74 68 82
377.0240 40.1137 -35.4922 -0.993 0.100 0.057 80 74 88
376.4315 38.9322 -35.5070 0.030 -0.976 0.218 80 74 88
384.6509 36.5733 -36.6594 -0.580 0.270 0.769 83 82 90
349.3438 33.0205 -32.7002 -0.731 -0.143 0.668 80 79 87
367.6882 33.4254 -34.8616 -0.518 0.199 0.832 69 68 76
354.0273 32.2282 -33.3169 -0.997 -0.046 -0.063 74 73 81
353.2165 31.1624 -33.2972 -0.994 0.033 -0.103 86 85 93
335.4121 26.5649 -31.5039 -0.176 -0.737 0.652 94 93 101
360.1809 21.1803 -34.8517 -0.972 -0.191 -0.141 56 56 66
362.9911 19.1762 -35.3324 -0.170 -0.981 0.098 70 69 80
350.7066 8.2839 -34.6540 -0.614 -0.784 0.088 80 75 81
352.6274 3.1490 -35.2551 -0.829 -0.270 -0.490 87 86 92
351.8842 2.7366 -35.1963 -0.771 -0.286 -0.568 85 84 90
352.1809 0.0129 -35.4289 -0.969 -0.205 -0.139 77 76 82
328.5619 -7.6481 -33.1630 -0.784 0.452 0.425 108 120 142
232.2365 323.0345 1.6194 -0.208 -0.978 -0.033 29 39 31
212.0128 258.1454 -0.5496 -0.608 0.053 0.792 28 39 30
213.4994 259.7244 -0.6175 -0.789 -0.111 0.605 17 28 20
213.5666 258.8723 -0.6864 -0.789 -0.111 0.605 18 29 22
212.1481 255.5058 -0.7541 -0.730 0.135 0.670 19 30 21
209.6249 247.5228 -1.0167 -0.817 -0.078 -0.571 23 34 23
209.7401 246.7962 -1.0824 -0.817 -0.078 -0.571 23 35 23
259.6812 295.4335 -3.6791 -0.093 -0.992 -0.090 34 47 29
322.1447 267.3166 -13.2654 -0.305 -0.944 0.125 57 51 61
344.6391 278.1523 -15.2239 -0.249 -0.947 -0.200 84 78 92
345.2747 277.6195 -15.3390 -0.238 -0.951 -0.195 88 84 98
362.8082 290.6429 -16.5395 -0.020 -0.951 0.308 111 107 121
369.5309 287.2482 -17.5975 -0.831 0.534 0.154 68 57 74
362.6277 276.3638 -17.5351 -0.660 0.269 0.702 58 49 66
346.6971 260.0465 -16.7640 -0.845 0.317 -0.431 99 91 112
385.2582 192.2086 -26.2792 -0.883 0.214 0.417 112 99 108
318.8478 154.6364 -20.8948 -0.966 -0.249 0.069 110 94 104
298.7284 130.8694 -20.1461 -0.452 -0.860 -0.237 120 107 114
362.7870 150.3308 -26.5356 -0.419 -0.679 0.602 110 99 107
362.1176 149.2271 -26.5330 -0.733 -0.650 0.201 111 100 108
361.1521 147.9965 -26.5035 -0.701 -0.654 0.284 111 101 110
361.0484 147.1568 -26.5507 -0.665 -0.683 0.303 98 90 98
361.6578 146.6349 -26.6619 -0.655 -0.696 0.294 87 80 88
362.6217 146.2675 -26.8051 -0.673 -0.676 0.300 96 88 99
364.9729 144.9127 -27.1871 -0.654 -0.694 0.302 85 78 88
414.9174 163.6804 -31.9126 -0.228 -0.865 0.446 87 86 95
390.4962 145.7284 -30.2273 -0.695 -0.632 -0.342 36 245 225
361.4633 100.3574 -29.9360 -0.988 0.127 0.086 90 79 92
348.9611 93.5960 -28.9002 -0.952 -0.218 -0.214 78 68 77
360.8894 92.1734 -30.4496 -0.723 -0.551 -0.417 76 65 73
348.3282 84.5965 -29.4647 -0.940 0.336 -0.063 85 74 91
360.0867 73.5207 -31.6813 -0.672 -0.367 -0.643 95 87 95
372.4662 68.2760 -33.5579 0.113 -0.343 0.932 85 79 89
380.9088 57.0911 -35.3798 0.080 -0.847 0.525 109 99 108
379.9393 53.3132 -35.5313 -0.278 0.338 0.899 111 102 107
372.4636 51.8819 -34.7258 -0.294 0.350 0.889 105 96 101
350.3879 45.1087 -32.5286 -0.298 -0.839 -0.455 97 91 103
356.0609 44.5536 -33.2568 -0.347 -0.817 -0.461 77 71 83
381.5891 42.7460 -36.4846 -0.904 -0.206 -0.376 91 85 99
382.0066 42.1922 -36.5748 -0.896 -0.211 -0.391 81 75 89
378.9077 41.3780 -36.2566 -0.888 -0.172 -0.426 74 68 82
378.5461 36.7665 -36.5413 0.063 -0.974 0.218 87 86 92
368.0960 34.5086 -35.4336 -0.279 -0.028 0.960 86 85 91
347.0615 32.8789 -32.9963 -0.658 -0.210 0.723 81 80 88
346.5587 21.9956 -33.7108 0.041 -0.637 0.770 76 75 83
364.9768 18.1296 -36.2222 -0.875 -0.213 -0.436 85 82 91
369.1446 10.5265 -37.2699 -0.534 -0.330 0.779 104 99 106
354.9141 9.9712 -35.5820 -0.795 0.018 0.606 96 91 98
353.2132 9.5541 -35.4052 -0.734 -0.661 0.155 92 87 94
352.4317 9.1122 -35.3419 -0.525 -0.851 0.027 89 84 91
353.2272 8.6170 -35.4737 -0.525 -0.851 0.027 80 75 82
345.8060 0.3961 -35.1587 -0.843 -0.225 0.489 87 87 89
332.0840 288.8275 -13.7615 -0.687 0.604 0.405 63 53 64
311.4040 256.8322 -13.4536 -0.765 0.617 0.184 57 51 61
346.0882 282.0515 -15.9643 -0.977 0.078 0.200 69 63 75
352.0879 284.3080 -16.5463 -0.944 0.182 0.275 69 65 79
348.8163 280.0503 -16.4412 -0.918 0.248 0.310 76 72 86
355.8871 271.7154 -17.8979 -0.694 0.226 0.683 48 39 56
366.2116 271.6528 -19.1761 -0.084 -0.960 -0.265 94 86 107
354.6386 243.4489 -19.7259 -0.690 -0.571 -0.444 83 70 77
391.8780 264.8947 -22.8164 -0.608 -0.597 -0.523 107 99 112
384.6914 245.9802 -23.2560 -0.976 0.093 -0.199 80 68 72
264.1956 131.0330 -16.4500 -0.703 -0.234 0.671 77 67 76
395.5977 198.0504 -27.9622 -0.897 0.295 0.330 106 93 102
354.8937 162.0463 -25.4650 -0.725 -0.639 0.257 99 86 93
360.1404 149.1986 -27.0131 -0.401 -0.709 0.579 105 94 102
330.4809 104.0573 -26.5192 -0.507 0.147 0.849 101 94 101
363.2419 100.8838 -30.7835 -0.989 0.112 0.093 95 85 94
358.0674 98.0814 -30.3416 -0.999 0.017 -0.050 90 80 89
362.8532 92.0274 -31.3565 -0.510 -0.790 -0.340 69 57 67
349.0799 84.7891 -30.1648 -0.806 -0.070 -0.587 94 82 96
380.9608 85.5369 -34.0455 -0.220 -0.975 -0.019 108 100 111
353.3090 77.0879 -31.2265 -0.236 -0.952 0.192 120 113 121
388.8828 74.3026 -35.8106 -0.538 -0.109 0.836 118 111 118
358.0648 66.4912 -32.5562 0.083 -0.445 0.892 110 102 113
366.4937 64.2377 -33.7541 -0.578 0.133 0.805 70 64 76
340.9739 57.5331 -31.0758 -0.108 -0.994 -0.011 84 73 87
378.2552 56.7495 -35.7302 0.066 -0.846 0.529 100 90 99
383.2758 56.7540 -36.3493 0.066 -0.846 0.529 108 98 106
375.7213 53.4232 -35.6508 -0.277 0.341 0.898 117 107 115
356.8406 44.6074 -33.9396 -0.347 -0.817 -0.461 67 61 73
348.8276 36.5369 -33.5169 -0.804 0.001 -0.595 80 74 88
373.1339 36.4228 -36.5236 0.063 -0.974 0.218 78 77 85
367.1473 33.3468 -36.0007 -0.650 0.210 0.730 75 74 82
355.0653 30.1621 -34.7335 -0.933 0.088 -0.349 84 82 93
332.2563 27.3547 -32.1163 0.027 -0.616 0.788 77 75 88
364.2301 20.6375 -36.5320 -0.993 -0.089 -0.078 74 71 82
362.9696 20.1211 -36.4127 -0.990 -0.123 -0.077 79 76 87
368.6268 19.6315 -37.1449 -0.976 -0.160 -0.148 84 81 92
361.4976 19.1059 -36.3022 -0.952 -0.124 -0.281 88 85 96
358.1969 17.1203 -36.0342 -0.962 -0.135 -0.237 89 86 95
362.3065 9.7028 -37.0613 -0.494 -0.538 0.682 89 84 91
355.3400 9.4458 -36.2199 -0.754 -0.623 0.207 84 79 86
354.9248 8.9875 -36.2008 -0.755 -0.616 0.227 81 76 83
349.8240 3.6728 -35.9442 -0.517 -0.443 0.733 100 99 104
336.8737 1.8035 -34.4775 -0.735 0.103 0.670 84 83 88
337.8267 0.0387 -34.7189 -0.067 -0.884 0.463 80 81 91
335.0966 -0.1887 -34.3980 -0.114 -0.922 0.369 76 80 98
282.2445 326.9444 -5.7087 -0.336 -0.916 -0.221 29 42 25
341.3998 277.7613 -16.5161 -0.964 0.059 0.261 60 57 68
344.6024 276.2836 -17.0195 -0.117 -0.310 0.943 74 72 85
348.4360 276.4792 -17.4865 -0.114 -0.385 0.916 49 47 60
383.3044 278.1733 -21.7405 -0.337 -0.899 0.279 80 76 85
382.4793 262.3676 -22.7272 -0.639 -0.561 -0.526 82 72 81
387.2350 263.7947 -23.2249 -0.644 -0.540 -0.542 98 90 101
300.9934 177.2755 -18.3817 -0.258 -0.822 0.507 111 99 100
187.7737 88.4988 -10.3125 -0.813 -0.559 0.161 78 72 82
370.9963 172.0443 -27.5174 -0.848 -0.391 0.359 66 53 60
366.7618 107.4973 -31.4385 0.025 -0.890 0.455 79 67 77
368.3279 101.6494 -32.0382 -0.178 0.005 0.984 92 81 88
349.6542 87.4487 -30.6768 -0.733 -0.016 -0.680 90 77 87
349.4496 85.5152 -30.7845 -0.784 -0.120 -0.609 99 86 96
349.5855 84.9230 -30.8424 -0.784 -0.120 -0.609 94 81 92
401.1186 77.1457 -37.8385 -0.612 0.047 0.789 116 109 116
362.2310 67.1860 -33.6509 -0.028 -0.721 0.692 106 98 109
363.6132 66.8088 -33.8502 -0.065 -0.702 0.709 81 75 85
366.0669 63.5615 -34.3817 -0.589 0.132 0.798 96 90 102
363.7132 62.6028 -34.1528 -0.587 0.154 0.795 96 90 102
341.0246 57.5341 -31.6583 -0.108 -0.994 -0.011 81 70 84
385.7034 58.9184 -37.1634 0.119 -0.816 0.566 87 76 91
355.2918 53.8832 -33.6986 0.149 -0.726 0.671 91 81 90
369.2651 55.0280 -35.3712 0.144 -0.717 0.682 102 92 100
373.3313 52.5422 -36.0523 -0.277 0.341 0.898 103 93 101
369.2997 49.7570 -35.7391 -0.288 0.350 0.891 111 104 112
364.6263 47.5598 -35.3048 -0.312 0.364 0.877 93 87 101
361.7838 43.3729 -35.2372 0.024 -0.951 0.307 121 115 129
370.2289 42.3876 -36.3638 0.022 -0.787 0.617 112 106 120
384.1091 41.7178 -38.1499 0.002 -0.950 0.312 88 82 96
373.6184 40.3748 -36.9275 -0.892 0.143 -0.429 81 75 89
372.8175 39.7512 -36.8701 -0.889 0.140 -0.437 81 75 89
372.3712 39.1559 -36.8552 -0.885 0.109 -0.452 81 75 89
353.2431 36.2748 -34.6562 0.056 -0.971 0.231 73 70 81
351.0982 35.6211 -34.4324 0.058 -0.976 0.210 65 62 73
355.6352 30.6749 -35.3423 -0.971 0.229 -0.064 84 82 93
337.2466 27.9734 -33.2236 -0.886 0.376 0.273 65 61 76
363.8779 20.0918 -37.1055 -0.047 -0.628 0.777 82 79 90
360.7420 18.0689 -36.8519 -0.991 0.130 -0.034 74 71 80
350.3607 16.6506 -35.6484 -0.996 0.029 0.082 83 80 89
361.6342 10.1694 -37.5086 -0.394 -0.522 0.757 83 78 85
361.4982 9.6884 -37.5247 -0.494 -0.528 0.691 79 74 81
354.6742 8.0162 -36.7846 -0.838 -0.523 0.156 90 85 92
354.9612 7.5359 -36.8537 -0.838 -0.523 0.156 90 85 92
350.0143 6.3533 -36.3152 -0.610 -0.526 0.592 90 85 92
342.1430 3.1707 -35.5480 0.020 -0.429 0.903 95 95 97
348.5304 1.4608 -36.4666 -0.069 -0.707 0.704 81 80 85
284.2811 334.0856 -6.2535 -0.372 -0.882 -0.290 20 32 20
330.5338 339.6846 -11.7632 -0.729 0.464 -0.504 80 78 83
292.4535 238.3345 -13.7883 -0.170 -0.983 0.075 49 46 55
338.9799 275.6502 -17.1818 -0.840 0.308 0.447 59 56 67
339.2462 273.6609 -17.3506 -0.817 0.451 0.359 73 69 83
343.2128 276.3162 -17.6756 -0.639 0.129 0.758 115 113 126
341.0304 273.1186 -17.6146 -0.110 -0.329 0.938 108 106 120
357.5685 280.5479 -19.2165 -0.204 -0.962 -0.182 64 60 75
380.8858 295.7123 -21.1571 -0.948 0.315 -0.047 63 56 72
386.9603 264.9187 -24.0191 -0.644 -0.540 -0.542 78 68 78
398.0605 270.0342 -25.0856 -0.480 -0.837 -0.263 96 88 99
368.8698 149.2104 -29.5633 -0.444 -0.891 0.096 75 69 79
368.6646 148.3096 -29.5983 -0.489 -0.858 0.159 71 65 73
363.8589 145.4123 -29.1829 -0.470 -0.265 0.842 65 63 68
393.2218 147.8411 -32.7571 -0.656 -0.532 -0.535 19 250 243
397.3324 145.2255 -33.4579 -0.980 0.111 -0.167 15 245 230
327.6341 101.2943 -27.5625 0.089 -0.990 -0.110 94 82 89
329.8630 101.3849 -27.8402 0.089 -0.992 -0.086 124 111 118
345.0729 103.6130 -29.6258 0.058 -0.996 -0.070 78 65 72
361.6287 105.9776 -31.5735 0.236 -0.888 0.396 62 49 58
352.1212 99.1091 -30.8287 -0.967 0.019 0.253 89 76 83
358.6942 77.5959 -33.1248 -0.676 -0.434 -0.595 92 85 93
363.9641 78.0453 -33.7654 -0.697 -0.172 -0.696 100 93 101
358.3524 73.8130 -33.3379 -0.728 -0.238 -0.643 107 100 108
358.5992 73.2461 -33.4077 -0.728 -0.238 -0.643 110 103 111
354.3267 65.8621 -33.3645 -0.557 -0.205 0.804 103 95 106
352.1904 64.3363 -33.1960 -0.281 -0.411 0.867 96 90 102
363.2795 65.5391 -34.5264 0.146 -0.834 0.532 104 98 110
367.1098 52.9949 -35.8649 0.077 -0.809 0.582 131 121 129
375.0009 52.1195 -36.9291 -0.804 0.238 0.546 112 102 110
373.1946 51.3284 -36.7528 -0.796 0.245 0.553 109 99 107
356.1813 46.7105 -34.8996 -0.973 0.169 -0.160 94 88 102
356.3481 45.6252 -34.9944 -0.408 -0.826 -0.388 101 95 107
356.9995 44.5874 -35.1478 -0.340 -0.821 -0.460 95 87 100
359.5136 43.7114 -35.5273 -0.506 -0.766 -0.397 108 102 114
363.0920 42.9094 -36.0374 0.009 -0.856 0.517 114 108 122
380.2920 41.4139 -38.3289 0.028 -0.944 0.328 93 87 101
362.0289 39.5202 -36.1319 -0.082 -0.931 0.355 84 78 92
360.1462 36.1467 -36.1209 0.052 -0.974 0.221 81 79 90
351.9786 29.9847 -35.4988 -0.987 0.156 -0.032 67 63 78
334.9419 22.6966 -33.8238 0.015 -0.819 0.574 79 76 87
367.0883 18.5312 -38.1996 -0.098 -0.540 0.836 60 57 68
360.5247 18.0349 -37.3975 -0.992 0.125 -0.030 73 70 79
350.3310 17.0964 -36.1632 -0.996 0.029 0.082 80 77 86
366.4522 15.4827 -38.3254 0.009 -0.533 0.846 86 83 92
349.2890 11.4289 -36.4149 -0.438 -0.601 0.669 77 72 79
343.6335 10.6643 -35.7466 -0.100 -0.890 0.444 77 72 79
357.1868 8.3552 -37.6290 -0.847 -0.372 0.379 88 83 90
358.5176 7.8302 -37.8341 -0.864 -0.320 0.389 90 85 92
355.5324 6.5345 -37.5418 -0.723 -0.418 0.550 90 85 92
338.5146 4.2060 -35.5328 -0.084 -0.602 0.794 91 90 95
338.7379 3.3264 -35.6209 0.001 -0.473 0.881 89 88 93
345.4866 2.4930 -36.5368 -0.022 -0.664 0.748 79 79 81
258.5670 276.5467 -7.5476 -0.410 -0.733 0.543 38 50 30
330.3808 343.8206 -12.3491 -0.891 -0.304 -0.337 85 84 90
334.0463 343.0288 -12.8759 -0.728 0.470 -0.499 56 54 59
335.8134 311.5691 -15.2020 -0.229 -0.958 -0.174 54 44 52
346.8132 308.6168 -16.8213 -0.582 0.531 0.616 63 55 66
339.6785 274.2910 -18.1873 -0.819 0.452 0.354 43 41 54
342.6696 273.7609 -18.6095 0.028 -0.974 -0.226 64 62 76
371.4486 275.6107 -22.2078 -0.833 0.107 -0.542 109 102 118
376.9158 234.4248 -25.6609 -0.755 0.374 0.539 125 114 120
327.7039 131.1477 -26.1828 -0.675 -0.100 0.731 85 81 87
366.6989 145.9089 -30.2414 -0.517 -0.152 0.842 110 108 113
320.4046 99.5938 -27.3427 -0.072 -0.959 0.275 106 90 96
328.2288 100.8895 -28.2681 0.086 -0.994 -0.060 119 104 109
330.5027 100.9887 -28.5556 0.005 -0.846 0.533 115 100 105
332.9039 101.1186 -28.8574 0.176 -0.815 0.552 81 66 71
347.1830 99.0184 -30.8440 -0.857 0.373 0.355 87 72 77
331.1182 93.7086 -29.1206 -0.894 -0.356 -0.270 89 77 81
353.8157 98.9547 -31.7060 -0.089 -0.054 0.995 99 87 89
362.0998 99.9508 -32.7109 -0.151 0.027 0.988 89 77 79
358.1158 98.1625 -32.3149 -0.239 -0.003 0.971 89 77 79
362.0884 98.5881 -32.8003 -0.046 -0.090 0.995 90 78 82
355.5725 79.4407 -33.2343 -0.116 -0.697 0.708 100 90 99
364.6685 76.9258 -34.5783 -0.305 -0.818 -0.488 96 89 97
365.2608 76.4103 -34.6892 -0.678 -0.290 -0.675 86 79 87
366.2323 75.3348 -34.8866 -0.654 -0.258 -0.711 99 92 100
356.6021 72.2592 -33.8463 -0.730 -0.119 -0.673 111 104 112
347.5986 64.1593 -33.2220 -0.439 0.120 0.890 94 88 98
347.4021 63.5528 -33.2370 -0.439 0.120 0.890 99 93 105
364.3262 65.0975 -35.3226 0.147 -0.784 0.603 107 101 113
353.8498 52.5591 -34.8038 0.121 -0.789 0.602 78 68 76
363.5325 51.9894 -36.0940 0.076 -0.263 0.962 110 100 108
366.0224 45.9569 -36.8182 -0.038 -0.998 -0.041 79 71 84
345.3368 37.2722 -34.7222 -0.945 0.288 0.154 94 91 102
343.7075 36.6517 -34.5528 -0.949 0.183 0.255 93 90 101
369.1078 36.1129 -37.8735 0.062 -0.975 0.214 87 85 98
356.8392 31.1932 -36.6150 -0.969 0.205 -0.140 83 81 94
346.6157 28.7450 -35.4561 -0.952 0.128 -0.278 73 69 84
361.6481 19.5085 -38.0159 -0.101 -0.475 0.874 91 88 99
361.7163 18.5001 -38.0920 -0.977 -0.211 -0.033 78 75 86
350.4254 16.5816 -36.7598 -0.942 -0.077 -0.328 114 111 120
368.5795 13.8996 -39.2863 0.065 -0.410 0.910 65 62 71
348.7549 11.4058 -36.8888 -0.480 -0.599 0.641 80 75 82
349.2283 10.9264 -36.9820 -0.480 -0.599 0.641 80 75 82
353.0312 9.8757 -37.5439 -0.321 -0.840 0.437 82 77 84
354.1204 9.3691 -37.7185 -0.321 -0.840 0.437 82 77 84
356.9396 8.3243 -38.1527 -0.844 -0.364 0.393 89 84 91
334.9819 2.6510 -35.6914 -0.066 -0.773 0.631 71 70 76
339.2199 274.0699 -18.9673 -0.819 0.452 0.354 58 54 68
362.1145 283.9812 -21.3241 -0.927 -0.188 -0.326 137 133 147
345.3149 237.7080 -22.1502 -0.908 -0.374 0.192 81 66 71
396.9330 274.3050 -26.5301 -0.948 0.094 -0.304 99 86 93
234.3711 116.8706 -15.5000 -0.210 -0.955 -0.212 97 91 101
252.3958 111.8315 -18.1970 -0.530 -0.838 -0.132 120 105 109
408.6657 148.0003 -36.3466 -0.979 -0.201 -0.014 31 254 226
328.0711 109.7891 -28.2676 -0.519 -0.842 0.149 117 98 104
353.4318 111.0907 -31.5124 -0.971 -0.071 -0.228 103 84 90
347.7181 97.8914 -31.6270 -0.556 0.047 0.830 101 89 93
359.6256 98.6050 -33.1438 -0.049 -0.094 0.994 89 77 79
359.4405 97.8802 -33.1670 -0.053 -0.090 0.995 89 77 81
352.2806 85.6066 -33.0311 -0.878 -0.169 -0.447 80 67 77
348.4384 84.0659 -32.6275 -0.877 0.004 -0.480 98 85 95
371.4811 78.9366 -35.9893 -0.708 -0.353 -0.611 93 86 94
366.3221 77.2601 -35.4217 -0.315 -0.818 -0.481 92 85 93
358.9958 72.7127 -34.7577 -0.737 -0.110 -0.666 98 91 99
345.0833 68.9254 -33.1790 -0.694 -0.187 -0.695 93 86 93
348.2992 67.1735 -33.7161 -0.245 -0.610 0.753 100 93 100
353.5978 67.5102 -34.3898 -0.137 -0.413 0.900 98 91 98
354.2615 67.0314 -34.5083 -0.137 -0.413 0.900 97 90 97
362.4489 64.1935 -35.7693 -0.157 -0.695 0.702 109 103 115
354.4132 62.3496 -34.8350 -0.007 -0.296 0.955 109 103 115
356.4515 39.0778 -36.6275 -0.045 -0.918 0.393 94 91 102
352.0074 36.1308 -36.2370 -0.472 -0.666 0.577 84 82 93
364.3301 35.8088 -37.8762 0.062 -0.975 0.214 92 90 103
389.4051 36.6873 -41.1112 -0.749 0.123 0.651 99 97 110
357.2796 31.1864 -37.2533 -0.988 0.144 -0.054 96 94 107
348.8539 26.3020 -36.4670 -0.904 0.257 -0.343 87 83 98
348.7314 20.8938 -36.8052 -0.008 -0.791 0.612 95 92 103
356.1885 17.4844 -38.0078 -1.000 -0.007 0.016 104 101 110
349.8477 16.5518 -37.2363 -0.936 -0.147 -0.320 125 122 131
350.9756 16.0625 -37.4165 -0.937 -0.121 -0.327 124 121 130
365.7007 12.4090 -39.5894 0.051 -0.329 0.943 76 73 82
349.8359 11.8090 -37.5455 -0.503 -0.491 0.711 84 81 90
350.7531 10.3771 -37.7598 -0.405 -0.672 0.620 87 82 89
351.7057 9.8791 -37.9175 -0.059 -0.712 0.700 87 82 89
341.9671 352.1230 -15.1348 -0.747 0.444 -0.494 57 55 60
339.9090 274.9476 -19.8284 -0.826 0.461 0.324 71 67 81
354.0308 282.5884 -21.2189 -0.125 -0.912 -0.391 134 133 147
371.8153 269.3724 -24.4403 -0.832 -0.005 -0.555 76 63 80
397.5592 247.1262 -29.3040 -0.614 -0.300 -0.730 68 53 58
385.3860 237.4972 -28.3012 -0.662 -0.335 -0.671 115 100 103
332.8139 103.0618 -29.9471 -0.034 -0.990 0.140 92 73 79
331.8714 100.8497 -29.9638 -0.085 -0.924 0.373 134 117 123
403.1035 117.0009 -38.4194 -0.882 0.456 -0.118 93 78 83
337.9276 95.7296 -31.1007 -0.942 -0.289 -0.171 100 88 92
371.7692 73.2023 -37.0619 0.013 -0.912 0.411 94 87 94
377.7379 73.6389 -37.8294 0.031 -0.861 0.507 94 87 94
362.6574 67.8586 -36.1913 -0.775 -0.574 -0.265 85 78 86
364.4493 67.5488 -36.4501 -0.783 -0.554 -0.283 84 76 87
354.6185 62.9616 -35.4349 -0.098 -0.248 0.964 96 90 102
353.4850 61.6203 -35.3702 -0.432 -0.901 -0.047 88 82 94
353.9965 61.1174 -35.4707 -0.430 -0.902 -0.042 80 74 86
349.7324 59.9045 -34.9804 -0.735 -0.673 0.081 77 69 82
356.3967 47.2382 -36.6841 -0.576 -0.474 0.666 71 61 72
354.0254 39.9506 -36.8371 0.087 -0.925 0.370 99 96 107
361.0869 19.4393 -39.0987 -0.973 -0.103 -0.207 97 94 105
360.1288 17.9319 -39.0681 -0.991 0.116 -0.071 100 97 106
356.1794 17.4499 -38.5726 -1.000 -0.007 0.016 110 107 116
350.0049 16.9963 -37.7788 -0.998 0.019 0.068 122 119 128
349.8064 16.5178 -37.7831 -0.990 -0.136 -0.045 128 125 134
351.7403 16.0204 -38.0729 -0.935 -0.132 -0.329 123 120 129
355.9250 14.0324 -38.7587 -0.011 -0.523 0.852 85 82 91
359.0889 13.4903 -39.2153 -0.012 -0.524 0.851 67 64 73
345.3782 11.4216 -37.5209 -0.483 -0.634 0.604 90 85 92
335.5929 -8.6974 -37.5116 -0.739 0.295 0.605 145 157 181
263.5868 275.7797 -10.2791 -0.670 0.470 0.575 84 87 92
343.6953 353.2007 -16.2230 -0.767 0.443 -0.464 53 50 55
339.5091 274.7830 -20.6140 -0.826 0.461 0.324 57 53 67
348.7234 280.1360 -21.5222 -0.063 -0.942 -0.330 56 54 68
359.8793 280.0291 -23.0383 -0.953 -0.226 -0.203 63 59 73
353.5115 151.3223 -30.3132 -0.677 -0.733 -0.070 117 106 112
366.7460 114.8119 -34.4119 -0.987 -0.074 0.142 103 86 92
363.0973 112.9045 -34.0388 -0.974 -0.053 0.219 94 75 81
338.7776 104.3701 -31.2880 -0.048 -0.681 0.730 92 73 79
334.0775 102.2172 -30.7882 0.012 -0.709 0.705 92 75 81
342.7603 97.1554 -32.2829 -0.999 -0.002 0.050 117 105 109
348.1849 83.4097 -33.8858 -0.874 -0.133 -0.467 88 75 85
350.2385 83.2668 -34.1727 -0.885 0.046 -0.462 89 76 86
363.3238 77.9384 -36.2799 -0.717 -0.316 -0.622 92 85 93
366.1702 77.2398 -36.7092 -0.703 -0.333 -0.628 85 78 86
381.8769 78.3605 -38.7633 -0.329 -0.792 -0.514 78 71 79
373.0609 73.4386 -37.8817 0.031 -0.861 0.507 84 77 84
375.9058 73.3101 -38.2748 0.031 -0.861 0.507 82 75 82
363.6169 68.0195 -36.9466 -0.772 -0.579 -0.264 77 70 78
363.3279 67.3592 -36.9492 -0.780 -0.582 -0.229 79 71 82
365.2990 67.0747 -37.2339 -0.758 -0.607 -0.238 81 75 85
362.8899 66.0692 -36.9715 -0.641 0.187 0.744 84 78 90
353.5441 61.6244 -35.9881 -0.432 -0.901 -0.047 78 72 84
355.3169 61.3109 -36.2477 -0.430 -0.902 -0.045 75 69 81
349.4286 59.8536 -35.5432 -0.743 -0.664 0.084 75 67 80
358.9111 51.4227 -37.3591 -0.714 -0.684 0.147 70 60 68
373.8759 51.9380 -39.3512 -0.821 0.368 0.436 68 58 66
373.5779 45.4398 -39.7217 -0.910 0.348 -0.226 89 79 90
353.3665 35.1205 -37.6395 0.062 -0.973 0.221 79 77 90
360.1595 32.8480 -38.7023 -0.232 0.399 0.887 69 67 80
356.9277 31.1188 -38.3743 -0.989 0.118 -0.093 69 67 80
361.7505 28.1646 -39.2136 -0.986 0.131 -0.101 93 89 106
355.6785 26.9420 -38.4694 -0.998 0.019 0.063 81 77 94
339.0466 22.6418 -36.4910 -0.963 0.264 -0.050 88 85 95
351.2225 20.8498 -38.2516 -0.920 -0.152 -0.361 85 82 93
352.2492 17.4334 -38.6065 -0.997 -0.009 -0.073 103 100 109
350.0643 16.4814 -38.3711 -0.993 -0.104 -0.060 115 112 121
349.1254 16.0110 -38.2738 -0.993 -0.088 -0.074 110 107 116
349.4030 15.0544 -38.3718 -0.026 -0.435 0.900 103 100 109
352.9149 12.1332 -39.0316 0.034 -0.365 0.930 106 103 112
346.9218 11.8081 -38.2414 -0.487 -0.606 0.629 92 89 98
342.0535 11.4741 -37.6038 -0.366 -0.389 0.845 94 89 96
341.7654 11.0267 -37.5931 -0.687 -0.571 0.449 95 90 97
367.1128 4.8910 -41.4104 -0.596 0.157 0.788 89 86 97
310.4778 4.4262 -33.7773 -0.909 0.416 -0.029 76 74 87
335.2855 -7.9006 -37.9129 -0.689 0.329 0.646 107 119 143
335.5547 -8.3344 -37.9768 -0.692 0.346 0.633 143 155 179
335.3030 -8.7140 -37.9667 -0.740 0.293 0.605 153 165 189
220.7610 298.3828 -3.6758 0.009 -0.882 0.471 32 38 34
264.1035 278.8691 -10.8374 -0.290 0.196 0.937 69 73 76
332.0862 270.0804 -20.7163 -0.690 -0.324 0.648 57 54 65
334.7856 270.4698 -21.0627 -0.853 0.421 0.309 57 55 68
238.8457 104.9709 -18.1620 -0.002 -0.763 0.646 121 104 107
394.0034 172.3295 -35.2836 0.416 -0.784 0.460 99 90 95
363.6999 156.2020 -32.1240 -0.698 -0.713 -0.071 110 101 106
271.8160 89.8378 -23.6277 -0.771 0.049 0.635 95 77 85
328.3609 98.5468 -30.8504 -0.924 -0.009 0.381 72 57 62
323.9015 96.5447 -30.3624 -0.921 -0.077 0.383 73 58 63
346.0411 97.4806 -33.3439 -0.976 0.201 0.087 121 109 113
348.3938 97.5027 -33.6655 -0.977 0.109 0.181 124 113 117
353.4127 96.2830 -34.4303 -0.056 -0.095 0.994 84 71 78
355.5722 90.3055 -35.0978 0.120 -0.407 0.905 88 74 87
344.9931 83.2878 -34.0809 -0.549 -0.836 0.023 90 77 87
347.1777 80.1085 -34.5781 -0.974 0.025 -0.225 81 71 80
349.0717 79.9162 -34.8501 -0.567 -0.410 -0.714 82 72 81
346.9213 78.8313 -34.6222 -0.558 -0.424 -0.714 89 79 88
361.8242 78.2712 -36.7030 -0.900 -0.225 0.373 91 86 93
352.8524 72.1656 -35.8501 -0.491 -0.185 0.852 74 69 76
354.6285 71.8972 -36.1106 -0.547 -0.221 0.807 67 62 69
373.8628 72.9433 -38.6864 0.031 -0.856 0.516 50 45 51
379.7014 72.6882 -39.5039 -0.560 -0.364 -0.744 75 70 76
380.6434 71.5501 -39.7038 -0.683 -0.081 -0.726 73 68 75
371.5346 69.3583 -38.5893 -0.842 -0.452 -0.293 73 68 75
361.6985 66.4777 -37.4176 -0.770 -0.605 -0.205 83 75 88
360.5984 65.6928 -37.3153 -0.810 -0.543 -0.223 79 70 83
355.3556 63.0689 -36.7584 -0.812 0.336 0.476 70 62 75
351.8340 61.3584 -36.3810 -0.411 -0.910 -0.057 68 60 73
351.9749 60.8023 -36.4349 -0.417 -0.908 -0.047 67 59 72
349.3737 59.8398 -36.1375 -0.743 -0.664 0.084 66 58 73
357.0746 52.9005 -37.6254 -0.912 -0.398 -0.097 66 56 64
355.5391 52.1512 -37.4611 -0.926 -0.377 0.015 62 52 60
355.4193 51.5736 -37.4805 -0.934 -0.358 0.017 63 53 61
354.8826 50.9501 -37.4455 -0.935 -0.354 0.004 67 57 65
355.2803 47.6489 -37.7050 -0.435 -0.606 0.665 86 76 87
353.8489 46.9517 -37.5517 -0.339 -0.664 0.667 88 78 89
364.8222 34.1334 -39.8538 -0.536 0.090 0.840 71 69 82
355.5545 24.3670 -39.1875 -0.990 0.103 -0.100 96 92 106
355.7219 20.8518 -39.4287 -0.849 -0.372 -0.375 81 78 89
362.0571 19.3736 -40.3902 -0.854 -0.357 -0.378 101 98 109
362.0938 18.8670 -40.4267 -0.861 -0.343 -0.376 96 93 104
360.5220 18.3632 -40.2421 -0.946 -0.140 -0.293 87 84 95
360.6099 17.8611 -40.2854 -0.946 -0.140 -0.293 80 77 86
352.6765 16.9110 -39.2551 -0.987 -0.057 -0.152 99 96 105
351.1125 16.4384 -39.0697 -0.854 -0.018 0.521 101 98 107
351.0259 14.9976 -39.1473 -0.088 -0.566 0.819 96 93 102
346.3514 11.7857 -38.7048 -0.487 -0.606 0.629 95 92 101
339.3865 11.5096 -37.7657 -0.424 -0.267 0.866 95 92 101
381.5443 9.8496 -43.6567 -0.245 -0.600 0.762 94 91 100
357.5214 9.5773 -40.3754 -0.897 -0.317 0.309 94 91 100
361.9554 7.4947 -41.1134 -0.645 -0.626 0.438 87 84 93
359.7799 7.0998 -40.8393 -0.613 -0.679 0.405 87 84 93
331.3549 -5.5353 -37.7209 -0.977 0.194 -0.086 76 82 104
260.3136 277.1532 -11.0987 -0.232 -0.135 0.963 47 53 48
325.7712 266.3425 -20.8748 -0.745 0.352 0.567 61 58 69
368.3568 294.2565 -25.1066 -0.213 -0.870 -0.445 119 117 131
393.9129 292.2460 -28.7888 -0.218 0.329 0.919 95 82 99
362.0565 257.3361 -26.4776 -0.526 -0.401 -0.750 57 43 57
361.2977 255.6117 -26.4769 -0.529 -0.398 -0.749 77 62 71
390.7179 239.5058 -31.5559 -0.755 -0.231 -0.614 97 82 85
365.6060 219.0821 -29.3018 -0.676 0.332 0.657 104 89 92
394.2411 205.1184 -34.1409 -0.493 -0.461 0.738 129 118 122
310.3088 146.3242 -26.0306 -0.842 0.186 0.506 102 82 83
270.6023 118.5787 -22.1895 -0.249 -0.929 0.275 119 104 109
315.5081 126.0482 -27.9897 -0.480 -0.311 0.821 87 83 81
327.6390 100.8476 -31.2142 -0.464 -0.326 0.824 94 77 83
327.6153 99.5879 -31.2876 -0.941 -0.089 0.326 95 78 84
326.3462 98.5650 -31.1731 -0.929 -0.057 0.365 103 88 93
326.3682 97.9527 -31.2135 -0.929 -0.057 0.365 110 95 100
321.7916 95.9181 -30.6999 -0.882 -0.114 0.458 113 98 103
342.1548 97.0279 -33.4688 -0.968 -0.008 -0.249 114 102 106
342.8605 96.5888 -33.5938 -0.967 -0.009 -0.254 112 100 104
370.2827 100.2634 -37.1897 -0.673 0.104 0.733 64 51 60
350.0178 90.1955 -34.9801 0.069 -0.304 0.950 80 66 78
344.8621 85.7433 -34.5331 -0.916 -0.068 -0.395 109 96 106
344.6032 85.0596 -34.5387 -0.627 -0.702 -0.338 109 96 106
346.4617 81.1826 -35.0337 -0.734 -0.604 -0.311 90 80 89
350.8465 80.3182 -35.6971 -0.571 -0.408 -0.713 89 79 88
348.4473 79.1743 -35.4326 -0.551 -0.427 -0.716 95 85 94
352.4297 78.1890 -36.0473 -0.562 -0.416 -0.715 102 90 100
362.0150 76.4218 -37.4901 0.126 -0.239 0.963 108 101 109
346.0175 70.2770 -35.6360 -0.195 0.085 0.977 83 78 85
370.0675 72.8961 -38.8265 0.030 -0.860 0.510 77 72 78
357.1721 66.3259 -37.4304 -0.834 -0.500 -0.232 92 84 95
347.1717 60.6421 -36.3836 -0.325 -0.935 -0.141 79 71 84
352.0360 60.8062 -37.0512 -0.417 -0.908 -0.047 81 73 86
349.3188 59.8259 -36.7324 -0.743 -0.664 0.084 83 75 90
343.0889 58.3438 -35.9549 -0.881 0.415 0.227 72 66 80
364.8705 54.4100 -39.2285 -0.784 0.192 0.590 71 61 69
358.7856 53.0943 -38.4610 -0.689 -0.039 0.724 66 56 64
354.9681 52.0719 -37.9916 -0.491 0.218 0.844 62 52 60
352.1253 49.5143 -37.7513 -0.472 -0.151 0.869 80 70 78
351.5530 48.8999 -37.7090 -0.464 -0.160 0.871 81 71 80
348.7096 47.5044 -37.3980 -0.505 -0.119 0.855 58 48 59
353.8339 46.3849 -38.1799 -0.347 -0.289 0.892 89 79 90
343.8760 44.3482 -36.9169 -0.002 -0.998 -0.069 83 73 84
377.9477 45.7894 -41.5751 0.044 -0.998 -0.039 81 69 81
356.6235 42.2583 -38.8198 -0.845 0.234 -0.480 87 84 95
355.1859 33.0767 -39.1788 -0.277 0.303 0.912 76 74 87
359.1553 30.1121 -39.9122 -0.284 -0.949 0.137 89 85 100
357.5003 29.5255 -39.7174 -0.995 0.056 -0.082 98 94 109
357.3007 23.3548 -40.0654 -0.961 0.213 -0.176 92 88 102
352.1924 22.2772 -39.4195 -0.936 -0.085 -0.342 83 80 91
356.0050 20.8215 -40.0392 -0.849 -0.372 -0.375 74 71 82
347.4704 19.7903 -38.9132 -0.941 0.337 0.000 88 85 96
357.9551 18.3321 -40.4625 -0.969 -0.144 -0.202 76 73 84
357.3409 17.8363 -40.4071 -0.968 -0.153 -0.198 72 69 80
352.5978 16.8770 -39.8049 -0.880 -0.010 0.476 82 79 90
351.9258 16.3971 -39.7405 -0.850 -0.008 0.527 86 83 94
353.4629 14.9294 -40.0440 -0.999 -0.047 -0.018 86 83 94
352.6208 14.4591 -39.9553 -0.998 0.049 0.038 78 75 86
352.8232 13.9750 -40.0130 -0.999 0.039 0.032 69 66 77
347.9232 12.1769 -39.4400 -0.920 -0.027 -0.392 89 86 95
362.1770 5.0375 -41.8603 -0.391 0.206 0.897 86 84 97
334.5191 -7.1024 -38.7471 -0.696 0.350 0.627 52 64 88
238.1904 337.1633 -5.0636 -0.888 0.438 0.142 16 20 19
329.7272 269.3245 -22.0504 -0.970 0.228 0.089 66 63 74
364.0416 294.1096 -25.4181 0.028 -0.978 -0.207 70 68 82
371.3378 298.5066 -26.1863 -0.514 -0.648 -0.562 73 71 85
368.6905 212.3609 -30.9590 -0.441 -0.433 0.786 100 85 88
344.8565 97.1873 -34.4723 -0.968 -0.018 -0.249 75 63 67
345.1474 95.9757 -34.5858 -0.984 0.139 0.108 70 57 64
350.7081 94.2734 -35.4732 -0.479 0.011 0.878 62 49 58
406.1177 104.6608 -42.6817 -0.054 -0.769 0.636 80 67 76
346.3104 86.7401 -35.3018 0.125 -0.441 0.889 112 99 108
347.8616 79.0549 -35.9802 -0.723 -0.338 -0.602 99 87 97
350.1086 77.7036 -36.3784 -0.787 -0.191 -0.587 99 87 97
358.8802 66.6095 -38.2806 -0.877 -0.415 -0.241 104 96 107
355.7834 60.7797 -38.1913 -0.667 -0.147 0.731 105 97 112
389.3216 58.0176 -43.0951 -0.485 -0.777 -0.402 79 69 77
347.4815 48.9898 -37.7227 -0.627 0.130 0.768 102 92 100
350.6070 47.1413 -38.2747 -0.349 -0.621 0.702 115 105 116
354.7422 46.4584 -38.8998 -0.519 -0.586 0.622 108 98 109
355.7104 44.8986 -39.1298 0.042 -0.999 -0.021 85 77 88
380.6416 46.0089 -42.5861 0.046 -0.998 -0.045 84 74 85
369.8925 41.6292 -41.3290 -0.924 0.153 -0.350 104 101 112
354.7256 34.0771 -39.6372 -0.761 0.258 0.595 88 86 99
362.9691 28.6459 -41.1264 -0.979 0.163 -0.126 85 81 95
359.2585 25.4081 -40.7956 -0.988 0.097 -0.117 90 86 100
358.1895 24.8703 -40.6767 -0.954 0.264 -0.141 93 89 103
358.0487 24.3557 -40.6875 -0.954 0.264 -0.141 88 84 98
353.2567 22.2594 -40.1357 -0.939 -0.086 -0.333 82 76 88
356.9278 21.8014 -40.6817 -0.745 -0.325 -0.583 58 52 64
360.4872 20.3142 -41.2735 -0.974 0.141 -0.179 66 60 74
351.7726 19.7745 -40.0744 -0.949 0.314 -0.036 71 67 81
347.6533 19.2759 -39.5222 -0.923 0.366 0.118 76 72 86
357.8750 18.7968 -40.9951 -0.996 -0.077 -0.034 78 74 88
354.3399 18.3031 -40.5251 -0.970 -0.208 -0.127 74 71 82
354.4514 17.8110 -40.5702 -0.970 -0.208 -0.127 68 65 76
350.9457 16.3706 -40.1610 -0.840 0.024 0.542 77 74 85
352.5816 14.9056 -40.4796 -0.996 0.052 0.075 85 82 93
351.4253 14.4414 -40.3440 -0.998 0.037 0.047 77 74 85
