ply
format ascii 1.0
element vertex 849
property float x
property float y
property float z
property float nx
property float ny
property float nz
property uchar diffuse_red
property uchar diffuse_green
property uchar diffuse_blue
end_header
-98.7058 195.0853 -33.0622 -0.241 -0.633 0.735 75 72 61
-81.1237 235.2871 -39.3668 -0.242 -0.960 -0.138 53 49 46
-81.7193 228.0014 -38.1813 -0.280 -0.949 -0.142 56 52 51
-77.1959 236.4660 -39.4952 0.158 -0.486 0.859 55 55 54
-74.0642 233.2511 -38.9158 -0.564 -0.593 0.575 48 43 50
-74.7310 226.7987 -37.8682 -0.328 -0.668 0.668 44 39 46
-74.5718 224.9262 -37.5584 -0.338 -0.663 0.668 45 40 47
-33.4340 216.9610 -35.5700 -0.302 -0.407 0.862 55 50 56
-34.0596 205.0388 -33.6243 0.835 -0.433 0.341 68 63 69
-32.8111 207.2068 -33.9593 0.835 -0.392 0.387 69 64 70
-30.1796 209.6658 -34.3192 -0.056 -0.770 0.635 63 58 64
-24.0507 217.5591 -35.5127 0.490 -0.191 0.850 58 54 51
-25.9909 207.6812 -33.9242 -0.389 -0.870 -0.304 62 58 57
-25.6484 207.5165 -33.8915 -0.389 -0.870 -0.304 61 57 58
-132.4379 170.0040 -29.9665 0.584 -0.024 0.811 60 44 44
-121.0176 174.8197 -30.5718 0.726 -0.565 0.393 52 37 40
-104.0387 219.9463 -37.7917 0.433 -0.779 -0.453 55 49 51
-98.6263 210.6660 -36.1538 -0.541 -0.640 0.546 77 84 53
-99.0496 196.1224 -33.7401 -0.257 -0.636 0.728 73 74 58
-98.6384 195.5690 -33.6410 -0.279 -0.637 0.718 73 70 61
-98.4194 193.1599 -33.2362 -0.513 -0.733 0.447 68 63 60
-87.2629 210.8627 -35.9912 0.969 -0.174 0.176 66 65 60
-34.0957 215.0375 -35.7720 -0.318 -0.384 0.867 59 54 60
-33.2661 214.9214 -35.7384 -0.307 -0.390 0.868 52 47 53
-30.7439 209.1850 -34.7401 0.499 -0.291 0.816 53 48 54
-30.3463 209.1287 -34.7239 -0.049 -0.771 0.635 50 45 51
-30.8468 206.7970 -34.3444 -0.135 -0.793 0.594 52 46 50
-30.2004 207.3822 -34.4307 -0.136 -0.804 0.579 60 54 58
-29.6133 207.8144 -34.4925 -0.130 -0.793 0.595 67 60 67
-29.2629 207.6517 -34.4594 0.132 -0.988 -0.077 63 56 63
-28.4350 208.6802 -34.6164 0.577 -0.679 -0.455 52 45 52
-26.4044 210.6047 -34.9018 0.527 -0.598 -0.604 54 48 50
-25.9058 210.8011 -34.9259 0.519 -0.599 -0.610 57 51 53
-25.1844 211.5391 -35.0364 0.519 -0.599 -0.610 61 55 57
-25.8187 207.9872 -34.4560 0.016 -0.998 0.064 65 59 63
-25.4041 207.9940 -34.4501 0.016 -0.998 0.064 65 59 63
-24.6076 208.9151 -34.5897 -0.007 -0.999 0.031 65 58 65
-167.2843 220.2314 -39.5297 -0.202 -0.330 0.922 53 60 42
-124.4751 170.2035 -30.3194 0.128 -0.940 -0.315 43 33 32
-87.3922 209.7866 -36.3422 0.969 -0.174 0.176 78 74 71
-81.6250 231.6522 -39.9315 -0.008 -0.545 0.838 61 58 64
-81.8197 223.7193 -38.5954 -0.293 -0.923 -0.250 60 57 63
-80.3027 220.5945 -38.0408 -0.322 -0.947 0.023 54 53 58
-73.2458 228.9680 -39.3289 -0.485 -0.711 0.510 35 33 44
-72.9771 227.6933 -39.1089 -0.439 -0.717 0.542 29 27 38
-72.5086 227.4855 -39.0654 -0.453 -0.712 0.536 28 26 37
-69.4343 232.6978 -39.8908 -0.624 -0.440 0.646 28 28 36
-68.4463 230.0024 -39.4180 -0.608 -0.480 0.632 35 36 41
-34.5404 212.5298 -35.8635 -0.303 -0.435 0.848 61 56 62
-30.6895 208.1426 -35.0540 -0.163 -0.789 0.592 45 38 45
-30.6313 207.2318 -34.8992 0.106 -0.991 -0.084 51 45 49
-30.1483 207.4023 -34.9194 0.132 -0.990 -0.053 65 59 63
-29.7097 207.4611 -34.9215 0.132 -0.990 -0.053 72 65 72
-29.2713 207.5198 -34.9236 0.132 -0.990 -0.053 65 58 65
-25.1046 214.7303 -36.0669 0.584 -0.446 -0.679 50 44 48
-20.1020 221.6647 -37.1486 -0.243 -0.922 0.300 68 62 66
-18.8724 223.5686 -37.4482 -0.327 -0.917 0.231 70 63 70
-23.5082 211.4338 -35.4818 -0.387 -0.904 0.183 71 64 71
-254.7433 241.5879 -45.4041 -0.257 -0.950 0.175 60 82 56
-148.3914 163.6823 -30.1009 0.021 -0.051 0.998 79 57 66
-121.4406 174.3197 -31.4252 0.960 -0.216 0.181 62 48 48
-115.3198 98.4908 -18.3269 -0.019 -0.511 0.859 75 60 61
-105.6208 211.0020 -37.4150 0.193 -0.590 0.784 61 51 50
-98.6251 200.0699 -35.4139 -0.688 -0.725 0.033 69 67 58
-98.0077 192.3351 -34.0779 -0.312 -0.677 0.667 77 68 73
-80.8118 220.3811 -38.5634 -0.275 -0.934 -0.227 57 56 60
-79.3220 223.2863 -39.0334 -0.339 -0.924 0.176 54 53 60
-79.3284 220.2743 -38.5178 -0.254 -0.919 0.303 53 54 59
-78.7995 220.4467 -38.5375 -0.254 -0.922 0.292 56 57 59
-78.4141 219.7953 -38.4189 -0.259 -0.919 0.296 57 59 58
-75.7475 226.3174 -39.4865 -0.136 -0.695 0.706 55 56 62
-69.4187 215.9006 -37.5860 -0.426 -0.363 0.829 43 42 47
-63.7661 211.8356 -36.7855 0.008 -0.832 -0.555 50 41 53
-36.2787 201.0462 -34.4307 0.538 -0.156 0.829 57 50 57
-31.0395 207.1399 -35.3776 -0.126 -0.766 0.630 49 42 49
-30.7542 206.8092 -35.3157 0.600 -0.757 -0.261 52 46 50
-29.9006 207.9156 -35.4894 0.649 -0.614 -0.449 60 51 56
-26.8147 212.4872 -36.2153 0.642 -0.534 -0.551 59 52 59
-21.8170 216.3841 -36.7905 0.475 -0.660 0.582 69 63 67
-24.0812 209.9536 -35.7310 -0.436 -0.867 0.241 70 63 70
-174.2991 213.5447 -39.7102 -0.640 -0.609 0.468 64 70 53
-173.3609 212.0677 -39.4358 -0.640 -0.609 0.469 65 68 51
-145.0644 162.4165 -30.2744 -0.323 -0.852 -0.411 59 48 52
-104.2952 200.9299 -36.1840 0.805 -0.083 0.587 66 60 64
-103.5724 204.1534 -36.7300 0.809 -0.053 0.585 66 60 64
-102.2646 208.3238 -37.4292 0.785 -0.023 0.620 63 57 61
-98.3543 202.6352 -36.3668 -0.306 -0.771 0.559 67 59 64
-80.9294 219.4978 -38.9624 -0.212 -0.954 -0.213 61 61 68
-80.1454 218.2231 -38.7261 -0.259 -0.965 -0.040 58 59 64
-80.0814 215.6871 -38.2845 -0.046 -0.975 0.219 59 60 64
-79.6141 212.7523 -37.7660 -0.166 -0.871 0.462 57 61 60
-68.2660 216.6560 -38.2273 -0.489 -0.373 0.789 45 45 48
-36.9383 205.8005 -35.7446 -0.462 -0.835 0.300 56 51 55
-25.1020 209.3849 -36.1412 0.463 -0.886 0.023 70 64 68
-22.6441 214.2864 -36.9454 0.557 -0.230 0.798 70 64 68
-21.7674 214.3598 -36.9414 0.558 -0.193 0.807 69 63 67
-179.1167 215.9045 -40.8136 0.497 -0.240 0.834 59 69 45
-147.9467 160.7607 -30.4918 0.962 -0.271 0.020 91 76 79
-145.2031 163.4166 -30.9052 -0.215 -0.924 -0.315 68 58 58
-144.5361 161.7913 -30.6060 -0.101 -0.940 -0.327 57 47 47
-145.0125 168.7538 -31.8410 0.862 -0.475 0.175 52 42 43
-148.2982 197.6333 -36.9897 0.668 -0.535 0.517 49 37 38
-124.8594 168.9391 -31.4764 0.274 -0.455 0.847 48 43 40
-124.4282 169.1470 -31.5045 0.274 -0.455 0.847 41 36 33
-123.9957 169.3112 -31.5249 0.371 -0.497 0.784 32 28 25
-108.0282 213.1566 -38.9287 0.115 -0.052 0.992 64 50 53
-105.0959 196.1516 -35.8774 -0.651 -0.530 0.544 58 52 56
-104.5063 197.7527 -36.1476 0.789 -0.090 0.608 61 55 59
-103.7776 201.1437 -36.7302 0.802 -0.059 0.594 64 58 62
-82.1885 224.1097 -40.3476 -0.065 -0.775 0.628 69 72 77
-80.9802 219.0224 -39.4282 -0.230 -0.952 -0.201 67 68 73
-80.6024 212.4680 -38.2669 -0.055 -0.945 -0.323 61 65 66
-80.8766 208.0745 -37.4989 -0.260 -0.934 0.247 57 62 60
-69.6033 223.9579 -40.0728 -0.561 -0.486 0.670 56 60 60
-67.3072 223.1178 -39.8797 -0.525 -0.465 0.712 44 44 46
-51.0551 205.6150 -36.4782 -0.405 -0.811 -0.423 57 53 54
-50.1131 204.4630 -36.2568 -0.428 -0.795 -0.430 53 53 55
-49.2309 205.8984 -36.4921 -0.422 -0.813 -0.402 52 52 54
-45.4292 205.6587 -36.3750 0.829 -0.325 0.455 54 52 57
-46.0595 198.7576 -35.1726 -0.704 -0.658 0.268 60 54 58
-37.2838 204.7518 -36.0548 -0.539 -0.824 0.175 56 51 55
-32.5652 203.0381 -35.6601 0.313 -0.229 0.922 60 54 58
-32.1012 203.1786 -35.6757 0.312 -0.228 0.922 61 55 59
-24.9164 210.7270 -36.8629 0.268 -0.716 0.645 62 56 60
-23.4034 210.3584 -36.7682 0.558 -0.193 0.807 58 52 56
-170.0200 192.6857 -37.0877 0.699 -0.590 0.404 69 80 58
-173.5787 210.3420 -40.3106 -0.458 -0.566 0.686 79 83 66
-172.4542 210.5922 -40.3324 0.207 -0.919 -0.336 80 83 68
-159.0002 197.3793 -37.7011 0.614 -0.695 0.374 73 57 60
-124.8486 168.8033 -31.9074 0.826 -0.305 0.474 48 43 40
-124.4078 168.5814 -31.8588 0.965 -0.204 0.163 41 36 33
-122.7312 172.9682 -32.6075 0.785 -0.618 -0.047 43 39 36
-122.2660 170.9686 -32.2412 0.733 -0.680 0.005 47 42 39
-121.7874 166.3925 -31.4149 0.818 -0.566 0.100 55 47 45
-105.5661 195.9775 -36.3641 -0.652 -0.531 0.541 53 47 49
-102.6575 202.8514 -37.5315 0.872 -0.115 0.477 74 68 72
-89.1122 203.7022 -37.4078 0.960 -0.224 0.170 70 69 65
-87.5827 204.4676 -37.5133 0.910 -0.210 0.357 67 65 49
-80.6157 209.4323 -38.2575 -0.350 -0.922 0.163 63 70 64
-70.0183 219.4562 -39.8306 -0.574 -0.483 0.661 66 71 66
-69.8045 213.6781 -38.7952 -0.611 -0.491 0.621 57 55 56
-50.0068 204.6835 -36.7875 -0.455 -0.857 -0.241 52 52 54
-45.6444 204.8924 -36.7361 0.814 -0.346 0.467 60 59 64
-45.5380 202.6658 -36.3366 -0.732 -0.651 0.199 57 55 60
-45.1019 202.7077 -36.3352 -0.647 -0.727 0.232 58 54 60
-44.8836 202.1089 -36.2239 -0.736 -0.642 0.213 61 56 62
-44.7841 201.1698 -36.0543 -0.741 -0.643 0.196 62 57 63
-24.5619 209.4646 -37.1231 0.342 -0.670 0.659 59 53 57
-171.5548 189.9572 -37.1677 0.487 -0.369 0.792 66 78 54
-162.1351 199.4753 -38.6915 -0.295 -0.349 0.890 69 53 56
-159.8758 199.1711 -38.5891 0.803 -0.386 0.454 80 61 67
-147.3912 190.6224 -36.7813 0.864 -0.480 0.152 65 55 53
-148.5190 203.5174 -39.1369 0.013 -0.581 0.814 58 47 45
-146.7903 198.2820 -38.1539 -0.163 -0.684 0.711 57 41 41
-138.5954 173.2383 -33.4531 -0.115 -0.497 0.860 83 61 64
-137.6224 172.7127 -33.3376 0.024 -0.489 0.872 73 54 56
-122.7318 173.6405 -33.1932 0.831 -0.554 -0.049 45 41 38
-121.7783 166.3289 -31.8509 0.818 -0.566 0.100 58 50 48
-105.6251 194.8611 -36.6720 -0.685 -0.562 0.463 58 53 55
-104.1449 195.7242 -36.7970 0.902 -0.183 0.392 59 53 57
-103.5019 197.9511 -37.1862 0.872 -0.130 0.471 68 63 67
-102.7705 201.1850 -37.7557 0.751 -0.164 0.640 78 72 76
-102.1498 202.8803 -38.0493 0.751 -0.164 0.640 80 75 79
-97.7155 203.6113 -38.0885 -0.677 -0.688 0.260 47 37 45
-89.8339 195.0685 -36.3783 0.943 -0.178 0.283 67 68 55
-88.8398 198.8341 -37.0385 0.942 -0.187 0.277 67 68 51
-87.7342 203.2612 -37.8159 0.910 -0.210 0.358 68 70 49
-80.0243 218.4536 -40.4016 0.239 -0.394 0.887 76 79 72
-80.3205 213.8045 -39.5670 -0.044 -0.978 -0.206 74 80 70
-80.5711 209.5356 -38.8003 -0.272 -0.937 0.217 75 81 69
-69.8176 217.9548 -40.0973 -0.626 -0.468 0.624 65 69 62
-67.6890 216.6682 -39.8200 -0.569 -0.474 0.672 62 57 63
-50.5616 205.5649 -37.4529 -0.417 -0.803 -0.425 73 71 72
-50.2216 205.2617 -37.3910 -0.453 -0.857 -0.246 65 63 64
-47.4451 205.8342 -37.4363 -0.418 -0.821 -0.390 61 65 68
-45.7091 204.5805 -37.1731 0.788 -0.380 0.484 60 63 66
-45.1769 202.3702 -36.7623 -0.737 -0.645 0.202 61 60 66
-44.3460 201.1153 -36.5179 -0.755 -0.605 0.253 60 58 63
-171.0272 189.9686 -37.6946 0.704 -0.275 0.655 77 83 61
-169.3797 189.8676 -37.6405 0.446 -0.153 0.882 81 90 69
-169.0961 195.7281 -38.7083 -0.400 -0.610 0.684 85 87 73
-125.9917 163.9895 -31.9612 0.032 -0.850 0.526 62 51 53
-122.7240 173.6945 -33.6690 0.831 -0.554 -0.049 49 45 42
-121.7693 166.2654 -32.2870 0.818 -0.566 0.100 59 51 49
-111.7962 195.1157 -37.3583 -0.597 -0.798 0.084 64 49 49
-104.1553 195.3548 -37.2370 0.903 -0.184 0.389 41 35 39
-102.2721 201.1431 -38.2570 0.748 -0.172 0.641 70 65 69
-98.3115 202.2694 -38.3778 -0.439 -0.602 0.667 45 36 41
-90.4936 193.4375 -36.5905 0.837 -0.360 0.413 56 56 46
-48.9454 199.7634 -36.8522 0.478 -0.275 0.834 62 68 68
-45.5554 202.3829 -37.2590 -0.618 -0.723 -0.308 77 78 83
-44.0290 201.9239 -37.1419 -0.739 -0.643 0.204 64 63 69
-39.6965 196.8003 -36.1094 -0.043 -0.859 0.510 52 47 51
-40.8593 192.6100 -35.3667 -0.015 -0.837 0.547 49 44 48
-143.5789 161.2181 -32.2831 -0.234 -0.198 0.952 77 67 66
-125.9625 163.2839 -32.2749 0.042 -0.819 0.573 56 45 47
-122.7163 173.7487 -34.1455 0.831 -0.554 -0.049 54 50 47
-112.7028 196.3618 -38.1210 -0.627 -0.769 -0.127 71 53 53
-110.3668 194.5555 -37.7338 0.866 -0.010 0.500 60 61 56
-106.5939 201.7384 -38.9834 -0.164 -0.499 0.851 60 64 60
-95.8241 186.6223 -35.9376 -0.427 -0.706 0.565 47 45 45
-93.0429 191.0779 -36.7030 -0.047 -0.587 0.808 53 52 50
-39.1932 199.1409 -37.0026 -0.185 -0.696 0.694 57 52 56
-39.4405 197.3800 -36.6811 0.195 -0.580 0.791 56 51 55
-38.8716 195.6809 -36.3530 -0.133 -0.773 0.620 48 43 47
-167.1337 189.3692 -38.5660 0.835 -0.411 0.365 87 88 74
-125.9405 162.8004 -32.6275 -0.012 -0.827 0.561 51 40 41
-123.1475 173.3575 -34.5490 0.986 -0.129 0.106 62 58 55
-112.5463 187.0336 -36.8785 0.706 0.006 0.708 73 57 57
-105.2550 192.6852 -37.7746 -0.613 -0.637 0.467 50 48 51
-101.2712 201.1200 -39.2698 0.293 -0.122 0.948 42 37 41
-99.1738 188.5306 -36.8542 -0.425 -0.633 0.647 32 26 30
-94.4736 183.1624 -35.7372 -0.482 -0.714 0.508 47 48 40
-171.8778 186.7111 -38.7045 0.259 -0.648 0.716 57 67 43
-171.0778 185.6489 -38.4834 0.350 -0.283 0.893 60 69 46
-166.4599 188.7057 -38.9571 0.809 -0.331 0.486 77 75 62
-115.6941 171.2226 -34.4341 0.563 -0.542 0.624 51 42 43
-114.8311 171.2558 -34.4202 0.269 -0.464 0.844 64 54 55
-106.7962 190.3169 -37.8619 0.407 -0.118 0.906 57 52 53
-99.7689 196.4178 -38.8588 0.377 0.001 0.926 48 40 44
-99.2232 197.2021 -38.9954 0.380 -0.000 0.925 39 35 37
-98.8272 187.3315 -37.1060 -0.531 -0.575 0.622 35 29 31
-98.5514 185.6906 -36.7870 0.136 -0.181 0.974 37 33 34
-94.5471 182.4221 -36.0704 -0.469 -0.735 0.490 58 62 47
-75.0672 175.8205 -34.3552 -0.537 -0.592 0.601 63 65 63
-170.5530 185.6330 -38.9950 0.351 -0.291 0.890 65 71 51
-148.2893 159.9593 -33.5057 0.588 -0.574 0.570 96 74 86
-144.9509 158.3029 -33.1057 -0.417 -0.268 0.869 67 56 57
-142.5040 152.9098 -32.0064 -0.334 -0.871 0.361 78 68 67
-131.3268 153.5548 -31.8611 -0.268 -0.792 0.549 57 56 56
-125.8982 161.8893 -33.3376 -0.018 -0.346 0.938 50 46 39
-114.8113 171.5494 -34.9333 -0.138 -0.366 0.920 66 57 58
-102.0004 192.1694 -38.6014 0.318 -0.011 0.948 47 42 48
-101.5521 191.9989 -38.5577 0.317 -0.007 0.948 53 48 52
-100.0624 193.1070 -38.7355 0.377 0.001 0.926 43 41 40
-98.4235 195.5985 -39.1765 0.331 -0.030 0.943 36 35 32
-97.8103 180.2376 -36.1988 0.363 -0.222 0.905 41 43 39
-97.0239 179.5899 -36.0549 -0.434 -0.676 0.596 59 65 54
-59.7591 206.7198 -40.3885 -0.556 -0.703 0.444 51 45 54
-36.4189 197.5851 -38.0633 -0.236 -0.877 0.418 56 51 56
-165.8493 185.8735 -39.4529 0.807 -0.276 0.522 73 75 62
-150.3155 164.1105 -34.8180 -0.705 -0.695 0.141 77 61 64
-141.6034 155.8842 -32.9956 0.806 -0.259 0.532 68 55 55
-135.5753 154.9507 -32.6640 0.387 -0.271 0.881 62 59 54
-125.8835 161.6337 -33.7291 -0.030 -0.347 0.937 49 46 37
-125.4326 160.6530 -33.5264 0.317 -0.482 0.817 55 52 43
-112.1655 172.8492 -35.5797 0.630 -0.312 0.712 65 59 59
-110.3481 183.7753 -37.6685 0.745 -0.289 0.601 68 62 64
-69.2807 196.8610 -39.2070 -0.580 -0.454 0.677 64 72 55
-59.8870 193.5128 -38.3205 0.438 -0.429 0.790 51 50 53
-45.3872 193.8907 -38.0351 -0.542 -0.713 -0.445 53 57 58
-35.0700 203.1146 -39.5810 -0.498 -0.806 0.321 59 57 61
-35.5802 199.6519 -38.9174 -0.407 -0.868 0.285 60 55 59
-172.0027 184.9357 -39.9493 0.292 -0.468 0.834 66 72 46
-136.8502 150.8459 -32.3164 0.480 -0.104 0.871 52 47 43
-110.3704 183.0182 -38.0046 0.745 -0.289 0.601 74 68 70
-109.9210 182.9575 -37.9812 0.667 -0.221 0.712 67 61 65
-103.5288 184.3638 -38.0969 0.322 -0.008 0.947 62 55 62
-98.0824 177.4682 -36.5952 0.301 -0.198 0.933 50 52 47
-97.6306 177.7006 -36.6296 0.374 -0.214 0.903 57 60 52
-70.4603 191.7140 -38.7101 -0.363 -0.827 0.430 65 79 51
-71.1135 187.1610 -37.8265 -0.356 -0.803 0.477 65 76 49
-68.3633 195.1140 -39.3290 -0.304 -0.883 0.359 64 73 48
-66.8510 190.8869 -38.4549 -0.352 -0.337 0.873 62 65 59
-67.0727 188.3709 -37.9631 -0.300 -0.336 0.893 59 61 60
-59.8858 193.3987 -38.7746 0.481 -0.427 0.766 53 56 51
-59.7806 176.2187 -35.3752 0.930 -0.361 -0.067 46 48 48
-35.8255 198.9072 -39.2525 -0.370 -0.871 0.323 61 56 60
-35.8616 197.7713 -39.0288 0.228 -0.316 0.921 60 55 59
-32.3382 191.8519 -37.7690 0.010 -0.662 0.750 53 48 52
-32.0169 191.7001 -37.7308 -0.143 -0.739 0.659 53 48 52
-154.4559 169.1065 -36.8521 -0.681 -0.580 0.446 84 70 70
-150.6844 160.8231 -35.0961 -0.810 -0.587 0.021 82 63 65
-148.1480 161.8711 -35.2398 -0.667 -0.731 0.145 75 54 64
-142.7367 151.4465 -33.0127 -0.318 -0.246 0.916 77 68 69
-141.0128 151.0530 -32.8890 -0.549 -0.835 -0.030 60 52 50
-140.6694 151.6639 -33.0023 0.635 -0.697 0.334 61 52 53
-139.4489 151.9384 -33.0255 0.567 -0.746 0.349 63 55 53
-113.5223 170.4108 -36.0473 0.797 -0.324 0.510 49 43 43
-112.6041 172.0292 -36.3473 0.764 -0.253 0.593 64 58 58
-103.7112 181.9191 -38.0951 0.556 -0.684 0.473 71 64 71
-102.7127 183.2502 -38.3355 0.396 -0.463 0.793 61 56 62
-97.7458 176.5266 -36.8605 0.374 -0.214 0.903 60 63 55
-68.4833 189.2729 -38.6495 -0.611 -0.428 0.666 70 82 54
-60.7777 190.1289 -38.6202 -0.155 -0.965 0.212 61 70 57
-58.9770 181.2448 -36.7954 -0.527 -0.722 -0.449 47 52 46
-59.4426 178.4540 -36.2490 -0.329 -0.864 -0.381 46 51 45
-36.1204 198.0347 -39.5604 -0.422 -0.821 0.384 62 57 61
-35.2995 197.0482 -39.3416 0.184 -0.296 0.937 56 51 57
-34.7979 197.3073 -39.3804 0.185 -0.301 0.936 56 51 57
-33.9108 198.5400 -39.6040 0.203 -0.290 0.935 55 50 56
-33.0060 191.0654 -38.0845 -0.058 -0.693 0.719 52 47 53
-32.6297 191.0476 -38.0712 -0.058 -0.693 0.719 53 46 53
-32.1121 191.3697 -38.1222 -0.143 -0.739 0.659 53 46 53
-32.2677 190.0834 -37.8688 -0.139 -0.727 0.672 57 52 58
-149.0653 159.1492 -35.1700 0.728 -0.644 -0.236 68 48 59
-141.6923 149.8265 -33.0850 0.068 -0.264 0.962 62 50 50
-141.0153 151.0701 -33.3189 -0.549 -0.835 -0.030 70 62 60
-138.6850 152.5856 -33.5637 0.324 -0.819 0.474 53 48 44
-128.5427 155.5382 -33.8912 0.784 -0.615 -0.078 46 47 39
-113.5336 169.7384 -36.3672 0.789 -0.238 0.566 56 50 50
-105.2401 185.0774 -39.2529 0.425 -0.077 0.902 53 48 52
-103.8207 180.3721 -38.2620 -0.162 -0.296 0.941 61 54 61
-103.3073 181.2589 -38.4279 0.547 -0.690 0.473 64 59 65
-102.8194 181.8105 -38.5266 0.374 -0.456 0.808 68 63 69
-98.7316 179.0136 -37.8511 0.166 -0.111 0.980 61 61 56
-66.8715 188.9185 -39.0075 -0.185 -0.213 0.959 67 80 61
-62.3818 181.5582 -37.3969 0.122 -0.981 0.150 57 70 53
-61.9856 181.5646 -37.3876 0.350 -0.621 0.701 53 64 50
-61.9115 180.4656 -37.1631 -0.162 -0.867 0.472 50 61 49
-36.2214 197.6649 -39.9616 -0.434 -0.828 0.354 65 60 64
-36.6500 195.5239 -39.5394 -0.412 -0.862 0.297 63 58 64
-34.5176 198.9368 -40.1738 0.136 -0.270 0.953 58 53 60
-34.1073 196.9275 -39.7558 0.211 -0.291 0.933 58 53 59
-33.7051 196.9372 -39.7471 0.213 -0.291 0.933 58 53 59
-35.0466 192.5995 -38.9042 -0.520 -0.738 0.430 58 51 58
-32.6959 190.7863 -38.4743 -0.032 -0.978 0.208 48 41 49
-32.1584 191.1565 -38.5349 -0.168 -0.846 0.506 50 43 51
-32.1781 190.1958 -38.3408 -0.193 -0.875 0.444 57 52 59
-144.9847 152.3963 -34.1259 -0.711 -0.699 0.070 59 42 48
-141.0800 151.5952 -33.8550 -0.489 -0.863 0.130 65 55 54
-132.0183 151.9385 -33.6779 0.311 -0.904 0.292 58 59 51
-131.1985 151.8708 -33.6417 0.849 -0.523 -0.078 56 56 47
-130.4764 153.3926 -33.9339 0.731 -0.682 0.023 59 59 51
-128.1134 155.2724 -34.2546 0.663 -0.720 -0.206 49 50 44
-106.3937 181.2082 -38.9777 0.533 -0.183 0.826 60 55 59
-105.4462 182.0247 -39.1192 0.429 -0.068 0.901 62 57 61
-102.8507 181.2493 -38.8894 0.373 -0.456 0.808 79 74 80
-61.9430 184.3686 -38.4116 0.209 -0.818 0.536 64 80 56
-62.5724 180.7833 -37.6939 0.047 -0.997 0.064 60 75 54
-58.7433 179.2626 -37.2776 0.920 -0.389 -0.035 51 63 47
-51.7800 186.4004 -38.5505 0.695 -0.303 0.653 55 73 51
-43.2545 190.5065 -39.1593 0.693 -0.495 -0.524 52 50 52
-36.6065 195.5291 -40.0073 -0.412 -0.873 0.262 67 63 66
-35.4166 195.5220 -39.9733 -0.474 -0.825 0.308 61 59 66
-34.9828 194.6185 -39.7763 0.212 -0.291 0.933 60 58 63
-39.0451 180.6967 -37.0336 -0.404 -0.856 0.323 55 51 56
-33.2346 190.3086 -38.8451 -0.190 -0.915 0.356 44 39 46
-32.6920 190.6936 -38.9092 -0.032 -0.978 0.208 41 36 43
-32.1263 190.2179 -38.7962 -0.220 -0.890 0.398 52 49 56
-175.9318 168.8581 -38.8378 -0.318 -0.855 0.410 59 79 42
-149.2985 160.5452 -36.3694 0.849 -0.500 -0.169 70 50 61
-136.8873 151.2806 -34.1010 0.323 -0.562 0.762 55 50 46
-132.0265 152.1076 -34.1367 0.153 -0.907 -0.392 50 51 46
-130.4930 153.7404 -34.4325 0.710 -0.691 0.135 51 50 45
-130.1047 154.1255 -34.5015 0.710 -0.691 0.135 47 46 41
-128.1139 155.4021 -34.7106 0.663 -0.720 -0.206 41 42 36
-106.1052 178.7817 -38.9445 0.415 -0.066 0.907 64 59 63
-62.2663 181.7378 -38.3325 0.026 -0.998 -0.059 60 79 51
-61.2950 183.7292 -38.7184 0.782 -0.188 0.595 60 78 52
-59.9959 186.8205 -39.3232 0.755 -0.193 0.627 59 77 52
-40.1414 205.8578 -42.7167 -0.785 -0.599 -0.155 42 50 37
-44.0232 189.3718 -39.4059 0.645 -0.574 -0.504 48 50 45
-42.9415 189.1182 -39.3231 0.615 -0.485 -0.622 58 58 54
-38.8614 191.6340 -39.7309 0.049 -0.621 0.782 65 64 61
-36.5532 196.5906 -40.6944 -0.583 -0.728 0.360 65 66 62
-36.6816 195.2291 -40.4156 -0.424 -0.863 0.276 69 69 67
-37.3400 190.5343 -39.4603 0.366 -0.216 0.905 69 70 73
-38.2728 187.1988 -38.7946 -0.109 -0.584 0.804 64 65 67
-38.1269 186.6075 -38.6678 -0.137 -0.575 0.807 62 64 63
-34.3029 187.6274 -38.7725 -0.253 -0.349 0.902 38 37 41
-33.2127 187.5277 -38.7214 -0.121 -0.949 0.291 42 44 48
-176.7059 169.7124 -39.5321 -0.403 -0.853 0.331 69 86 49
-158.3451 169.3046 -38.9217 -0.135 -0.456 0.880 70 62 49
-142.1977 150.4977 -34.5139 0.051 -0.767 -0.639 57 47 46
-132.0345 152.2743 -34.5962 -0.051 -0.891 -0.450 57 56 54
-131.6070 152.0002 -34.5265 0.401 -0.800 0.446 57 56 54
-59.5817 177.5738 -37.8338 -0.531 -0.739 -0.415 58 74 49
-58.7103 179.1553 -38.1407 -0.533 -0.754 -0.385 61 77 52
-50.9836 187.3895 -39.6476 0.572 -0.394 0.720 57 76 44
-50.6559 187.1877 -39.5959 0.573 -0.388 0.722 59 75 44
-45.4540 187.4767 -39.5078 0.708 -0.517 -0.482 52 63 48
-43.0219 186.7097 -39.2774 0.663 -0.470 -0.582 63 66 51
-36.8795 195.6396 -40.9755 -0.508 -0.780 0.365 68 73 62
-36.0094 195.8256 -40.9897 0.224 -0.336 0.915 78 83 78
-37.7274 189.4476 -39.7005 0.344 -0.269 0.899 80 85 82
-38.0840 187.5733 -39.3174 -0.109 -0.582 0.806 73 78 75
-37.9367 186.9839 -39.1896 -0.132 -0.586 0.800 69 76 72
-145.8678 158.4604 -36.7386 -0.758 -0.605 0.241 54 34 40
-141.6164 152.5219 -35.3538 -0.068 -0.857 -0.511 49 41 39
-134.1471 143.4055 -33.2005 0.090 -0.637 0.766 53 54 49
-131.5963 151.8949 -34.9279 0.581 -0.750 0.316 60 62 57
-131.1763 151.7081 -34.8760 0.545 -0.760 0.356 56 58 53
-122.3621 153.6080 -35.0217 0.426 -0.147 0.893 57 54 49
-109.6843 169.3148 -37.9851 0.293 -0.762 0.578 73 58 68
-41.1237 189.5927 -40.2858 0.280 -0.712 -0.644 61 67 40
-39.1480 191.6984 -40.6750 0.813 -0.555 -0.178 62 67 42
-38.1641 193.2339 -40.9721 0.813 -0.555 -0.178 68 74 50
-41.0499 184.7565 -39.2571 -0.328 -0.761 0.560 76 83 63
-40.2028 184.9864 -39.2811 -0.546 -0.756 0.362 76 85 69
-39.0611 186.9305 -39.6604 0.347 -0.274 0.897 79 89 76
-38.4359 187.5479 -39.7732 0.354 -0.274 0.894 82 93 82
-38.2646 187.0152 -39.6551 -0.116 -0.589 0.800 78 89 79
-38.2932 185.9866 -39.4376 -0.139 -0.572 0.808 78 90 80
-37.5028 182.3801 -38.6490 0.658 -0.749 0.081 47 60 46
-35.2797 185.0702 -39.1551 -0.254 -0.357 0.899 40 53 42
-132.6801 150.0088 -34.9796 0.313 -0.908 0.277 52 53 48
-132.3722 151.3654 -35.2617 -0.224 -0.974 0.024 55 56 51
-131.9312 150.8862 -35.1456 -0.217 -0.975 0.047 56 58 53
-131.5307 150.9697 -35.1516 0.497 -0.862 0.097 55 57 52
-131.1349 151.1254 -35.1732 0.313 -0.950 -0.015 55 57 52
-130.7373 151.2569 -35.1895 0.313 -0.950 -0.015 52 54 49
-130.3286 151.2045 -35.1661 0.284 -0.935 0.211 50 51 46
-129.9872 152.3104 -35.3933 0.745 -0.442 0.500 52 53 48
-129.5748 152.2145 -35.3604 0.733 -0.447 0.513 51 52 47
-111.8189 168.5771 -38.3431 0.672 -0.267 0.691 67 54 61
-101.8674 176.8853 -39.8296 0.108 -0.161 0.981 60 62 56
-40.7428 190.4957 -40.9264 0.266 -0.716 -0.645 64 74 41
-40.9192 188.9997 -40.6105 0.271 -0.725 -0.634 64 74 42
-38.7590 191.5838 -41.1007 0.831 -0.535 -0.153 72 81 52
-40.2674 185.6925 -39.8810 -0.513 -0.792 0.330 77 87 64
-39.4663 186.7689 -40.0882 -0.524 -0.788 0.324 80 91 71
-38.6798 186.8275 -40.0773 -0.475 -0.763 0.438 82 95 80
-39.3009 184.2995 -39.5531 -0.387 -0.782 0.490 83 97 82
-178.7536 172.9486 -41.7863 -0.503 -0.844 -0.189 73 83 48
-176.5561 167.3793 -40.5101 -0.146 -0.859 0.491 69 81 45
-175.0106 165.5420 -40.0640 -0.236 -0.897 0.373 61 75 40
-173.4046 165.1107 -39.9214 -0.748 -0.564 0.351 62 74 42
-145.4623 155.6259 -37.0098 -0.688 -0.656 0.309 55 42 46
-144.8204 154.1634 -36.6727 -0.679 -0.670 0.300 50 39 43
-142.1049 153.0303 -36.3438 -0.108 -0.809 -0.577 47 43 40
-132.7049 150.3869 -35.4832 0.324 -0.896 0.302 54 55 50
-132.3326 150.8581 -35.5741 -0.139 -0.990 0.006 56 57 52
-131.5241 150.9273 -35.5645 0.497 -0.862 0.097 63 65 60
-131.1143 150.8658 -35.5387 0.482 -0.865 0.139 60 62 57
-130.7172 150.9986 -35.5554 0.284 -0.935 0.211 58 60 55
-130.3192 151.1165 -35.5688 0.284 -0.935 0.211 68 69 64
-123.9600 153.8274 -35.9635 0.150 -0.973 -0.176 45 41 38
-123.5195 151.9476 -35.5419 0.077 -0.986 0.151 43 39 36
-114.7011 171.3094 -39.4768 -0.002 -0.540 0.841 68 57 61
-112.3297 166.1845 -38.2917 0.802 -0.220 0.555 66 53 60
-111.8605 167.3471 -38.5299 0.799 -0.234 0.554 71 58 65
-111.3989 168.2445 -38.7106 0.796 -0.232 0.559 77 64 71
-100.2914 167.3373 -38.1749 0.007 -0.233 0.972 57 62 55
-40.2322 191.7406 -41.6416 0.173 -0.935 -0.309 68 81 45
-39.9670 191.4010 -41.5597 0.213 -0.925 -0.316 67 80 44
-40.3460 180.6325 -39.2332 -0.666 -0.661 0.347 75 92 74
-37.8891 179.4602 -38.9037 -0.179 -0.504 0.845 72 89 72
-36.5778 179.9887 -38.9785 -0.254 -0.361 0.897 70 86 73
-182.5332 176.6272 -43.2181 0.553 -0.535 0.638 71 83 47
-180.0344 173.6875 -42.4949 -0.374 -0.825 -0.424 70 80 46
-175.8962 165.1410 -40.4896 -0.309 -0.685 0.660 68 78 43
-175.3376 164.9284 -40.4255 -0.165 -0.802 0.574 64 76 40
-169.4753 159.6915 -39.0931 -0.772 -0.504 0.387 57 74 42
-143.0276 153.5763 -36.9269 0.421 -0.904 0.076 43 39 38
-142.6252 153.7616 -36.9550 0.421 -0.904 0.076 25 24 20
-131.5157 150.8565 -35.9713 0.522 -0.775 0.355 52 54 49
-131.1025 150.7436 -35.9336 0.270 -0.912 0.309 56 58 53
-130.7054 150.8731 -35.9497 0.257 -0.919 0.297 60 62 57
-122.3140 151.6509 -35.8591 -0.097 -0.956 -0.276 41 37 34
-121.8833 148.3854 -35.1288 0.221 -0.974 -0.045 45 41 38
-114.7276 169.9661 -39.6442 0.158 -0.401 0.903 68 59 62
-111.8557 167.1681 -38.9404 0.708 -0.272 0.652 72 61 67
-111.4215 167.4805 -38.9955 0.796 -0.232 0.559 78 65 72
-110.9274 169.0036 -39.3145 0.828 -0.245 0.505 68 52 62
-39.8410 179.9558 -39.5055 -0.363 -0.827 0.429 70 89 67
-39.8593 179.0023 -39.2968 -0.221 -0.834 0.505 73 92 70
-39.5239 178.9294 -39.2703 -0.221 -0.834 0.505 73 92 70
-38.2249 179.4320 -39.3402 -0.457 -0.623 0.635 70 89 68
-37.7867 179.6110 -39.3658 -0.456 -0.620 0.638 72 91 70
-181.3641 176.2185 -43.6085 -0.251 -0.877 -0.409 66 78 42
-158.0858 156.6953 -38.5346 0.531 -0.022 0.847 72 75 55
-153.9064 168.4272 -41.0062 -0.009 -0.339 0.941 77 71 56
-152.5362 163.3717 -39.8404 0.004 -0.330 0.944 75 69 54
-150.1560 160.1442 -39.0483 -0.209 -0.372 0.905 70 64 67
-130.6936 150.7488 -36.3440 0.257 -0.919 0.297 53 55 50
-129.0976 151.1381 -36.3797 0.364 -0.881 0.303 28 29 24
-121.8975 150.4850 -36.0059 -0.119 -0.949 -0.293 46 42 39
-113.8085 171.4371 -40.4001 0.415 -0.389 0.822 61 55 59
-112.9478 171.3625 -40.3562 -0.655 -0.719 -0.233 63 57 57
-112.6872 167.0908 -39.3996 -0.026 -0.572 0.820 63 57 59
-101.4844 167.2843 -39.0866 -0.095 -0.270 0.958 78 84 69
-101.1888 166.1838 -38.8328 0.090 -0.159 0.983 85 89 74
-100.8068 165.9636 -38.7718 -0.003 -0.241 0.971 87 91 77
-100.4842 165.1988 -38.5918 -0.173 -0.282 0.944 84 88 73
-37.8569 181.1218 -40.1363 -0.320 -0.611 0.724 67 87 60
-175.7202 158.1232 -39.8813 -0.735 -0.639 0.228 62 74 38
-177.3415 164.8949 -41.4536 -0.368 -0.877 -0.311 61 71 37
-170.7428 160.7263 -40.3041 -0.772 -0.503 0.389 69 79 50
-155.6585 158.0677 -39.2184 0.574 -0.019 0.818 82 79 73
-136.7935 150.4242 -36.8913 0.901 -0.402 -0.160 31 23 21
-123.5709 155.6558 -37.6367 -0.024 -0.969 -0.248 29 25 22
-121.5067 151.8070 -36.7060 0.384 -0.923 -0.004 53 49 46
-121.1106 151.8357 -36.6996 0.372 -0.928 0.007 61 57 54
-119.5069 158.5274 -38.1495 0.278 -0.160 0.947 56 52 49
-119.0925 159.4154 -38.3353 0.269 -0.164 0.949 56 52 49
-118.6782 159.8417 -38.4176 0.313 -0.156 0.937 56 51 48
-117.4916 156.7617 -37.6879 0.016 -0.955 0.295 58 54 51
-101.8647 163.3074 -38.6503 0.137 -0.141 0.980 65 72 53
-100.6112 163.8441 -38.7301 -0.022 -0.248 0.969 70 75 58
-172.1381 154.0909 -39.3176 -0.147 -0.945 -0.293 52 63 29
-174.3447 164.7546 -41.8099 -0.221 -0.949 -0.225 58 69 37
-171.8121 161.0629 -40.8886 -0.099 -0.856 0.508 74 83 52
-171.1616 160.4647 -40.7314 -0.778 -0.539 0.324 75 84 53
-169.8842 159.3123 -40.4277 -0.770 -0.503 0.391 72 81 50
-169.1268 158.2853 -40.1697 -0.774 -0.505 0.382 81 90 59
-162.1950 156.6451 -39.5683 -0.195 -0.322 0.927 88 87 72
-151.5132 157.5434 -39.4190 0.416 -0.082 0.905 79 75 63
-150.1912 157.6422 -39.3977 0.669 0.063 0.741 73 72 63
-149.6234 156.9102 -39.2128 0.398 -0.110 0.911 73 72 65
-143.4695 156.8898 -39.0048 0.683 -0.341 0.645 42 32 33
-123.5770 156.3358 -38.2214 0.107 -0.890 0.443 34 30 27
-122.7395 155.0505 -37.9021 -0.072 -0.960 -0.272 48 44 41
-122.3002 152.3744 -37.2804 -0.134 -0.966 -0.222 54 50 47
-121.4963 151.5005 -37.0555 0.218 -0.975 -0.041 51 47 44
-121.1025 151.8279 -37.1168 0.323 -0.946 0.022 51 47 44
-119.9096 157.0110 -38.2533 0.193 -0.520 0.832 67 63 60
-117.8810 157.0916 -38.2045 0.197 -0.877 0.438 54 50 47
-117.4625 158.0468 -38.4074 0.242 -0.908 0.343 52 49 46
-101.4192 163.5973 -39.1362 0.087 -0.162 0.983 66 75 51
-173.6777 164.1061 -42.1241 -0.296 -0.910 -0.291 69 80 50
-163.7687 155.5363 -39.8248 0.386 -0.480 0.787 86 88 68
-161.7532 154.7543 -39.5776 -0.187 -0.299 0.936 96 98 80
-161.2423 154.5122 -39.5048 -0.217 -0.329 0.919 80 83 68
-160.9922 155.3786 -39.6951 -0.186 -0.321 0.929 77 79 69
-148.5910 155.9818 -39.4154 -0.207 -0.457 0.865 77 79 67
-124.3836 156.0618 -38.6179 0.823 -0.536 -0.191 35 30 27
-123.9956 157.0647 -38.8348 0.594 -0.769 0.238 35 30 27
-122.7346 155.2336 -38.3724 -0.152 -0.964 -0.216 45 41 38
-122.2938 152.4758 -37.7251 -0.134 -0.966 -0.222 55 51 48
-121.8847 151.5023 -37.4881 -0.020 -0.996 -0.086 59 55 52
-121.4885 151.5200 -37.4788 0.218 -0.975 -0.041 61 57 54
-121.0942 151.8138 -37.5329 0.314 -0.949 0.018 59 55 52
-117.8722 157.0179 -38.6177 0.316 -0.215 0.924 55 52 48
-117.4595 157.5841 -38.7336 0.199 -0.733 0.651 50 49 45
-100.8488 161.2955 -39.0249 0.139 -0.121 0.983 60 72 47
-100.4369 161.4625 -39.0493 0.136 -0.122 0.983 61 74 49
-100.1216 160.7555 -38.8765 0.104 -0.139 0.985 61 75 46
-175.2026 162.5866 -42.3080 -0.277 -0.933 -0.231 67 76 45
-136.8359 150.9006 -38.2818 0.914 -0.402 0.057 50 35 35
-135.9652 150.4259 -38.1419 0.590 -0.712 0.381 48 37 35
-130.8798 147.5836 -37.3084 0.735 -0.538 0.414 67 66 61
-126.2669 151.3959 -38.0336 0.213 -0.901 0.379 32 31 25
-125.5099 152.8613 -38.3472 0.217 -0.759 0.614 32 28 25
-124.9829 148.6081 -37.3434 0.167 -0.772 0.613 34 27 24
-123.9074 153.3617 -38.4081 0.245 -0.653 0.716 43 36 34
-123.5098 153.6496 -38.4612 0.249 -0.646 0.721 46 39 37
-116.6625 156.4207 -38.8683 0.613 -0.210 0.762 51 54 48
-175.6581 164.0410 -43.1461 -0.318 -0.914 -0.252 79 88 57
-162.2957 144.3673 -38.0706 -0.293 -0.608 0.738 77 83 57
-137.7937 152.1671 -39.0401 0.258 -0.557 0.790 55 41 38
-126.6375 150.7243 -38.3118 0.200 -0.909 0.365 37 36 31
-125.4839 152.2331 -38.6249 0.199 -0.757 0.623 41 37 33
-124.9643 148.1816 -37.6577 0.005 -0.911 0.413 45 37 34
-123.8888 152.8294 -38.7087 0.167 -0.713 0.681 47 39 36
-122.6864 153.0185 -38.7109 -0.000 -0.772 0.635 54 46 43
-115.8201 157.6221 -39.5489 0.559 -0.307 0.770 57 63 50
-112.8050 162.6214 -40.6143 0.472 -0.535 0.701 64 63 59
-165.6812 153.9305 -40.8835 0.029 -0.961 0.276 76 81 59
-162.3837 146.3641 -38.9752 -0.229 -0.564 0.793 79 84 62
-146.8887 153.4375 -40.0971 -0.258 -0.915 0.310 58 57 48
-124.1905 148.9285 -38.2212 0.166 -0.866 0.471 50 43 36
-114.2616 155.7136 -39.4732 0.776 -0.103 0.622 75 75 64
-174.6777 154.4883 -41.7982 -0.584 -0.587 0.561 70 79 48
-173.9803 153.7588 -41.5984 -0.545 -0.677 0.495 70 80 46
-173.4047 153.4095 -41.4940 -0.480 -0.627 0.613 74 84 50
-156.2590 140.3041 -37.7382 -0.047 -0.726 0.686 89 89 78
-123.7708 148.0539 -38.4128 0.549 -0.703 0.452 50 46 34
-123.0555 151.9782 -39.3252 -0.023 -0.813 0.582 55 51 40
-122.6586 152.1571 -39.3536 0.021 -0.843 0.538 58 54 44
-116.6983 153.0701 -39.3557 0.743 -0.522 -0.420 63 70 54
-114.7551 152.3006 -39.1012 -0.011 -0.632 0.775 74 77 59
-114.3325 153.2648 -39.3164 0.690 -0.141 0.710 73 74 58
-112.8932 159.8323 -40.8346 0.754 -0.104 0.648 72 72 58
-92.4900 150.1535 -37.7800 -0.043 -0.458 0.888 58 70 34
-162.7885 144.4792 -39.4037 -0.100 -0.974 0.206 57 62 42
-162.3458 144.4393 -39.3777 -0.100 -0.974 0.206 62 66 49
-161.8160 145.7599 -39.6772 -0.554 -0.597 0.580 72 76 61
-159.9648 141.7765 -38.6465 -0.368 -0.670 0.644 76 80 67
-133.8566 144.9577 -38.4511 -0.274 -0.723 0.634 44 39 36
-130.7143 145.2464 -38.4048 0.563 -0.087 0.822 48 47 43
-123.8817 153.4791 -40.1413 0.324 -0.363 0.873 58 57 40
-122.2072 148.5874 -38.8978 0.302 -0.919 0.252 67 66 53
-121.4311 149.2653 -39.0329 0.203 -0.763 0.614 57 57 47
-119.4750 150.1178 -39.1666 -0.130 -0.705 0.698 71 71 61
-116.6956 152.7027 -39.6884 0.613 -0.619 -0.491 74 79 58
-115.9170 152.3607 -39.5771 0.262 -0.665 0.700 75 79 55
-92.5194 149.8542 -38.1077 0.162 -0.323 0.933 62 73 40
-92.1944 149.6508 -38.0465 0.019 -0.422 0.906 62 71 40
-89.6339 135.5981 -34.5572 -0.403 -0.769 0.496 51 66 35
-162.2740 144.1195 -39.7273 -0.031 -0.999 0.018 57 61 44
-162.1470 145.3127 -40.0137 -0.295 -0.774 0.561 64 68 53
-160.6485 144.5062 -39.7606 -0.314 -0.734 0.603 75 79 65
-154.3979 145.1777 -39.6896 0.794 -0.103 0.600 79 80 68
-146.7317 146.9703 -39.8390 0.662 0.006 0.749 64 69 49
-138.9480 147.5428 -39.6864 0.661 -0.506 0.555 59 47 47
-138.5816 147.9321 -39.7676 0.661 -0.506 0.555 60 53 50
-127.8032 150.3205 -39.9455 0.854 -0.433 0.290 78 77 72
-122.5867 148.2847 -39.2527 0.498 -0.687 0.529 64 66 47
-121.4178 148.5688 -39.2781 0.049 -0.910 0.412 64 64 52
-116.6781 153.0746 -40.1996 0.606 -0.626 -0.491 78 84 58
-106.5279 148.8286 -38.7822 -0.285 -0.912 -0.294 66 75 46
-106.1657 148.7011 -38.7374 -0.285 -0.912 -0.294 64 74 42
-105.7938 148.6987 -38.7229 -0.498 -0.866 0.045 67 74 41
-94.0925 148.8595 -38.3225 -0.014 -0.344 0.939 59 75 39
-91.0803 145.7220 -37.4437 0.863 -0.481 0.155 56 66 39
-190.9844 144.9382 -41.4560 0.124 -0.922 -0.367 60 80 43
-166.4751 153.2932 -42.5789 -0.154 -0.914 0.376 73 81 58
-165.9116 152.8952 -42.4592 -0.112 -0.820 0.561 69 77 53
-165.4441 152.8521 -42.4308 -0.106 -0.814 0.571 66 71 49
-162.7179 144.1254 -40.1755 -0.031 -0.999 0.018 61 66 46
-162.2826 144.1121 -40.1556 -0.031 -0.999 0.018 57 62 42
-138.1406 147.6485 -40.1047 0.641 -0.503 0.580 62 60 55
-126.9447 149.0943 -40.0333 -0.684 -0.610 0.400 58 57 52
-126.5169 148.3169 -39.8253 -0.718 -0.600 0.353 59 58 54
-106.5733 143.6230 -37.9061 0.310 -0.837 0.451 60 71 37
-105.4301 144.3094 -38.0316 -0.451 -0.886 0.108 60 72 34
-94.1401 148.4304 -38.6160 -0.009 -0.343 0.939 76 91 58
-191.1151 145.1844 -41.9732 0.138 -0.928 -0.347 60 80 43
-166.4401 153.1182 -42.9894 -0.154 -0.914 0.376 74 82 59
-162.7119 144.0609 -40.5897 -0.036 -0.999 -0.021 71 76 54
-162.2913 144.1047 -40.5843 -0.031 -0.999 0.018 64 69 47
-139.1944 146.1249 -40.1896 0.711 -0.401 0.577 64 54 53
-138.0474 146.7893 -40.3105 0.626 -0.500 0.598 71 71 65
-126.9010 148.1502 -40.2161 -0.614 -0.640 0.462 65 65 58
-126.4928 147.8332 -40.1213 -0.615 -0.641 0.460 66 65 59
-122.6541 153.9201 -41.4875 -0.203 -0.638 0.743 64 74 47
-121.4046 148.9128 -40.1924 -0.443 -0.682 0.583 69 71 58
-121.0140 149.0199 -40.2038 0.083 -0.819 0.568 69 69 58
-120.6230 149.0102 -40.1862 0.061 -0.813 0.579 68 68 57
-111.0455 141.5130 -37.9476 -0.249 -0.958 -0.140 57 78 34
-110.8590 138.5264 -37.1968 -0.215 -0.972 -0.089 59 81 35
-94.1479 150.6014 -39.5535 -0.118 -0.623 0.773 62 77 44
-216.9724 152.0873 -45.1821 0.167 -0.969 -0.180 62 74 49
-145.4605 138.9566 -39.0555 0.427 -0.040 0.903 71 76 57
-139.5240 145.4642 -40.4571 0.738 -0.431 0.520 65 64 55
-138.0091 146.4401 -40.6426 0.626 -0.500 0.598 81 83 71
-137.5997 146.4089 -40.6186 0.827 -0.328 0.457 71 74 61
-132.2715 145.1148 -40.0827 0.548 -0.446 0.708 59 53 53
-127.6915 148.1940 -40.6760 0.744 0.010 0.668 64 62 51
-121.3944 148.6007 -40.5294 -0.442 -0.685 0.579 74 79 60
-121.0017 148.1989 -40.4129 0.208 -0.843 0.496 70 72 56
-217.0555 152.1676 -45.6919 0.167 -0.969 -0.180 64 74 49
-137.9709 146.0920 -40.9737 0.626 -0.500 0.598 76 83 67
-137.5501 145.9459 -40.9197 0.827 -0.318 0.464 72 80 63
-133.0185 144.5611 -40.3861 0.336 -0.699 0.631 58 54 55
-126.0023 145.4803 -40.3377 -0.150 -0.571 0.807 79 82 59
-125.5888 144.7489 -40.1355 -0.141 -0.582 0.801 68 72 49
-125.1825 144.1254 -39.9609 -0.120 -0.506 0.854 68 77 51
-110.4802 138.5365 -37.9515 -0.282 -0.941 -0.188 60 81 40
-110.1991 137.3790 -37.6464 -0.350 -0.928 -0.126 63 83 43
-94.4173 146.2790 -39.2722 -0.014 -0.344 0.939 54 69 37
-192.0837 146.1539 -43.6180 0.305 -0.878 -0.368 58 80 41
-156.1862 143.4788 -41.4675 -0.312 -0.809 0.498 71 85 55
-141.5951 131.2831 -37.7457 -0.644 -0.699 0.311 72 78 50
-140.4790 146.6172 -41.6311 -0.586 -0.741 0.327 79 87 71
-132.5716 143.9274 -40.6189 0.314 -0.742 0.593 60 59 57
-125.5222 142.9245 -40.0742 0.630 -0.404 0.664 72 79 51
-125.1549 143.4299 -40.1887 0.550 -0.405 0.730 70 80 50
-124.7761 143.5977 -40.2163 -0.120 -0.506 0.854 66 80 47
-215.8464 150.8144 -46.2654 0.351 -0.482 0.803 63 76 46
-141.0313 147.7469 -42.3701 -0.584 -0.803 0.120 74 84 62
-139.6606 143.2122 -41.1396 0.648 -0.378 0.661 77 89 68
-139.2758 143.3517 -41.1598 0.669 -0.282 0.688 78 91 71
-138.9958 144.4044 -41.4206 0.711 -0.326 0.623 77 90 70
-126.9464 140.4189 -39.8896 0.422 -0.494 0.760 72 77 52
-113.7527 136.4451 -38.3142 0.058 -0.838 0.543 60 76 40
-113.4018 136.3780 -38.2823 -0.044 -0.845 0.533 56 71 38
-145.2041 132.4815 -38.9843 -0.099 -0.508 0.856 75 89 59
-127.2641 139.1572 -39.9733 0.472 -0.473 0.744 74 82 55
-126.8378 137.9924 -39.6510 0.446 -0.389 0.806 74 83 56
-115.8676 136.6959 -38.8504 0.832 -0.542 -0.122 48 69 30
-153.5328 133.1766 -39.9163 -0.423 -0.877 -0.229 72 86 51
-154.0014 151.4663 -44.7606 -0.618 -0.786 0.012 72 86 50
-145.1396 134.4273 -39.8874 -0.113 -0.486 0.867 64 83 53
-138.2699 125.6386 -37.2755 -0.342 -0.907 0.246 78 89 60
-132.2890 135.4076 -39.5965 0.494 -0.407 0.769 77 88 69
-114.8421 135.1063 -38.7712 0.847 -0.502 0.172 77 93 54
-53.9125 139.2000 -37.2461 0.240 -0.957 -0.161 54 75 44
-155.4186 126.1168 -38.5186 -0.483 -0.802 0.350 66 82 45
-154.9894 154.1678 -45.9684 -0.677 -0.720 0.154 68 82 46
-138.5699 125.1652 -37.5339 -0.440 -0.876 0.200 69 83 51
-136.9579 123.6317 -37.0557 -0.650 -0.752 0.107 68 81 53
-135.2911 124.5236 -37.2208 0.029 -0.905 0.424 60 77 55
-135.0089 125.2114 -37.3917 0.107 -0.932 0.346 67 83 61
-127.0718 135.0966 -39.6791 -0.486 -0.577 0.656 66 81 50
-114.4523 135.8593 -39.3344 -0.260 -0.695 0.671 78 94 55
-162.1773 130.9220 -40.4917 0.953 -0.215 -0.215 70 82 46
-154.5260 122.3986 -37.8642 -0.250 -0.870 0.425 64 80 43
-144.4111 127.6164 -38.8208 -0.014 -0.581 0.814 54 77 43
-138.2306 125.3155 -37.9302 -0.426 -0.904 -0.040 68 82 47
-136.6058 123.6406 -37.4085 -0.343 -0.833 0.434 48 62 35
-135.2958 124.5748 -37.6018 0.078 -0.927 0.368 52 64 44
-129.6697 135.3858 -40.2592 -0.577 -0.808 -0.116 61 78 41
-126.5298 131.1035 -38.9701 -0.377 -0.647 0.662 58 77 45
-126.1589 130.7727 -38.8649 -0.479 -0.773 0.416 59 76 43
-125.6928 127.8651 -38.0630 -0.473 -0.799 0.371 58 75 43
-125.2492 125.1902 -37.3246 -0.467 -0.816 0.340 58 75 43
-124.8845 124.5092 -37.1256 -0.469 -0.820 0.329 55 74 42
-119.1233 129.5677 -38.2311 0.869 0.026 0.494 60 82 46
-115.1574 135.6606 -39.6937 -0.243 -0.704 0.667 70 88 48
-114.4554 135.4957 -39.6185 -0.266 -0.700 0.663 73 89 50
-161.8105 129.5694 -40.5093 0.948 -0.224 -0.225 61 76 40
-153.7514 122.2410 -38.1615 -0.313 -0.897 0.312 59 75 39
-145.6234 125.9968 -38.8167 0.100 -0.557 0.824 47 66 34
-143.3130 123.1280 -37.9354 0.132 -0.360 0.924 52 75 39
-137.8243 124.9241 -38.1772 -0.415 -0.909 -0.037 62 76 41
-137.3073 123.5942 -37.7934 -0.459 -0.793 0.400 58 72 37
-136.9053 129.4349 -39.3594 -0.162 -0.926 -0.340 50 60 35
-134.9905 125.0508 -38.0848 0.092 -0.931 0.353 44 52 33
-134.3156 125.3867 -38.1457 0.371 -0.926 0.066 42 53 29
-133.9755 125.5339 -38.1705 0.615 -0.478 0.627 43 56 31
-122.4567 121.5502 -36.5751 0.205 -0.679 -0.705 60 77 43
-118.1038 127.9470 -38.1154 0.611 0.036 0.791 60 80 43
-161.8739 128.3380 -40.5728 0.938 -0.234 -0.256 56 73 37
-153.0735 125.7619 -39.4685 -0.527 -0.787 -0.319 51 65 30
-152.6150 125.4070 -39.3506 -0.527 -0.787 -0.319 54 68 33
-138.4588 130.1011 -39.9932 -0.386 -0.902 -0.196 61 77 41
-137.6002 129.0945 -39.6788 -0.420 -0.887 -0.193 58 71 41
-137.2316 129.0809 -39.6584 -0.361 -0.908 -0.214 56 69 39
-136.9096 129.4752 -39.7517 -0.175 -0.921 -0.347 54 67 39
-134.9509 124.6744 -38.3489 0.516 -0.764 0.388 54 66 43
-134.6559 125.2559 -38.4947 0.244 -0.965 -0.098 54 66 42
-133.9827 125.6234 -38.5647 0.262 -0.961 -0.093 51 66 39
-122.5370 126.8008 -38.3678 -0.087 -0.712 -0.696 51 71 36
-121.8428 126.0592 -38.1333 -0.046 -0.699 -0.713 53 73 38
-116.6942 129.8182 -38.9286 0.722 0.037 0.691 59 80 41
-134.6416 125.1236 -38.8269 0.429 -0.769 0.473 56 72 44
-121.5012 126.6478 -38.6433 -0.038 -0.704 -0.709 52 72 35
-117.4611 125.0113 -38.0054 0.684 0.004 0.730 49 70 31
-120.1303 122.2721 -37.7246 0.325 -0.854 -0.407 42 62 27
-119.8022 121.5558 -37.5097 0.063 -0.901 -0.429 40 60 25
-116.1525 123.9659 -38.0110 -0.579 -0.708 0.404 53 74 35
-115.0981 125.9643 -38.5187 -0.430 -0.848 0.310 59 80 41
-120.1232 121.8111 -37.9479 0.074 -0.908 -0.412 38 58 23
-119.4698 120.9726 -37.6812 0.426 -0.846 -0.319 35 55 18
-119.1420 121.2263 -37.7370 0.292 -0.849 -0.441 34 54 17
-161.2959 117.0004 -38.9109 0.317 -0.560 0.766 60 80 43
-117.1612 122.2132 -38.2722 0.695 0.041 0.718 42 63 22
-165.1714 123.3621 -41.2874 -0.142 -0.745 0.652 52 73 39
-160.8825 115.5905 -38.8550 0.518 -0.215 0.828 53 73 36
-117.8809 117.6934 -37.3656 0.682 0.050 0.730 37 58 19
-117.5418 118.8867 -37.6906 0.715 0.052 0.698 38 59 18
-114.2950 120.6278 -38.0309 -0.131 -0.990 0.050 51 72 33
-161.4533 113.8357 -38.7408 -0.357 -0.569 0.741 52 71 39
-117.2133 118.9388 -38.0334 0.695 0.041 0.718 44 65 26
-160.9797 111.0032 -39.3142 0.734 -0.195 0.651 48 64 38
-128.0987 115.9917 -40.1337 -0.194 -0.963 0.186 53 73 38
-127.6996 114.7058 -39.7185 0.023 -0.714 0.699 52 69 35
-168.8999 106.8771 -39.8920 0.057 -0.772 -0.633 54 71 37
-129.2340 118.3566 -41.2719 -0.604 -0.683 0.411 60 80 43
-128.4478 116.4071 -40.6272 -0.604 -0.675 0.424 60 80 43
-128.0699 115.5601 -40.3451 -0.212 -0.963 0.168 59 79 43
-127.6797 114.4161 -39.9706 0.003 -0.697 0.717 56 76 40
-169.0813 107.3052 -40.3857 -0.028 -0.786 -0.618 55 75 40
-129.0981 116.3442 -40.9912 -0.610 -0.675 0.415 65 86 47
-128.7661 116.2960 -40.9579 -0.610 -0.656 0.445 64 85 45
-128.4221 116.0427 -40.8601 -0.610 -0.656 0.445 67 85 46
-168.3574 108.1597 -41.3194 -0.006 -0.790 -0.613 51 68 32
-167.7807 107.5847 -41.1049 -0.530 -0.794 -0.298 61 78 42
-169.1997 108.4263 -41.8069 -0.028 -0.786 -0.618 67 82 46
-168.8211 108.3854 -41.7722 -0.028 -0.786 -0.618 64 80 44
-126.4286 109.0139 -39.8767 0.592 -0.542 0.596 68 85 41
-106.2923 114.0648 -40.6631 0.507 -0.773 0.382 48 50 39
-107.3067 115.7829 -41.6128 0.335 -0.540 0.772 50 54 37
-169.4017 107.8378 -43.0508 0.392 -0.746 0.538 66 78 42
-112.2834 108.9581 -40.0003 -0.064 -0.880 0.471 55 66 35
-110.7537 114.1536 -41.6175 0.127 -0.986 0.109 49 61 37
-107.2893 115.8382 -41.9642 0.304 -0.563 0.769 53 57 40
-107.0155 115.5477 -41.8523 0.322 -0.568 0.758 49 53 38
-104.7910 111.5170 -40.3934 0.006 -0.987 -0.163 51 60 44
-176.0235 91.9494 -38.8616 -0.816 -0.409 0.408 50 65 34
-105.6721 113.8521 -41.8717 0.554 -0.745 0.370 62 65 58
-140.3705 99.0210 -39.3564 -0.651 -0.511 0.562 62 77 38
-139.6310 98.2097 -39.3501 0.155 -0.675 0.721 58 73 35
-106.1305 114.8996 -42.9142 0.485 -0.861 0.153 64 71 54
-140.8772 98.3834 -40.1150 -0.556 -0.455 0.695 48 64 28
-176.2971 95.0294 -41.5524 -0.688 -0.575 0.443 57 70 40
-176.6044 96.3653 -42.0354 -0.769 -0.588 0.250 57 70 40
-190.2422 100.8411 -44.8213 0.005 -0.122 0.992 61 81 44
-164.0341 93.6561 -40.6032 0.582 -0.248 0.775 74 89 56
-165.4111 98.9526 -42.5428 -0.091 -0.443 0.892 66 82 46
-128.9880 94.2180 -38.8109 0.602 -0.390 0.697 60 83 41
-156.5949 95.2270 -41.3022 0.606 -0.417 0.677 60 69 38
-130.1299 94.4869 -39.2789 -0.037 -0.648 0.761 62 83 40
-119.9458 100.5350 -40.7444 0.511 -0.846 -0.152 51 47 36
-119.6600 101.2975 -40.9956 0.188 -0.586 0.788 50 46 35
-119.3753 101.3768 -41.0047 0.188 -0.586 0.788 47 45 32
-119.0903 101.4859 -41.0244 0.217 -0.544 0.810 44 42 29
-160.7264 93.2923 -41.2075 0.271 -0.342 0.900 53 67 34
-160.4188 93.3235 -41.1980 0.354 -0.371 0.859 52 66 33
-159.8987 93.6542 -41.2810 -0.412 -0.394 0.821 53 67 34
-158.7452 91.2578 -40.3482 -0.731 -0.501 0.464 57 70 35
-155.4050 85.9115 -38.2156 0.840 -0.539 0.070 60 74 39
-130.9265 93.9800 -39.4500 -0.024 -0.218 0.976 58 79 36
-130.6472 94.0006 -39.4386 -0.024 -0.218 0.976 57 78 35
-119.9396 100.5400 -41.0528 0.492 -0.866 -0.087 55 51 43
-119.6562 100.6639 -41.0780 0.478 -0.874 -0.087 50 46 37
-118.5176 101.3601 -41.2500 0.031 -0.472 0.881 45 46 32
-159.7523 93.2015 -41.4250 -0.412 -0.394 0.821 55 71 35
-155.7434 86.0084 -38.5672 0.757 -0.643 0.117 62 78 42
-155.7604 91.5639 -40.5653 0.478 -0.520 0.708 61 75 42
-155.3581 91.2675 -40.4315 0.466 -0.524 0.713 60 74 41
-135.8230 90.3622 -38.7799 0.498 -0.513 0.699 51 66 33
-120.5128 104.5001 -42.8226 0.488 -0.577 0.655 59 59 49
-120.2181 102.4277 -42.0577 0.637 -0.725 0.263 60 57 50
-119.9333 100.5758 -41.3726 0.492 -0.866 -0.087 60 55 49
-119.3649 100.9662 -41.4744 0.535 -0.804 0.259 62 55 47
-119.0798 101.1781 -41.5312 0.519 -0.815 0.258 60 55 46
-118.5146 101.0704 -41.4541 0.027 -0.479 0.877 52 52 39
-118.2361 100.8127 -41.3426 0.031 -0.496 0.868 48 52 33
-117.3820 101.2740 -41.4504 0.266 -0.590 0.762 50 60 33
-160.5715 94.5805 -42.2960 -0.228 -0.497 0.837 58 77 40
-137.0745 87.6263 -38.1675 0.241 -0.894 -0.379 55 72 37
-122.6399 94.2861 -39.5889 -0.342 -0.836 0.429 69 76 48
-119.0767 100.7676 -41.6911 0.252 -0.568 0.783 63 59 48
-118.7957 100.6234 -41.6196 0.055 -0.467 0.882 63 61 48
-118.5104 100.8748 -41.6911 0.056 -0.472 0.880 60 61 47
-118.2344 100.4837 -41.5306 0.031 -0.496 0.868 56 60 42
-117.3640 101.7415 -41.9262 0.169 -0.779 0.604 51 62 33
-121.8666 97.3808 -40.9574 0.388 -0.787 0.479 66 76 51
-119.0746 100.2571 -41.8127 0.210 -0.554 0.805 66 64 51
-118.7921 100.3456 -41.8255 0.210 -0.554 0.805 65 65 51
-118.5130 100.1717 -41.7428 0.143 -0.554 0.820 65 66 50
-150.6600 87.5182 -39.6505 0.377 -0.320 0.869 53 73 36
-121.3139 98.2634 -41.5442 0.295 -0.784 0.546 70 78 54
-121.0349 98.3578 -41.5593 0.295 -0.784 0.546 70 78 54
-120.7580 98.8751 -41.7299 0.308 -0.832 0.462 70 78 55
-119.1211 94.2486 -39.9168 0.423 -0.828 0.367 68 70 52
-150.3346 87.3710 -39.8688 0.344 -0.317 0.884 49 66 30
-106.9093 91.8963 -38.4769 0.956 -0.282 0.080 51 70 44
-107.6672 89.5015 -37.9171 0.785 -0.457 0.419 51 74 48
-106.9051 91.8379 -38.7326 0.956 -0.282 0.080 58 78 53
-106.7726 90.8894 -38.3701 0.819 -0.447 0.359 50 73 45
-106.5080 91.0503 -38.4111 0.315 -0.464 0.828 46 69 39
-155.9069 89.9197 -41.8162 -0.298 -0.954 0.047 61 81 44
-107.7264 88.8899 -37.9644 0.883 -0.464 0.071 47 70 44
-107.4206 89.4432 -38.1498 0.883 -0.464 0.071 56 79 53
-106.5346 90.7425 -38.5732 0.315 -0.464 0.828 45 68 38
-150.7495 84.7088 -39.7812 0.751 -0.294 0.591 52 72 35
-107.7186 88.8651 -38.2255 0.883 -0.464 0.071 49 72 46
-107.4127 89.4183 -38.4121 0.883 -0.464 0.071 57 80 54
-164.6854 85.4784 -41.3846 0.348 -0.801 0.488 59 79 44
-161.2154 85.1855 -41.0190 0.642 -0.700 0.314 56 72 41
-130.8606 90.5074 -40.8169 -0.765 -0.639 0.077 57 72 39
-107.4133 89.3210 -38.6476 0.825 -0.442 0.351 56 79 51
-107.1184 89.7634 -38.7941 0.826 -0.440 0.351 59 82 54
-164.6447 85.3454 -41.6321 0.348 -0.801 0.488 56 73 41
-161.2882 85.3353 -41.3799 0.508 -0.842 0.182 51 65 38
-137.9450 87.7835 -40.5901 -0.555 -0.831 -0.043 51 65 40
-137.6138 87.4512 -40.4384 -0.578 -0.816 -0.017 53 67 41
-107.5861 89.8347 -39.1294 0.928 -0.353 -0.116 48 68 41
-164.0809 84.6991 -41.6423 0.577 -0.788 -0.215 60 75 46
-161.2125 85.1069 -41.5853 0.055 -0.989 0.138 52 62 38
-159.1534 85.2261 -41.4775 -0.596 -0.747 -0.293 65 80 52
-153.6920 79.6182 -38.9097 0.117 -0.992 -0.041 51 70 38
-143.8515 81.6977 -38.9762 0.394 -0.727 0.563 56 80 44
-161.0908 86.3158 -42.3434 0.281 -0.880 0.383 50 60 36
-160.9104 86.6391 -42.4552 0.298 -0.839 0.455 53 62 41
