ply
format ascii 1.0
element vertex 842
property float x
property float y
property float z
property float nx
property float ny
property float nz
property uchar diffuse_red
property uchar diffuse_green
property uchar diffuse_blue
end_header
-252.3139 81.0006 -31.3318 0.893 -0.067 0.446 51 44 38
-252.7672 81.7163 -31.3484 0.866 0.065 0.495 50 43 37
-254.1449 82.9142 -31.4869 0.805 -0.058 0.591 54 46 43
-254.1420 83.3982 -31.4429 0.805 -0.058 0.591 57 49 46
-255.1999 84.4381 -31.5384 0.879 -0.020 0.477 56 48 45
-345.6214 137.4382 -42.9273 0.655 -0.751 -0.083 56 48 45
-345.1638 137.8884 -42.8052 0.662 -0.746 -0.076 57 50 44
-344.2570 138.0904 -42.6251 0.661 -0.746 -0.085 73 66 58
-344.7673 140.4623 -42.5031 0.843 -0.536 -0.046 75 68 58
-166.5246 48.8101 -18.9007 0.998 0.017 -0.053 78 70 59
-166.6092 49.1399 -18.8861 0.964 -0.044 -0.264 77 69 58
-166.5896 49.4054 -18.8588 0.964 -0.044 -0.264 71 63 52
-322.9934 153.5114 -37.4416 0.395 0.169 0.903 67 64 57
-299.7826 140.2790 -34.4847 0.934 0.065 -0.350 63 60 53
-299.8056 140.8820 -34.4346 0.934 0.065 -0.350 64 61 54
-325.4237 178.9988 -35.5859 0.811 -0.504 0.297 75 68 60
-323.6572 178.3457 -35.3290 0.900 -0.059 -0.432 78 71 63
-310.1354 169.0213 -33.7516 0.975 0.135 -0.175 68 64 55
-121.2656 -83.2076 -22.8644 0.700 -0.711 0.070 171 185 196
-120.1220 -81.7346 -22.5249 0.348 -0.007 0.938 78 87 92
-125.8250 -79.3379 -23.3422 0.582 0.810 -0.078 131 140 147
-125.9232 -79.2094 -23.3484 0.498 0.866 0.048 139 148 157
-126.2591 -79.2474 -23.4126 0.497 0.864 0.083 148 157 164
-127.1644 -79.4814 -23.5976 0.841 -0.381 0.385 117 126 133
-127.1571 -79.2753 -23.5778 0.807 -0.445 0.388 72 80 91
-127.0723 -79.0155 -23.5391 0.747 -0.541 0.386 66 74 87
-126.9863 -78.7554 -23.5001 0.735 -0.473 0.486 93 102 119
-127.1526 -78.4684 -23.5044 0.740 -0.355 0.571 147 156 173
-134.2826 -72.6625 -24.2736 0.606 -0.790 0.090 128 137 144
-114.1112 -60.3452 -19.5130 0.367 -0.720 0.589 153 162 169
-109.2750 -57.0877 -18.3442 0.383 -0.792 0.475 87 98 94
-113.6589 -58.1167 -19.2307 0.915 0.141 -0.378 124 134 133
-113.8909 -58.0709 -19.2686 0.579 0.698 0.422 119 129 130
-137.2499 -66.7038 -24.2752 0.483 -0.875 0.036 174 187 204
-149.5383 -69.7538 -26.7749 0.548 -0.830 -0.101 148 159 162
-114.3098 -50.1534 -18.6325 0.648 -0.733 0.209 54 55 50
-86.2366 -36.3251 -12.3050 0.280 0.841 -0.463 119 128 145
-82.3725 -32.4615 -11.2578 -0.050 -0.418 0.907 59 57 58
-105.7786 -33.9373 -15.6294 0.641 0.747 0.176 104 104 114
-120.0546 -32.4447 -18.0806 0.096 0.930 0.354 144 143 147
-327.3633 -55.4294 -57.6914 0.468 -0.882 0.065 146 144 144
-319.1301 -52.5173 -55.9385 0.945 -0.288 -0.152 157 153 152
-308.8730 -41.2382 -53.0667 0.940 -0.313 -0.132 120 112 110
-294.0693 -37.8684 -50.0827 0.478 0.878 0.012 116 108 105
-300.7899 -37.0072 -51.2224 0.743 -0.669 0.009 114 105 100
-296.0164 -36.1603 -50.2817 0.736 -0.640 -0.222 121 112 107
-322.9410 -35.4449 -55.0935 0.759 -0.521 -0.391 128 119 114
-327.2804 -28.8152 -55.2833 0.810 0.447 0.378 107 100 94
-324.2713 -28.0928 -54.6734 0.744 0.335 0.579 92 84 81
-285.5541 -22.3458 -47.1448 0.584 0.007 0.812 77 75 62
-282.8581 -20.0829 -46.4531 0.686 -0.701 0.195 82 80 67
-277.3959 -18.5066 -45.3222 0.546 0.028 0.837 97 99 79
-276.6223 -17.9704 -45.1338 0.641 -0.141 0.754 114 117 96
-276.5704 -17.4166 -45.0746 0.641 -0.141 0.754 132 135 114
-274.4170 -16.3809 -44.5915 0.882 -0.413 0.229 123 126 105
-309.6808 -11.3516 -50.5256 0.621 -0.779 -0.086 59 56 51
-284.0240 -1.7488 -45.0157 0.384 0.562 0.733 81 71 70
-287.8825 -0.2213 -45.5771 0.369 0.645 0.669 81 70 70
-286.5177 0.7957 -45.2385 0.615 -0.708 0.346 78 64 61
-289.3047 2.8375 -45.5597 0.900 -0.392 0.190 81 67 64
-336.6314 16.5025 -52.9019 0.367 -0.647 0.669 77 72 66
-309.5351 16.4648 -47.9981 0.901 -0.045 0.432 81 78 69
-316.5627 18.8517 -49.0562 0.519 0.178 0.836 80 77 68
-351.1379 27.3145 -54.5569 0.671 -0.171 0.722 75 70 64
-342.5244 39.3054 -51.9187 0.560 0.797 0.227 61 57 48
-340.9057 40.3627 -51.5305 0.578 -0.168 0.798 62 55 49
-358.2998 47.9190 -54.0012 0.615 0.547 -0.568 60 53 47
-358.4978 48.7097 -53.9659 0.632 0.568 -0.527 64 57 51
-356.1935 50.3854 -53.3979 0.772 0.419 -0.478 65 58 52
-358.1038 51.5909 -53.6355 0.779 0.426 -0.460 59 52 46
-356.9913 52.0595 -53.3919 0.779 0.429 -0.458 52 47 43
-318.9153 44.6104 -47.1661 0.999 0.045 -0.002 50 43 37
-317.5009 50.7018 -46.3622 0.832 -0.069 -0.551 54 50 41
-319.8892 52.0158 -46.6766 0.831 -0.069 -0.552 54 50 41
-334.2535 72.4419 -47.4413 0.397 0.880 0.261 44 35 30
-346.0880 79.2772 -48.9699 0.941 0.332 -0.061 53 44 39
-346.8264 80.2452 -49.0166 0.922 0.367 -0.126 52 43 38
-346.3557 80.7910 -48.8823 0.919 0.384 -0.094 48 40 37
-319.7820 76.6145 -44.4453 0.628 -0.434 0.646 50 42 40
-338.3241 93.1471 -46.3167 0.978 0.178 -0.110 47 39 36
-330.7121 91.4124 -45.0941 0.865 0.422 -0.271 42 33 26
-253.6613 82.7631 -31.9178 0.798 -0.055 0.601 51 43 40
-253.8150 83.3280 -31.8949 0.805 -0.058 0.591 49 41 38
-253.9828 83.9008 -31.8737 0.804 -0.065 0.591 49 41 38
-298.1270 110.0072 -37.5209 0.714 -0.571 -0.405 48 40 37
-344.7255 140.5887 -43.2102 0.843 -0.536 -0.046 66 59 49
-344.3935 141.1011 -43.1040 0.843 -0.536 -0.046 66 59 49
-342.9828 141.7010 -42.7945 0.842 -0.537 -0.047 57 50 40
-166.4200 49.0864 -19.1464 0.980 -0.185 -0.077 72 64 53
-166.2271 49.2441 -19.0972 0.936 -0.242 -0.256 70 62 51
-305.2904 142.8163 -35.8681 0.901 -0.042 -0.432 67 64 57
-325.5723 158.5735 -38.1243 0.929 0.084 -0.359 67 64 57
-323.7852 158.0411 -37.8486 0.955 0.143 -0.260 71 68 61
-324.2949 162.2478 -37.5626 0.918 0.325 -0.225 77 72 66
-324.2931 178.9774 -36.0580 0.904 -0.050 -0.425 66 59 51
-119.7146 -81.9755 -22.6559 0.383 -0.132 0.914 172 186 197
-119.3696 -81.5153 -22.5512 0.614 -0.377 0.694 144 155 162
-125.8295 -79.3540 -23.5427 0.582 0.810 -0.078 130 139 146
-126.0133 -79.2857 -23.5703 0.574 0.816 -0.065 138 147 156
-126.3019 -79.2902 -23.6237 0.546 0.838 0.003 149 158 165
-126.9806 -79.5665 -23.7731 0.433 0.878 0.202 148 157 164
-127.1004 -79.4493 -23.7846 0.857 -0.252 0.450 117 126 133
-127.0947 -79.2444 -23.7651 0.855 -0.232 0.464 73 81 92
-127.0713 -79.0272 -23.7413 0.837 -0.455 0.304 63 71 84
-127.0476 -78.8100 -23.7173 0.843 -0.274 0.463 91 100 117
-127.1510 -78.4793 -23.7066 0.713 -0.340 0.614 148 157 174
-134.2069 -72.6273 -24.4753 0.606 -0.790 0.090 130 139 146
-111.1513 -55.8748 -18.7349 0.268 -0.695 0.668 123 131 134
-137.7262 -66.9338 -24.6091 0.470 -0.880 0.071 165 178 195
-215.5953 -80.1434 -40.0941 0.699 -0.635 -0.327 54 55 60
-214.2462 -79.2803 -39.7687 0.699 -0.623 -0.351 106 107 112
-86.4144 -36.3795 -12.4389 0.281 0.852 -0.442 117 125 144
-103.6143 -33.7032 -15.3558 0.690 0.721 -0.071 117 117 126
-323.0519 -52.8823 -57.3690 0.892 -0.241 0.382 157 153 152
-311.4896 -50.3864 -55.0216 0.652 -0.728 0.211 149 145 144
-313.0850 -42.7607 -54.6283 0.510 -0.825 0.242 133 125 123
-275.3710 -38.4548 -47.3167 0.583 0.808 -0.089 149 141 139
-295.1614 -37.2790 -50.8443 0.481 0.876 0.011 124 114 111
-300.9081 -36.9651 -51.8711 0.762 -0.626 -0.168 128 119 114
-319.8597 -25.9872 -54.3625 0.874 0.448 0.189 120 112 109
-276.8339 -19.0242 -45.8367 0.681 -0.042 0.731 113 113 98
-274.8343 -18.5181 -45.4240 0.701 -0.068 0.710 128 130 111
-275.2663 -17.9549 -45.4526 0.702 -0.442 0.559 107 110 89
-274.7201 -16.8680 -45.2545 0.913 -0.367 0.179 102 105 84
-274.2641 -16.3331 -45.1227 0.924 -0.350 0.156 127 130 109
-273.9629 -15.2458 -44.9695 0.943 -0.316 0.106 71 74 55
-283.7482 -6.8507 -46.0105 0.681 -0.546 -0.489 68 60 58
-287.3925 -0.2058 -46.0816 0.372 0.637 0.675 86 74 74
-284.0100 0.5970 -45.3884 0.654 -0.685 0.320 79 65 62
-268.4734 1.6299 -42.4430 0.918 0.044 0.394 87 73 70
-267.7871 2.0807 -42.2764 0.876 0.158 0.456 84 72 68
-336.5605 14.4868 -53.7863 0.311 -0.642 0.701 92 87 83
-334.6620 16.3082 -53.2738 0.354 -0.641 0.681 93 90 83
-313.1376 14.5461 -49.4806 0.556 0.083 0.827 95 92 83
-312.7751 15.1319 -49.3614 0.680 0.606 0.413 93 90 81
-310.0057 16.6161 -48.7194 0.393 -0.250 0.885 86 83 74
-302.3049 17.8685 -47.1928 0.721 -0.044 0.692 83 78 72
-339.8755 34.6218 -52.5828 0.822 -0.021 0.569 78 74 65
-351.3786 44.2287 -53.8302 0.808 0.498 -0.315 86 77 72
-355.7224 45.9471 -54.4730 0.820 0.337 -0.463 81 72 67
-323.3011 46.4803 -48.4727 0.378 -0.125 0.917 57 49 47
-309.6456 49.2397 -45.7173 0.228 -0.462 0.857 59 52 46
-293.3706 54.6405 -42.2433 0.619 0.266 0.739 80 70 59
-299.5531 59.6275 -42.9296 0.531 0.757 0.380 67 58 53
-346.1988 78.7238 -49.7748 0.860 0.319 -0.398 72 63 58
-346.6903 79.6052 -49.7857 0.909 0.242 -0.339 72 63 58
-346.8849 80.3849 -49.7513 0.909 0.242 -0.339 68 59 54
-345.6802 80.6726 -49.5042 0.925 0.288 -0.248 55 46 44
-343.2330 80.5137 -49.0692 0.894 0.337 -0.294 55 47 44
-333.8541 87.3887 -46.7286 0.981 -0.061 -0.184 59 44 44
-333.0807 92.5034 -46.1263 0.874 0.411 -0.260 48 39 32
-333.4292 94.0009 -46.0556 0.880 0.391 -0.270 48 39 32
-311.8885 103.8266 -41.2166 0.422 0.882 0.210 48 34 34
-287.5816 103.3402 -36.7978 0.574 0.765 0.291 48 40 37
-345.7076 141.2843 -44.0545 0.816 -0.577 0.028 63 54 45
-324.6642 138.6902 -40.4246 0.972 -0.184 -0.147 73 65 54
-326.3102 140.3124 -40.5808 0.979 -0.042 -0.199 72 64 53
-324.4263 139.8477 -40.2767 0.997 -0.028 -0.078 72 64 53
-350.5357 158.1785 -43.4206 0.969 0.015 -0.248 71 61 51
-300.0755 130.1287 -36.6808 0.889 -0.035 -0.457 68 60 47
-302.0466 131.9306 -36.8805 0.834 0.437 0.336 68 60 47
-165.6084 49.4743 -19.2520 0.705 -0.343 -0.621 65 57 46
-168.0038 51.5364 -19.5062 0.869 0.019 -0.495 56 48 37
-325.7513 158.8461 -38.8102 0.960 0.158 -0.231 67 64 57
-322.0783 157.0664 -38.2961 0.940 0.247 -0.237 71 68 61
-321.4159 157.2672 -38.1564 0.921 0.299 -0.249 75 72 65
-320.4941 157.2922 -37.9849 0.607 0.628 0.487 77 74 67
-322.7296 159.4225 -38.2036 0.639 0.667 0.382 81 78 71
-324.6180 161.3305 -38.3786 0.639 0.667 0.382 82 79 72
-323.6958 161.9996 -38.1491 0.917 0.301 -0.261 77 72 66
-324.6324 179.3917 -36.7558 0.809 -0.187 0.558 54 47 39
-119.6015 -81.9001 -22.8115 0.380 -0.217 0.899 172 186 197
-119.2553 -81.2568 -22.6891 0.568 -0.302 0.765 109 118 123
-119.4501 -81.2298 -22.7229 0.352 0.004 0.936 79 88 93
-126.1035 -79.3621 -23.7928 0.557 0.803 0.212 137 146 153
-126.8277 -79.6726 -23.9556 0.541 0.840 0.030 149 158 165
-127.0496 -79.2256 -23.9566 0.850 -0.204 0.487 74 83 92
-127.0003 -78.9904 -23.9262 0.834 -0.451 0.317 63 71 84
-126.9614 -78.7628 -23.8985 0.837 -0.285 0.468 91 100 117
-126.9861 -78.3784 -23.8685 0.735 -0.341 0.586 146 155 172
-134.5833 -72.8459 -24.7839 0.642 -0.767 0.019 130 139 146
-109.0242 -57.1157 -18.6109 0.416 -0.834 0.363 89 99 99
-109.0657 -56.9843 -18.6068 0.477 -0.742 0.471 125 135 132
-139.0443 -67.5645 -25.1383 0.498 -0.860 -0.114 166 177 195
-136.7779 -66.2633 -24.5994 0.554 -0.820 -0.145 188 199 217
-88.1233 -37.8166 -12.9832 0.110 0.957 0.270 46 47 52
-214.6061 -79.3928 -40.2647 0.705 -0.623 -0.339 99 100 105
-86.1655 -36.7737 -12.5250 0.118 0.943 0.310 124 125 130
-86.4690 -36.4906 -12.5559 0.274 0.866 -0.419 118 125 140
-86.6419 -36.4496 -12.5844 0.274 0.866 -0.419 116 124 143
-103.2247 -34.0380 -15.4530 0.313 -0.613 -0.726 96 96 94
-103.2778 -33.6388 -15.4270 0.751 0.335 0.569 117 117 126
-121.0416 -34.5082 -18.8109 0.304 0.952 0.031 123 123 123
-118.8493 -32.4589 -18.2183 0.170 0.980 0.100 143 142 148
-309.5209 -45.6642 -54.8891 0.801 0.541 -0.256 165 159 159
-309.7319 -42.4791 -54.6415 0.516 -0.828 0.221 132 124 122
-292.5270 -40.0823 -51.2240 0.995 -0.089 -0.046 132 124 122
-275.4998 -38.4211 -47.9059 0.586 0.806 -0.086 137 129 127
-288.4079 -38.6394 -50.3276 0.421 0.904 -0.074 134 126 124
-296.6978 -36.0979 -51.6413 0.766 -0.578 -0.280 157 148 143
-293.1231 -35.3283 -50.9068 0.702 -0.612 -0.364 157 148 143
-333.5206 -27.4072 -57.7107 0.786 0.603 0.138 161 153 150
-279.1234 -22.8568 -47.1783 0.737 0.353 0.577 132 129 117
-279.3945 -22.2918 -47.1779 0.737 0.353 0.577 139 137 124
-277.9406 -21.7441 -46.8580 0.698 0.069 0.713 83 81 68
-278.0125 -21.1835 -46.8209 0.720 -0.022 0.693 116 114 101
-274.4626 -16.8234 -45.7676 0.925 -0.345 0.157 130 133 112
-274.3937 -16.2753 -45.7054 0.947 -0.305 0.102 93 96 75
-273.8845 -15.1952 -45.5133 0.943 -0.316 0.106 90 93 74
-276.6614 -7.3139 -45.3202 0.664 -0.747 0.026 127 118 119
-281.2217 0.3675 -45.4769 0.837 -0.431 0.338 88 74 71
-282.0598 19.1027 -43.9454 0.755 0.646 0.118 92 88 79
-282.6256 19.7724 -43.9904 0.755 0.646 0.118 82 78 69
-281.6111 20.1448 -43.7680 0.979 0.142 -0.146 79 75 66
-363.8198 50.9321 -56.2929 0.705 0.421 -0.571 92 81 77
-308.7153 40.3265 -46.9940 0.595 -0.635 0.493 88 78 77
-353.5158 52.8790 -54.2001 0.709 -0.705 0.004 85 75 74
-297.5504 48.3250 -44.1959 0.183 -0.305 0.935 56 46 44
-280.6268 46.7453 -41.1889 0.851 0.355 0.386 46 37 31
-316.2733 65.9435 -46.0931 0.624 0.781 0.013 100 89 85
-335.3124 75.7660 -48.7513 0.342 0.865 0.367 72 61 57
-335.9925 77.3755 -48.7329 0.353 0.062 0.934 66 56 54
-254.2498 53.4610 -35.6757 0.982 -0.085 0.168 45 29 29
-319.4930 80.6063 -45.3715 0.932 0.077 -0.355 61 47 46
-337.5597 93.7736 -47.5475 0.878 0.393 -0.274 47 36 32
-337.0219 94.2410 -47.4053 0.799 0.489 -0.350 52 43 38
-272.2265 83.6328 -36.3033 0.429 0.882 0.194 46 35 33
-347.6902 142.5377 -45.0404 0.839 -0.544 -0.011 56 49 39
-319.2737 135.0216 -40.4295 0.980 -0.114 -0.162 59 51 40
-300.3951 130.4591 -37.3274 0.889 -0.035 -0.457 62 54 41
-304.6455 133.6649 -37.8296 0.882 0.365 0.298 62 54 42
-305.5863 134.8474 -37.8981 0.882 0.363 0.300 62 54 43
-305.9083 136.2553 -37.8313 0.749 0.618 0.240 69 61 50
-313.3485 144.6129 -38.4630 0.715 -0.190 -0.673 47 43 34
-300.1528 140.9405 -36.3382 0.907 0.172 -0.384 63 58 52
-333.0685 163.1598 -40.4621 0.922 0.152 -0.357 65 60 54
-306.7554 147.0790 -37.0140 0.964 0.163 0.209 73 68 62
-311.2261 153.1135 -37.3024 0.908 0.350 -0.232 81 77 68
-310.5426 153.2665 -37.1614 0.915 0.346 -0.208 77 73 64
-119.0307 -81.0925 -22.8144 0.551 -0.346 0.759 126 135 138
-119.1621 -81.0155 -22.8322 0.352 0.004 0.936 90 100 102
-126.1210 -79.3873 -23.9978 0.547 0.837 -0.004 135 144 151
-126.2677 -79.2916 -24.0168 0.547 0.837 -0.004 147 156 163
-126.8284 -79.4853 -24.1400 0.690 0.719 0.083 149 158 163
-126.5699 -79.1043 -24.0569 0.607 0.754 0.251 122 131 137
-126.6998 -78.9948 -24.0715 0.607 0.754 0.251 79 88 97
-126.9217 -78.9484 -24.1092 0.882 -0.221 0.416 63 71 83
-126.9167 -78.7443 -24.0899 0.911 -0.180 0.371 88 97 113
-127.2339 -78.3589 -24.1149 0.870 -0.422 0.254 147 156 173
-134.1356 -72.3846 -24.8779 0.648 -0.761 -0.029 124 133 140
-109.5089 -57.5363 -18.8952 0.358 -0.757 0.546 80 90 93
-108.4693 -56.8212 -18.6347 0.378 -0.759 0.531 92 102 103
-137.2510 -66.4905 -24.9341 0.531 -0.837 -0.136 188 199 217
-138.6250 -66.6862 -25.2108 0.725 -0.375 -0.578 190 201 219
-148.9595 -69.2484 -27.3907 0.442 -0.897 -0.019 106 118 118
-86.6087 -36.9178 -12.7179 0.137 0.949 0.284 125 126 131
-110.6235 -35.8088 -17.1467 0.367 -0.188 -0.911 68 68 66
-103.2235 -33.4865 -15.5419 0.757 0.412 0.507 113 113 123
-120.4015 -34.2297 -18.8483 0.272 0.954 0.126 122 122 122
-118.8268 -32.4452 -18.3905 0.170 0.980 0.100 143 142 148
-303.3340 -41.9866 -54.0455 0.528 -0.818 0.226 150 142 140
-276.2753 -38.4275 -48.6219 0.586 0.805 -0.091 143 135 133
-294.4626 -36.5463 -51.8821 0.789 -0.580 0.202 148 139 134
-284.7719 -26.2341 -49.1250 0.870 0.029 0.491 162 154 151
-277.6862 -22.8146 -47.4804 0.684 0.059 0.727 149 146 134
-277.7709 -22.2544 -47.4459 0.684 0.059 0.727 146 144 131
-277.4568 -21.6982 -47.3365 0.698 0.069 0.713 104 102 89
-277.2591 -21.1420 -47.2491 0.727 0.028 0.686 127 125 112
-273.3197 -19.5490 -46.3626 0.428 -0.899 0.086 139 137 124
-274.3207 -17.8761 -46.4006 0.783 -0.117 0.611 149 152 131
-274.5331 -16.2171 -46.2911 0.885 -0.312 0.345 81 84 63
-274.2113 -15.1283 -46.1322 0.885 -0.312 0.345 117 120 99
-277.5788 -2.1780 -45.5999 0.187 0.581 0.792 117 105 106
-283.0945 1.1981 -46.3357 0.726 -0.630 0.275 113 99 96
-299.1786 12.0471 -48.3909 0.236 -0.063 0.970 133 130 121
-303.0556 14.4545 -48.9050 0.301 -0.218 0.928 110 110 100
-301.3731 15.4228 -48.5004 0.272 -0.304 0.913 105 102 93
-301.0905 15.9895 -48.3960 0.272 -0.304 0.913 106 103 94
-299.0688 16.8801 -47.9345 0.669 0.700 0.252 103 100 93
-299.4124 17.5429 -47.9395 0.666 0.703 0.249 99 94 88
-282.6465 18.1541 -44.7227 0.596 0.718 0.360 106 101 94
-278.1380 21.2211 -43.5960 0.536 -0.520 0.665 100 96 85
-278.8902 25.2590 -43.3738 0.640 -0.762 0.098 91 84 78
-319.6079 43.7682 -49.3839 0.716 -0.150 0.682 89 81 78
-307.1821 41.9028 -47.2088 0.836 -0.357 0.417 86 77 74
-316.7199 49.4895 -48.3235 0.794 -0.288 -0.534 85 75 73
-290.9266 51.7201 -43.2583 0.318 -0.214 0.924 83 74 63
-335.2956 75.1894 -49.5098 0.945 0.102 -0.311 78 70 64
-328.1308 76.0513 -48.0809 0.428 -0.295 0.854 60 51 49
-311.9298 74.0275 -45.2081 0.513 -0.129 0.848 71 61 59
-309.6429 73.7997 -44.7974 0.439 -0.483 0.758 56 45 43
-328.2480 91.4325 -46.7165 0.333 0.179 0.926 59 49 47
-242.3150 66.1222 -32.7926 0.865 -0.315 -0.391 41 33 30
-285.7323 91.9245 -38.6544 0.714 0.635 0.296 63 52 48
-293.1845 96.1437 -39.6794 0.559 -0.669 0.490 59 48 44
-291.8675 96.6504 -39.3854 0.582 -0.670 0.461 51 43 37
-325.1161 143.1508 -41.4636 0.803 0.194 0.563 61 53 43
-166.2274 50.2672 -19.8731 0.815 -0.246 -0.524 58 51 41
-331.1006 161.3620 -40.9505 0.783 -0.181 -0.595 61 56 50
-329.3292 160.8594 -40.6617 0.789 -0.185 -0.586 63 59 50
-318.9788 155.3200 -39.2092 0.938 0.346 0.014 71 67 58
-311.5842 154.1198 -37.9229 0.907 0.356 -0.223 72 68 59
-334.2889 172.1523 -40.5790 0.557 0.634 -0.537 58 54 45
-325.3146 171.1769 -38.9745 0.855 -0.326 -0.402 65 58 50
-118.6205 -80.7797 -22.8898 0.395 -0.202 0.896 130 140 142
-118.8761 -80.8027 -22.9407 0.352 0.004 0.936 94 104 105
-125.9675 -79.2918 -24.1594 0.555 0.805 0.208 129 138 145
-126.1068 -79.1912 -24.1770 0.555 0.805 0.208 141 150 155
-126.3630 -79.1719 -24.2242 0.548 0.805 0.226 150 159 164
-126.3862 -78.9886 -24.2121 0.508 0.789 0.345 136 145 150
-126.5291 -78.8885 -24.2304 0.508 0.789 0.345 105 114 123
-126.7795 -78.8622 -24.2758 0.632 0.769 0.096 69 77 89
-126.9229 -78.7608 -24.2941 0.722 0.561 0.405 75 84 99
-126.9713 -78.5933 -24.2882 0.720 0.564 0.404 111 120 135
-127.3854 -78.4744 -24.3566 0.949 -0.310 0.054 161 170 185
-128.4117 -78.9708 -24.5975 0.789 0.023 -0.615 157 166 181
-110.6393 -58.4687 -19.3517 0.366 -0.731 0.576 162 171 176
-109.9136 -57.9160 -19.1632 0.356 -0.757 0.547 120 129 134
-108.8730 -56.8896 -18.8718 0.706 -0.497 0.504 118 128 127
-109.1974 -56.9093 -18.9355 0.894 0.151 0.422 140 150 151
-109.2845 -56.8013 -18.9424 0.875 0.480 0.064 128 138 139
-109.2568 -56.6322 -18.9219 0.863 0.499 0.082 137 145 147
-113.5855 -58.2598 -19.8959 0.528 0.819 -0.224 154 164 163
-137.5790 -66.6491 -25.2375 0.531 -0.837 -0.136 190 198 217
-138.3372 -66.5545 -25.3738 0.714 -0.407 -0.570 190 201 219
-152.4691 -71.6010 -28.5295 0.590 -0.791 -0.164 194 203 220
-149.1390 -69.3307 -27.6883 0.442 -0.897 -0.019 111 122 123
-87.8324 -38.8084 -13.2200 0.314 -0.930 0.191 33 32 30
-86.7806 -36.9726 -12.8533 0.114 0.918 0.380 124 125 130
-86.9753 -36.8424 -12.8788 0.243 0.960 -0.138 133 135 142
-87.1044 -36.6894 -12.8897 0.157 0.983 0.100 119 126 141
-103.0280 -33.8538 -15.6765 0.333 -0.518 -0.788 101 101 103
-102.7470 -33.3995 -15.5818 0.520 0.819 0.244 113 113 123
-120.1345 -34.1824 -18.9749 0.275 0.955 0.106 122 122 122
-118.8043 -32.4316 -18.5628 0.170 0.980 0.100 143 142 148
-306.0653 -49.0873 -55.8476 0.612 -0.755 0.233 145 141 140
-277.7327 -38.4760 -49.4764 0.547 0.836 -0.040 151 143 141
-292.0680 -37.5741 -52.1342 0.452 0.892 -0.001 111 103 101
-295.0020 -36.5262 -52.6003 0.795 -0.574 0.197 135 126 119
-286.6633 -32.0265 -50.6010 0.690 -0.361 -0.627 135 128 120
-262.2460 -24.9508 -45.2969 0.704 -0.414 0.577 129 122 116
-243.2522 -24.4090 -41.6186 0.739 -0.672 0.043 137 130 124
-278.5278 -22.7587 -48.2103 0.721 0.154 0.676 152 150 137
-276.9745 -21.6524 -47.8136 0.698 0.069 0.713 114 112 99
-277.0637 -21.0933 -47.7802 0.698 0.069 0.713 123 121 108
-279.0820 -20.5029 -48.1126 0.435 -0.893 0.115 137 135 122
-276.8143 -19.9819 -47.6323 0.432 -0.896 0.100 134 132 119
-273.9362 -16.7346 -46.7894 0.898 -0.340 0.279 106 109 88
-274.0927 -16.1793 -46.7692 0.986 0.165 0.030 73 76 55
-274.1536 -15.6269 -46.7310 0.885 -0.312 0.345 90 93 72
-275.4900 -13.3631 -46.7821 0.656 0.361 -0.663 156 153 146
-281.2194 0.4944 -46.6266 0.825 -0.414 0.384 114 100 97
-300.9061 13.5928 -49.2066 0.435 -0.016 0.900 153 153 141
-302.6595 14.4701 -49.4625 0.314 -0.245 0.917 149 149 137
-297.9812 14.3635 -48.5781 0.464 -0.016 0.886 139 137 125
-301.4916 16.7415 -49.0344 0.307 -0.301 0.903 139 137 126
-300.8518 17.8589 -48.8113 0.541 0.839 0.051 131 129 119
-282.6429 18.7924 -45.2477 0.969 0.239 -0.065 96 94 82
-283.5674 26.9053 -44.6923 0.618 -0.782 0.082 159 155 145
-316.2205 48.8062 -48.9558 0.788 -0.312 -0.530 51 45 39
-287.7895 50.2575 -43.3922 0.408 0.841 0.356 50 44 30
-289.6393 51.9878 -43.5895 0.853 0.173 0.493 102 95 80
-289.4596 52.5085 -43.5082 0.860 0.211 0.464 86 79 65
-334.3717 74.9838 -50.0623 0.942 0.094 -0.322 98 92 86
-312.3925 73.6784 -45.9802 0.783 -0.590 0.195 79 74 71
-284.2875 70.0276 -40.9393 0.989 0.090 -0.114 72 63 61
-283.9832 71.0290 -40.7908 0.152 -0.096 0.984 83 73 71
-324.5399 95.2779 -46.3526 0.610 -0.071 0.789 60 53 49
-321.3369 94.5432 -45.8069 0.574 -0.203 0.793 59 51 48
-302.9855 88.9928 -42.8010 0.556 -0.689 0.465 57 50 45
-244.3939 66.7132 -33.6154 0.855 -0.344 -0.389 41 36 30
-260.6013 77.2356 -35.7630 0.428 0.869 0.247 44 35 30
-281.9079 88.5065 -38.8174 0.662 0.706 0.250 53 44 38
-291.9201 93.9071 -40.2432 0.431 0.891 0.142 77 70 64
-284.1786 90.7182 -39.0517 0.662 0.706 0.250 73 64 58
-284.9459 93.3336 -38.9623 0.484 -0.668 0.565 52 45 39
-284.5618 93.7025 -38.8557 0.484 -0.668 0.565 50 44 38
-310.7963 112.9842 -42.1289 0.769 -0.541 -0.342 51 46 42
-301.0856 110.3053 -40.5151 0.885 -0.458 -0.081 52 47 41
-289.9489 104.9586 -38.8695 0.876 -0.413 0.248 51 46 40
-277.7767 99.0042 -37.0808 0.684 -0.654 0.322 50 45 39
-323.7486 135.3412 -42.5867 0.956 0.267 -0.118 58 51 43
-280.2828 117.2952 -35.9094 0.662 -0.115 0.741 51 46 39
-310.1865 141.0443 -39.4807 0.686 0.648 0.331 37 32 26
-335.7449 164.5658 -42.2422 0.826 -0.048 -0.561 58 51 43
-325.3606 159.0533 -40.7554 0.786 -0.161 -0.597 64 57 49
-315.6080 156.9932 -39.0777 0.909 0.338 -0.245 63 59 48
-311.8200 155.0457 -38.5296 0.911 0.328 -0.252 60 56 45
-327.4046 174.7675 -39.7281 0.765 -0.394 -0.510 62 55 47
-118.6390 -80.6288 -23.0609 0.357 0.015 0.934 94 104 103
-118.8087 -80.5828 -23.0896 0.402 0.034 0.915 83 93 92
-125.9232 -79.2734 -24.3486 0.555 0.805 0.208 129 138 143
-125.9878 -79.1203 -24.3473 0.548 0.809 0.214 142 151 156
-126.2307 -79.0919 -24.3918 0.549 0.805 0.227 151 161 163
-126.2812 -78.9279 -24.3867 0.484 0.797 0.361 136 145 150
-126.4275 -78.8303 -24.4062 0.484 0.797 0.361 105 114 122
-126.7551 -78.8578 -24.4722 0.632 0.769 0.096 78 86 96
-126.8769 -78.7413 -24.4852 0.628 0.765 0.144 83 92 106
-127.0080 -78.6308 -24.5006 0.628 0.765 0.144 110 119 134
-127.3008 -78.6305 -24.5573 0.940 0.160 -0.301 139 148 163
-128.0743 -78.9571 -24.7365 0.656 0.079 -0.751 154 163 178
-128.1893 -78.8316 -24.7474 0.642 -0.283 -0.712 155 164 179
-125.7920 -77.0021 -24.1181 0.598 -0.452 -0.662 150 159 174
-108.9070 -57.2196 -19.0631 0.613 -0.610 0.502 119 129 131
-108.9764 -57.1032 -19.0660 0.806 -0.521 0.282 146 156 157
-109.0701 -56.9997 -19.0748 0.824 0.188 0.534 134 144 144
-113.4106 -58.1731 -20.0210 0.538 0.817 -0.206 144 152 154
-113.8483 -58.2342 -20.1113 0.633 0.769 -0.084 114 122 124
-113.9679 -58.1298 -20.1250 0.614 0.686 -0.391 96 104 107
-137.7291 -66.7235 -25.5008 0.533 -0.833 -0.145 185 193 212
-138.1977 -66.4922 -25.5706 0.729 -0.414 -0.545 189 200 218
-151.0647 -70.9670 -28.4655 0.827 0.528 0.192 193 201 219
-151.1431 -70.4851 -28.4372 0.500 -0.866 -0.025 204 214 221
-149.3193 -69.4133 -27.9874 0.442 -0.897 -0.019 116 127 129
-86.8952 -37.1056 -12.9857 0.115 0.922 0.370 93 94 98
-86.7205 -36.9513 -12.9380 0.090 0.904 0.419 120 121 125
-87.2420 -36.9269 -13.0367 0.221 0.974 -0.041 136 137 143
-102.5101 -33.4873 -15.6817 0.676 -0.331 -0.658 131 131 138
-102.2577 -33.3105 -15.6169 0.479 0.861 0.168 114 114 121
-104.7894 -33.4545 -16.1200 0.174 0.970 -0.171 176 176 183
-120.1130 -34.1690 -19.1509 0.275 0.955 0.106 122 122 122
-271.4915 -39.6897 -48.9538 0.628 -0.748 0.214 146 140 135
-289.1063 -37.9568 -52.2072 0.473 0.881 -0.007 119 112 108
-290.7981 -36.8646 -52.4361 0.962 -0.196 -0.190 125 117 108
-295.4492 -36.5013 -53.3037 0.801 -0.564 0.201 125 117 108
-296.4099 -35.9412 -53.4391 0.808 -0.554 0.198 125 117 108
-297.0842 -35.3636 -53.5174 0.676 -0.167 -0.717 125 117 108
-286.1942 -31.9635 -51.1023 0.688 -0.377 -0.620 128 124 114
-278.4791 -26.6449 -49.1285 0.545 -0.671 0.503 103 100 91
-311.4822 -26.3503 -55.4907 0.645 0.750 0.145 86 83 74
-262.4811 -24.3820 -45.8272 0.714 -0.621 -0.325 90 87 78
-278.9335 -22.7052 -48.8607 0.724 0.166 0.669 140 141 126
-279.8049 -20.4389 -48.8248 0.455 -0.876 0.162 73 76 59
-277.7242 -19.9129 -48.3745 0.431 -0.893 0.132 84 86 70
-278.1282 -19.3446 -48.4014 0.866 0.499 0.034 102 104 87
-275.8645 -18.2821 -47.8672 0.869 0.486 -0.095 97 101 80
-275.9754 -17.7240 -47.8383 0.811 -0.230 0.539 118 122 100
-275.7483 -17.1758 -47.7448 0.808 -0.234 0.541 110 114 92
-280.4928 0.4810 -47.0688 0.829 -0.420 0.369 104 91 87
-282.1447 1.2239 -47.3215 0.727 -0.626 0.283 109 95 92
-296.4705 14.2046 -48.9226 0.435 -0.063 0.898 129 129 116
-300.3582 16.6347 -49.4558 0.307 -0.301 0.903 128 129 114
-310.3215 21.4139 -50.9529 0.617 0.752 0.229 112 111 97
-280.8145 18.5305 -45.5012 0.623 0.674 0.397 93 92 77
-299.9484 46.2814 -46.6993 0.160 -0.514 0.843 98 98 88
-288.0372 46.9770 -44.3307 0.758 -0.162 -0.632 79 81 64
-279.4548 46.6497 -42.6988 0.761 0.404 0.508 54 54 37
-289.7511 52.1155 -44.1985 0.855 0.187 0.483 85 84 62
-289.9038 52.7424 -44.1714 0.855 0.187 0.483 78 76 56
-290.1369 53.3958 -44.1575 0.856 0.202 0.477 73 71 51
-302.5680 63.4637 -45.6548 0.916 -0.400 -0.021 89 87 80
-322.3893 72.9090 -48.6390 0.494 0.868 0.042 85 82 79
-323.3087 73.8915 -48.7283 0.564 0.820 -0.092 84 82 78
-318.2520 74.6693 -47.6791 0.786 -0.569 0.242 77 74 71
-305.3962 73.6490 -45.2826 0.510 -0.337 0.792 85 77 81
-302.8375 73.2837 -44.8203 0.373 -0.221 0.901 85 78 82
-287.5765 70.8706 -42.0839 0.882 0.112 -0.459 97 90 92
-283.5943 70.9729 -41.3038 0.988 -0.129 0.090 74 65 65
-281.3911 70.6384 -40.9075 0.995 -0.023 -0.097 82 73 74
-285.2283 72.7618 -41.4586 0.988 0.032 -0.154 74 65 66
-284.0116 72.8260 -41.2172 0.999 0.029 -0.020 72 63 64
-311.9646 86.8263 -45.3642 0.488 -0.088 0.868 66 58 55
-220.2696 56.4442 -30.3571 0.958 0.022 -0.287 40 36 25
-259.7694 76.9374 -36.1531 0.428 0.869 0.247 56 47 39
-265.8913 80.3766 -37.0276 0.434 0.873 0.220 62 53 44
-281.7291 88.5298 -39.3573 0.662 0.706 0.250 69 62 52
-283.5292 92.1857 -39.3756 0.549 -0.607 0.575 69 62 54
-300.0200 112.2427 -40.7568 0.812 -0.581 -0.062 55 52 45
-304.7227 135.9337 -39.5279 0.707 0.648 0.284 40 36 33
-306.2691 137.5042 -39.6854 0.729 0.618 0.295 40 36 32
-325.3472 152.7001 -42.0064 0.696 0.332 0.637 44 39 32
-317.1923 151.9165 -40.4985 0.412 -0.203 0.888 54 47 37
-316.3361 151.9851 -40.3266 0.417 -0.236 0.878 58 51 41
-320.3590 156.5395 -40.6941 0.937 0.344 0.058 69 62 52
-315.7967 154.7664 -39.9710 0.569 0.456 0.685 73 67 55
-329.2453 174.2729 -40.8130 0.814 -0.220 -0.538 58 51 41
-327.3683 173.6009 -40.5103 0.812 -0.324 -0.485 59 52 44
-326.6658 173.7542 -40.3605 0.776 -0.389 -0.496 59 50 45
-118.3633 -80.4239 -23.1698 0.357 0.015 0.934 96 105 104
-118.5592 -80.3994 -23.2059 0.402 0.034 0.915 83 93 94
-118.2362 -79.9624 -23.1031 0.742 -0.578 0.339 98 108 109
-125.9339 -79.0951 -24.5342 0.605 0.297 0.739 141 150 155
-126.4012 -79.2240 -24.6374 0.558 0.446 0.700 150 160 162
-126.1811 -78.8705 -24.5623 0.558 0.457 0.692 138 148 150
-126.4008 -78.8242 -24.6012 0.495 0.795 0.351 106 115 122
-126.7308 -78.8533 -24.6686 0.632 0.769 0.096 88 97 107
-126.9573 -78.8092 -24.7090 0.638 0.763 0.099 93 103 116
-127.0431 -78.6672 -24.7130 0.641 0.763 0.083 110 119 134
-127.4988 -78.7785 -24.8124 0.856 -0.012 -0.517 129 138 153
-128.3721 -79.1727 -25.0193 0.656 0.079 -0.751 144 153 168
-128.5944 -79.1195 -25.0581 0.656 -0.273 -0.704 149 158 173
-108.9177 -57.3837 -19.2353 0.610 -0.585 0.535 130 140 142
-108.7209 -57.1233 -19.1732 0.613 -0.610 0.502 141 151 153
-108.8068 -57.0163 -19.1803 0.779 -0.571 0.260 142 150 153
-113.1517 -58.2071 -20.1399 0.493 0.452 -0.743 122 130 132
-113.9035 -57.9345 -20.2627 0.612 0.416 -0.672 114 118 127
-138.2220 -66.9602 -25.8470 0.532 -0.834 -0.149 184 192 211
-151.0181 -70.9486 -28.7166 0.827 0.528 0.192 192 201 220
-151.4025 -70.6038 -28.7608 0.498 -0.866 -0.038 208 219 227
-149.5855 -69.5342 -28.3079 0.445 -0.895 -0.027 121 132 135
-132.3681 -46.0677 -22.8109 0.486 -0.778 0.398 59 59 50
-293.4892 -45.3833 -54.3429 0.522 -0.723 0.452 143 141 130
-270.8488 -40.6978 -49.4799 0.558 0.829 -0.025 142 139 129
-268.6449 -39.4528 -48.9352 0.499 0.866 0.009 138 137 124
-287.9986 -37.8488 -52.5853 0.488 0.873 -0.024 110 109 96
-288.1396 -36.6805 -52.5074 0.554 -0.794 -0.249 114 116 95
-289.0697 -35.5483 -52.5874 0.684 -0.727 -0.060 114 117 94
-275.8681 -33.8120 -49.8418 0.718 0.121 -0.685 101 104 81
-276.0718 -33.2624 -49.8321 0.727 0.126 -0.675 101 104 81
-276.4589 -32.7188 -49.8589 0.731 0.128 -0.670 101 104 81
-278.4841 -29.4122 -49.9571 0.881 0.022 0.473 113 120 94
-285.3704 -27.8272 -51.1642 0.684 -0.537 0.494 113 120 94
-274.8065 -21.5753 -48.5277 0.717 0.017 0.697 63 76 46
-277.9691 -20.4168 -49.0432 0.758 -0.006 0.653 75 88 58
-274.4633 -19.9224 -48.3111 0.540 -0.837 0.093 80 93 63
-275.6045 -18.7911 -48.4326 0.871 0.482 -0.092 92 104 74
-275.9595 -18.2270 -48.4512 0.869 0.486 -0.095 109 121 88
-274.3217 -17.7184 -48.0841 0.813 -0.200 0.547 99 112 78
-273.7705 -17.1841 -47.9277 0.805 -0.206 0.556 87 99 66
-273.0343 -16.6587 -47.7359 0.816 -0.097 0.570 77 90 56
-274.0831 -16.0728 -47.8886 0.899 -0.322 0.296 72 85 51
-273.2849 -15.5529 -47.6851 0.883 -0.315 0.349 72 85 51
-276.9460 -14.8547 -48.3399 0.666 0.312 -0.677 72 85 51
-307.5309 -11.0783 -53.9959 0.684 -0.703 -0.197 83 94 67
-280.6706 0.5635 -47.6768 0.825 -0.421 0.377 60 51 42
-265.7678 3.1998 -44.5163 0.737 0.319 0.595 173 158 157
-260.7996 4.1207 -43.4588 0.710 0.574 0.407 171 156 156
-299.6550 12.9462 -50.2802 0.500 -0.057 0.864 117 125 99
-297.3122 14.4092 -49.6886 0.444 0.000 0.896 117 121 99
-302.6627 18.3154 -50.3848 0.659 0.747 0.093 98 106 77
-299.3356 44.3920 -47.3756 0.979 0.169 0.113 153 158 144
-289.0843 45.6434 -45.2524 0.747 -0.288 -0.598 90 100 73
-287.2468 50.2709 -44.4738 0.417 0.843 0.339 66 74 44
-289.8096 51.6476 -44.8520 0.772 -0.010 0.635 72 80 48
-290.7113 53.0924 -44.8982 0.854 0.206 0.478 77 86 53
-290.8780 53.7268 -44.8735 0.854 0.206 0.478 71 79 49
-286.9990 53.6263 -44.1220 0.335 0.011 0.942 115 124 91
-282.0680 52.5808 -43.2496 0.746 -0.162 0.646 118 126 97
-287.0065 55.9154 -43.9166 0.482 0.872 0.082 130 135 125
-301.2334 63.1049 -46.0565 0.932 -0.361 -0.011 100 104 94
-298.3825 62.7205 -45.5323 0.518 -0.715 0.469 90 92 84
-287.1375 71.3676 -42.5457 0.963 -0.199 -0.183 92 86 86
-286.2774 71.5914 -42.3569 0.930 -0.360 -0.074 66 57 57
-284.3844 71.3933 -42.0036 0.987 0.061 -0.151 67 59 57
-284.4129 71.9677 -41.9573 0.987 0.061 -0.151 77 69 67
-309.5452 85.9231 -45.6241 0.484 -0.126 0.866 74 69 65
-308.6765 90.5145 -45.0388 0.538 -0.716 0.445 93 89 80
-282.1743 89.9638 -39.8918 0.637 0.726 0.261 72 64 54
-284.1015 91.4624 -40.1343 0.720 0.629 0.293 63 56 45
-281.7560 91.4207 -39.6782 0.469 -0.306 0.828 75 68 58
-292.4850 113.4769 -39.7886 0.181 0.223 0.958 52 50 39
-314.6657 129.1071 -42.7253 0.312 0.658 0.685 60 58 47
-128.4839 24.1760 -15.7008 0.939 -0.214 -0.271 55 50 44
-304.3094 136.4165 -40.0340 0.842 0.393 0.370 46 42 39
-308.4348 146.3331 -39.9467 0.658 0.234 0.715 53 48 39
-320.3799 156.7063 -41.3515 0.937 0.344 0.058 66 62 53
-307.2827 151.6520 -39.2401 0.566 0.664 0.489 63 59 47
-293.0345 143.1375 -37.2157 0.428 0.600 0.676 56 52 40
-118.2770 -80.1899 -23.3124 0.388 0.052 0.920 83 93 94
-118.1519 -79.9105 -23.2622 0.740 -0.581 0.340 97 107 108
-126.3763 -79.4191 -24.8511 0.620 0.472 0.626 141 150 155
-126.3555 -79.2047 -24.8276 0.609 0.470 0.639 150 160 162
-126.2188 -78.9094 -24.7737 0.654 0.501 0.567 138 148 151
-126.3751 -78.8188 -24.7966 0.630 0.549 0.550 106 115 122
-126.8288 -78.9337 -24.8971 0.598 0.759 0.260 98 106 116
-126.9608 -78.8240 -24.9134 0.598 0.759 0.260 105 114 128
-127.0631 -78.6932 -24.9218 0.638 0.763 0.099 111 120 135
-127.6473 -78.8925 -25.0559 0.856 -0.012 -0.517 121 130 145
-128.5506 -79.3069 -25.2728 0.654 0.088 -0.752 133 142 157
-128.9732 -79.3895 -25.3642 0.656 -0.272 -0.704 145 154 169
-108.5866 -57.0551 -19.2952 0.544 -0.613 0.573 151 161 163
-114.1911 -58.0853 -20.5015 0.612 0.437 -0.659 110 114 123
-138.6085 -67.1465 -26.1702 0.541 -0.819 -0.189 184 192 211
-151.7951 -71.3036 -29.1651 0.818 -0.047 -0.574 192 201 220
-151.5235 -70.6605 -29.0530 0.498 -0.866 -0.038 213 224 232
-149.3922 -69.4502 -28.5202 0.482 -0.874 -0.062 126 137 141
-83.2336 -32.8206 -12.0682 0.015 0.504 0.864 45 48 41
-284.6963 -45.1657 -53.1942 0.511 -0.812 0.282 143 141 129
-278.9618 -43.5240 -51.9069 0.228 0.544 0.808 144 142 130
-269.0855 -39.9855 -49.6254 0.571 0.816 -0.088 116 117 103
-268.9023 -39.4306 -49.5389 0.568 0.819 -0.085 116 117 103
-278.2360 -38.9443 -51.3485 0.781 -0.550 -0.295 115 116 102
-284.1549 -37.5862 -52.4011 0.571 0.800 -0.185 84 85 71
-286.9829 -35.9895 -52.8183 0.981 -0.114 0.160 99 103 78
-266.4459 -20.5574 -47.3439 0.723 0.242 0.647 69 85 49
-266.6094 -20.0213 -47.3279 0.789 0.212 0.577 74 90 54
-266.8251 -19.4834 -47.3220 0.723 0.242 0.647 81 97 61
-273.5134 -17.6891 -48.4880 0.805 -0.206 0.556 94 108 73
-275.0543 -16.5376 -48.6898 0.712 -0.125 0.691 71 85 50
-274.7985 -15.4408 -48.5398 0.709 -0.125 0.694 67 81 46
-285.4109 -14.4521 -50.5580 0.741 -0.087 0.666 67 81 46
-301.8841 -11.3019 -53.5445 0.574 -0.765 -0.293 63 78 47
-275.4047 -11.5406 -48.3074 0.627 -0.754 0.197 67 82 51
-279.9031 0.5452 -48.1076 0.849 -0.449 0.278 64 60 47
-255.0327 3.4127 -42.9091 0.614 -0.334 0.715 76 62 59
-295.1772 12.9564 -50.0183 0.748 -0.012 0.663 76 87 57
-295.9143 14.2669 -50.0461 0.455 -0.088 0.886 76 81 58
-303.5803 19.1644 -51.1256 0.661 0.742 0.110 62 72 38
-292.5936 22.0271 -48.6847 0.503 0.802 0.322 74 89 50
-296.7799 28.2199 -48.9559 0.588 0.672 0.450 87 102 63
-295.0575 28.4527 -48.5928 0.557 0.688 0.465 82 97 58
-259.0204 29.4101 -41.3494 0.879 -0.474 0.048 104 116 80
-294.9361 42.6875 -47.2811 0.998 -0.067 0.019 114 121 104
-301.9652 46.4208 -48.3394 0.212 -0.311 0.927 129 137 116
-297.3400 45.7334 -47.4830 0.157 -0.503 0.850 112 119 100
-291.4788 45.2585 -46.3619 0.733 -0.277 -0.621 110 118 99
-291.2281 53.9330 -45.5275 0.925 0.173 0.337 85 94 63
-283.9114 53.8419 -44.0827 0.457 -0.041 0.889 124 132 110
-302.8385 63.1503 -46.9995 0.939 -0.343 0.024 137 144 129
-301.7365 63.3793 -46.7600 0.945 -0.323 0.046 140 147 132
-299.5618 63.2302 -46.3416 0.517 -0.708 0.481 148 154 140
-310.0031 73.7426 -47.4643 0.636 -0.732 0.244 141 142 138
-301.2287 71.6717 -45.9090 0.510 -0.536 0.672 143 142 140
-291.8048 73.3364 -43.8869 0.586 0.802 0.114 85 81 78
-285.8285 71.5126 -42.8650 0.947 -0.316 -0.061 58 53 49
-284.4842 71.5351 -42.5960 0.987 0.061 -0.151 59 54 49
-280.0469 72.5020 -41.6273 0.974 0.213 0.082 84 80 71
-280.1827 73.1112 -41.5992 0.974 0.213 0.082 81 77 69
-305.6936 84.4144 -45.6431 0.500 -0.330 0.801 73 70 63
-305.1582 84.8007 -45.5018 0.493 -0.326 0.806 67 64 57
-298.5438 86.1683 -44.0645 0.512 -0.407 0.756 82 79 70
-288.9145 86.5055 -42.1217 0.630 -0.776 0.037 74 71 64
-284.8734 88.5833 -41.1312 0.968 -0.249 0.026 78 71 63
-316.0986 116.1452 -44.8393 0.288 -0.425 0.858 68 65 60
-276.2035 98.5009 -38.5124 0.746 -0.636 -0.200 76 73 67
-269.9742 96.2010 -37.4833 0.724 -0.676 -0.137 77 74 68
-280.9958 104.3784 -38.9324 0.340 -0.001 0.941 79 76 69
-303.7304 123.5563 -41.7127 0.340 0.676 0.654 68 65 59
-305.9199 141.1996 -40.5516 0.850 0.234 0.472 50 43 33
-299.1247 137.4323 -39.5429 0.926 0.039 0.374 51 43 33
-298.5324 156.4077 -37.7088 0.387 0.594 0.706 49 42 34
-118.0420 -79.8382 -23.4141 0.869 -0.426 0.252 95 105 106
-117.6889 -79.3793 -23.3016 0.912 0.126 -0.391 112 122 123
-117.6904 -79.0230 -23.2696 0.772 0.569 -0.284 140 150 151
-117.9391 -79.0390 -23.3211 0.750 0.569 -0.336 141 151 152
-118.4745 -79.2776 -23.4503 0.698 0.465 -0.544 141 151 152
-126.3940 -79.4445 -25.0581 0.727 0.489 0.482 138 147 152
-126.3023 -78.9804 -24.9976 0.811 -0.541 0.225 141 150 155
-126.7746 -78.9085 -25.0861 0.626 0.773 0.103 110 119 129
-126.9069 -78.7991 -25.1028 0.626 0.773 0.103 117 127 140
-127.7348 -78.9648 -25.2843 0.871 0.015 -0.491 120 129 144
-128.8117 -79.0858 -25.5118 0.744 -0.118 -0.658 152 161 176
-109.3219 -57.6128 -19.6484 0.644 -0.740 -0.194 149 159 161
-108.5005 -57.0130 -19.4289 0.750 -0.654 -0.094 147 157 159
-108.0490 -56.4649 -19.2885 0.836 0.530 0.146 156 164 166
-114.3543 -58.1726 -20.7111 0.612 0.437 -0.659 75 79 88
-147.1593 -71.4486 -28.5102 0.460 -0.887 -0.038 137 145 164
-138.8188 -67.2495 -26.4527 0.552 -0.818 -0.160 183 191 210
-151.8645 -71.3378 -29.4464 0.776 -0.019 -0.630 192 201 220
-151.9122 -70.8372 -29.4107 0.491 -0.869 -0.055 216 227 235
-149.9097 -69.6832 -28.9035 0.482 -0.854 -0.196 135 146 150
-103.4914 -34.0445 -16.3422 -0.057 -0.518 0.853 108 111 104
-274.8183 -43.1383 -51.6200 0.206 0.557 0.805 144 142 130
-270.5645 -40.0510 -50.4851 0.582 -0.755 0.302 72 73 59
-278.4500 -38.9156 -51.9681 0.781 -0.550 -0.295 72 73 59
-281.2410 -37.9494 -52.4419 0.606 0.774 -0.180 71 72 58
-264.3237 -20.0159 -47.4162 0.747 0.292 0.598 66 83 47
-273.7398 -18.1807 -49.1437 0.724 -0.183 0.665 97 111 76
-273.6611 -17.6323 -49.0782 0.724 -0.183 0.665 87 101 66
-273.7957 -16.5269 -49.0052 0.698 -0.163 0.698 64 78 43
-274.3929 -15.9545 -49.0735 0.701 -0.163 0.694 60 74 39
-273.2130 -15.4485 -48.7904 0.675 -0.267 0.688 60 74 39
-284.3708 -14.4383 -50.9428 0.809 -0.024 0.588 60 74 39
-276.9017 -11.4007 -49.1658 0.603 -0.758 0.248 72 87 54
-262.2657 -10.6544 -46.1548 0.568 -0.359 0.741 73 88 54
-264.4894 -9.4599 -46.4939 0.677 -0.649 0.347 58 74 37
-264.5486 -7.3485 -46.3147 0.407 -0.755 0.515 59 75 38
-279.6639 1.1456 -48.5854 0.716 -0.639 0.279 68 68 50
-258.5286 2.4084 -44.2207 0.803 -0.197 0.563 86 80 68
-294.9685 15.9870 -50.3196 0.717 0.677 0.168 70 79 48
-301.4984 18.8890 -51.3701 0.717 0.681 0.150 77 87 53
-270.6696 15.8024 -45.4497 0.668 -0.351 -0.657 70 80 46
-275.0270 18.2309 -46.1062 0.718 0.694 0.061 62 77 38
-272.4212 18.2860 -45.5771 0.612 -0.483 -0.627 63 78 39
-289.4105 23.2510 -48.5443 0.918 0.002 -0.397 65 80 41
-293.8663 27.6869 -49.0388 0.596 0.647 0.476 73 88 49
-298.4831 31.6810 -49.6056 0.594 0.687 0.418 91 103 65
-295.0310 45.1761 -47.6897 0.805 -0.527 -0.273 89 98 73
-293.8430 45.4329 -47.4275 0.778 -0.230 -0.585 87 95 72
-283.4378 47.5713 -45.1414 0.854 -0.393 -0.340 59 72 42
-288.7500 50.3450 -45.9586 0.716 0.693 0.082 62 73 41
-282.6341 49.5765 -44.7982 0.873 -0.290 -0.391 73 83 49
-283.5725 52.6937 -44.7047 0.335 0.010 0.942 82 92 57
-303.7735 63.5723 -47.7824 0.940 -0.342 -0.011 109 116 96
-302.2282 63.6503 -47.4646 0.943 -0.332 0.011 131 139 118
-319.1213 72.0804 -50.0986 0.615 0.788 -0.026 159 162 150
-305.1529 72.6501 -47.2380 0.428 -0.675 0.601 139 140 132
-291.8600 73.4626 -44.4911 0.586 0.802 0.114 79 76 67
-286.0453 71.7018 -43.4812 0.957 -0.289 -0.005 52 49 38
-279.8378 73.0680 -42.1092 0.985 0.135 -0.110 123 121 108
-279.8729 86.8611 -40.8675 0.951 -0.309 0.037 67 60 51
-284.7912 90.9014 -41.4908 0.696 0.654 0.296 67 63 54
-282.9628 91.1270 -41.1027 0.693 0.664 0.280 62 55 47
-280.9851 90.7088 -40.7429 0.815 -0.374 -0.443 72 68 59
-280.3870 91.5154 -40.5495 0.813 -0.378 -0.444 90 87 80
-281.6518 92.6988 -40.6968 0.567 -0.473 0.675 86 83 76
-292.3622 107.8864 -41.4757 0.786 -0.527 -0.325 84 81 75
-283.7026 104.8774 -40.0066 0.450 -0.109 0.886 84 81 76
-281.5046 104.2255 -39.6236 0.439 -0.047 0.897 85 82 77
-280.3039 104.1140 -39.3923 0.439 -0.058 0.897 87 84 76
-289.8293 113.3700 -40.4699 0.152 0.094 0.984 55 55 47
-275.6335 110.6626 -37.8602 0.671 0.509 0.540 66 59 55
-304.2316 131.2220 -41.7501 0.495 -0.523 0.694 60 57 50
-262.1845 106.7308 -35.5115 0.651 -0.750 0.120 47 44 39
-284.0762 125.1061 -38.2505 0.859 0.313 0.405 56 52 49
-285.0162 126.2574 -38.3353 0.728 0.477 0.492 55 51 48
-298.9550 136.8722 -40.1774 0.909 0.378 0.175 58 51 41
-298.4146 137.1135 -40.0469 0.885 0.409 0.224 58 50 41
-292.3683 134.3668 -39.0797 0.659 -0.208 0.723 60 52 41
-328.1065 173.9595 -42.6824 0.633 -0.060 0.772 53 49 40
-279.4496 142.2499 -35.7680 0.441 -0.322 0.838 56 49 41
-118.0554 -79.8638 -23.5996 0.786 0.010 0.619 93 103 104
-117.6713 -79.3801 -23.4776 0.914 0.128 -0.384 106 116 117
-117.6752 -79.0256 -23.4462 0.764 0.592 -0.257 137 147 148
-118.5546 -79.3547 -23.6551 0.682 0.481 -0.551 141 151 152
-126.0821 -78.8390 -25.1411 0.894 -0.447 0.030 144 153 158
-126.6511 -78.8353 -25.2566 0.621 0.778 0.092 126 134 145
-128.0222 -79.1743 -25.5665 0.927 0.219 -0.304 124 133 148
-128.7852 -79.2859 -25.7320 0.869 -0.370 0.328 142 151 166
-108.3849 -56.9548 -19.5548 0.885 -0.260 -0.386 155 165 166
-108.3350 -56.7752 -19.5284 0.885 -0.317 -0.341 149 157 159
-108.0276 -56.4577 -19.4370 0.836 0.530 0.146 141 149 151
-108.2648 -56.4326 -19.4830 0.556 0.560 0.614 109 117 119
-115.0918 -58.5535 -21.0653 0.610 -0.790 -0.062 59 63 72
-146.2116 -71.0012 -28.5297 0.470 -0.879 -0.082 120 128 147
-151.7583 -71.2923 -29.6854 0.804 -0.137 -0.579 193 202 221
-152.2729 -71.0014 -29.7638 0.505 -0.849 -0.156 209 219 227
-149.9961 -69.7240 -29.1845 0.478 -0.861 -0.175 167 178 182
-87.6803 -35.7747 -13.4199 0.150 0.698 0.700 83 84 79
-103.1924 -33.8482 -16.4039 -0.071 -0.439 0.896 116 118 113
-108.3544 -33.5550 -17.4284 0.217 0.971 -0.104 112 113 117
-270.9947 -41.6848 -51.2813 0.679 0.734 -0.001 130 128 116
-273.4799 -40.7717 -51.7046 0.684 0.730 -0.009 103 101 89
-280.0245 -38.4039 -52.8226 0.737 0.654 -0.169 67 68 54
-275.9651 -33.6825 -51.5683 0.296 0.817 0.495 68 72 47
-276.8456 -30.3547 -51.4460 0.597 -0.486 -0.639 68 77 48
-270.4971 -16.5867 -48.9059 0.681 0.148 0.717 60 74 39
-260.0750 -15.9089 -46.7223 0.511 -0.192 0.838 55 69 34
-270.4782 -14.4166 -48.7054 0.842 0.002 0.540 55 69 34
-301.3005 -11.8251 -54.7465 0.538 -0.778 -0.324 65 80 47
-302.6376 -11.1390 -54.9566 0.537 -0.780 -0.320 65 80 47
-301.6628 -10.5709 -54.7066 0.537 -0.780 -0.320 65 80 47
-280.5883 -10.5702 -50.4155 0.557 -0.823 -0.109 64 79 46
-263.3549 -8.9582 -46.7604 0.740 -0.642 0.203 63 79 42
-277.7320 -6.8219 -49.4942 0.535 -0.662 0.525 67 83 46
-289.2819 5.1933 -50.7573 0.280 0.675 0.683 77 83 58
-280.8196 4.7273 -49.0765 0.893 0.046 0.448 76 78 57
-301.9456 17.1994 -52.2480 0.937 0.048 -0.346 73 82 51
-305.8286 19.7043 -52.8117 0.415 -0.201 0.888 73 83 49
-289.2992 17.4735 -49.6482 0.723 -0.436 -0.536 73 83 49
-289.6910 23.3838 -49.1924 0.918 0.002 -0.397 67 82 43
-273.1875 22.3101 -45.9293 0.827 -0.006 0.562 76 91 52
-280.1290 28.7840 -46.7561 0.474 0.543 0.693 83 95 57
-280.5504 29.4408 -46.7824 0.465 0.588 0.662 82 94 56
-283.2469 31.1967 -47.1724 0.581 0.475 0.661 79 91 53
-213.9353 18.8731 -34.1760 0.876 0.220 0.429 82 94 58
-297.4050 46.5331 -48.6656 0.223 -0.433 0.873 84 94 62
-291.5151 45.4479 -47.5646 0.742 -0.252 -0.622 93 102 71
-288.7219 50.4279 -46.5447 0.842 -0.492 -0.222 55 66 34
-281.1312 50.8701 -44.9590 0.350 0.620 0.702 77 86 55
-298.1354 62.3360 -47.3824 0.845 -0.332 -0.420 85 93 67
-289.2879 60.4305 -45.7536 0.835 -0.458 -0.305 103 112 87
-319.4346 72.3013 -50.8164 0.615 0.788 -0.026 117 122 103
-307.5645 69.9441 -48.6130 0.410 0.869 -0.279 117 121 104
-312.0721 74.7344 -49.0968 0.742 -0.531 0.409 150 153 138
-309.6093 74.4368 -48.6223 0.728 -0.509 0.459 143 145 130
-292.9183 73.9911 -45.2641 0.587 0.799 0.132 72 70 54
-280.3777 71.7347 -42.9151 0.988 -0.036 -0.150 112 109 92
-279.7415 74.7849 -42.5092 0.767 0.150 0.624 158 155 146
-287.0336 89.8346 -42.6303 0.345 0.641 0.686 88 82 70
-285.5327 91.3738 -42.1853 0.640 0.669 0.377 69 63 51
-287.7458 93.0192 -42.4868 0.760 -0.592 -0.269 60 52 41
-283.2591 91.3839 -41.7214 0.682 0.716 0.149 56 50 39
-281.8086 91.7805 -41.3901 0.740 -0.297 -0.604 74 69 59
-287.8650 95.9215 -42.2481 0.651 0.718 0.247 67 64 55
-295.6287 103.3292 -43.1577 0.773 0.523 -0.359 47 44 35
-293.4719 106.8670 -42.3980 0.578 -0.561 0.593 80 77 68
-285.4436 103.1429 -41.1007 0.813 -0.476 -0.335 84 81 73
-284.6245 103.2634 -40.9230 0.833 -0.493 -0.251 87 84 75
-287.6278 105.4475 -41.3367 0.579 0.266 0.771 83 80 71
-287.6694 106.0367 -41.2917 0.539 0.236 0.808 79 76 68
-286.4505 105.9382 -41.0525 0.530 0.211 0.821 78 75 66
-289.5957 110.5089 -41.2787 0.285 -0.165 0.944 70 67 56
-290.3181 115.4881 -40.9747 0.576 0.803 -0.153 72 69 58
-310.3258 128.8758 -43.8356 0.395 -0.246 0.885 87 83 75
-304.8039 126.2598 -42.9482 0.579 -0.410 0.704 86 83 75
-305.1664 127.0785 -42.9479 0.607 -0.537 0.586 86 83 75
-305.8887 129.3269 -42.8912 0.517 0.315 0.795 76 72 64
-309.6504 134.0315 -43.2309 0.475 -0.536 0.698 75 70 64
-308.5249 133.9646 -43.0078 0.490 -0.536 0.687 74 69 65
-285.0406 126.9598 -38.8607 0.846 0.328 0.420 61 57 53
-306.9652 145.8044 -41.6174 0.663 0.212 0.718 66 61 50
-306.7232 146.8601 -41.4725 0.565 -0.175 0.806 64 59 49
-277.0392 139.5807 -36.0879 0.878 0.338 0.338 62 55 47
-275.5434 139.0436 -35.8320 0.852 0.372 0.369 62 55 47
-118.0448 -79.8704 -23.7787 0.890 0.366 -0.274 91 101 102
-117.8695 -79.5518 -23.7136 0.879 0.113 -0.463 102 112 113
-117.8141 -79.1494 -23.6657 0.847 0.242 -0.473 132 142 143
-118.5981 -79.4033 -23.8504 0.681 0.500 -0.535 141 151 152
-126.1023 -78.8657 -25.3485 0.842 -0.527 -0.117 145 154 159
-126.8981 -79.0192 -25.5265 0.501 0.799 0.331 126 134 145
-127.0730 -78.9387 -25.5552 0.508 0.802 0.314 133 142 157
-127.2649 -78.8691 -25.5884 0.530 0.786 0.319 127 136 151
-112.9903 -60.1122 -20.9450 0.579 -0.273 0.768 131 141 143
-108.4171 -56.5182 -19.6764 0.566 0.520 0.640 79 87 89
-115.6922 -59.0355 -21.4043 0.615 -0.786 -0.060 162 167 172
-115.0793 -58.5510 -21.2340 0.598 -0.798 -0.074 55 59 68
-145.9111 -70.8619 -28.7059 0.465 -0.883 -0.063 110 118 137
-138.7886 -67.2419 -26.9094 0.537 -0.830 -0.154 167 175 194
-152.2017 -70.9719 -30.0126 0.512 -0.842 -0.169 201 212 220
-149.9428 -69.7025 -29.4318 0.481 -0.865 -0.145 188 199 203
-87.3195 -36.9433 -13.5524 0.139 0.937 0.321 150 151 155
-86.9338 -36.5268 -13.4351 0.093 0.925 0.369 125 131 145
-87.8087 -35.7103 -13.5414 0.202 0.979 0.034 80 81 75
-81.7179 -32.1067 -11.9591 -0.029 -0.105 0.994 125 130 132
-271.1848 -43.3066 -52.0300 0.204 0.646 0.736 126 124 112
-274.4494 -41.9155 -52.5767 0.243 0.543 0.803 112 110 98
-273.0288 -41.2514 -52.2237 0.674 0.738 0.040 90 88 76
-270.4445 -37.2306 -51.3263 0.733 0.680 0.038 63 64 50
-280.3211 -36.6680 -53.3112 0.779 -0.615 0.120 63 64 49
-287.9742 -35.3116 -54.7658 0.547 -0.819 0.172 62 66 41
-280.4624 -32.1137 -52.9273 0.766 -0.502 0.403 62 67 41
-257.2807 -26.1990 -47.6125 0.641 -0.058 -0.765 70 84 51
-252.4634 -20.1525 -46.0711 0.920 0.029 0.392 58 75 39
-280.5779 25.5974 -47.7176 0.558 0.830 -0.002 69 84 45
-296.2611 30.7528 -50.4829 0.533 0.697 0.481 72 87 48
-266.9820 29.5533 -44.5563 0.468 0.649 0.599 81 93 55
-279.9476 36.6460 -46.5857 0.456 0.676 0.579 76 88 52
-282.0991 40.0269 -46.7226 0.293 0.905 0.308 89 100 60
-296.4487 45.7558 -49.1610 0.796 -0.498 -0.344 93 104 64
-292.0141 45.6805 -48.2537 0.742 -0.252 -0.622 93 103 68
-291.7567 46.1926 -48.1542 0.742 -0.252 -0.622 92 103 69
-285.3742 47.2010 -46.7471 0.717 -0.471 -0.514 54 67 37
-289.1408 50.0707 -47.2633 0.822 -0.558 0.112 56 67 35
-287.1389 51.1760 -46.7504 0.829 -0.556 0.050 61 71 37
-277.2902 50.2721 -44.8022 0.453 0.040 0.891 72 82 48
-301.8591 63.7255 -48.6467 0.912 -0.406 0.061 62 72 39
-290.1679 62.5753 -46.3410 0.624 -0.274 0.732 55 61 37
-288.4478 62.5344 -45.9902 0.759 0.639 -0.126 55 61 37
-326.0522 80.7510 -52.0897 0.616 0.730 -0.295 102 105 84
-295.0239 70.8119 -46.5951 0.506 -0.158 0.848 108 110 91
-285.9952 71.8858 -44.6366 0.957 -0.289 -0.005 67 65 42
