ply
format ascii 1.0
element vertex 875
property float x
property float y
property float z
property float nx
property float ny
property float nz
property uchar diffuse_red
property uchar diffuse_green
property uchar diffuse_blue
end_header
-45.3607 58.1930 -43.4305 0.804 -0.301 -0.513 49 58 41
-36.8215 71.3916 -41.9343 0.913 -0.175 0.370 77 77 65
-34.3927 82.4095 -42.3188 0.961 -0.248 -0.119 66 57 58
-34.3642 82.8242 -42.3552 0.960 -0.251 -0.124 67 58 59
-35.0994 83.7263 -42.7113 0.950 -0.222 -0.219 68 59 60
-35.0130 84.1091 -42.7240 0.950 -0.222 -0.219 69 59 60
-36.5438 90.0680 -43.9207 0.990 -0.079 -0.119 63 59 58
-31.1225 95.0820 -42.5954 0.816 -0.334 0.471 47 43 40
-31.5516 96.3580 -42.8869 0.932 -0.233 0.276 46 40 40
-24.1172 112.8330 -42.1401 0.035 -0.852 0.522 82 70 70
-49.0801 29.3529 -41.8388 0.674 -0.584 -0.452 54 78 45
-47.3817 41.1098 -42.5745 0.533 -0.726 -0.434 50 69 39
-44.3371 42.8001 -41.7010 0.658 -0.733 -0.173 54 68 45
-44.2423 43.7342 -41.7735 0.631 -0.776 -0.011 52 65 44
-43.4243 44.7765 -41.6053 0.325 -0.921 -0.214 53 65 29
-44.2288 56.3215 -43.1922 0.990 0.116 -0.078 60 64 47
-43.7630 56.4975 -43.0492 0.993 0.079 -0.088 61 65 48
-39.6891 56.9984 -41.6813 0.922 0.275 -0.273 52 61 44
-40.3920 59.8152 -42.2457 0.609 -0.209 0.765 60 68 53
-37.1606 63.1498 -41.4928 0.201 -0.713 0.672 47 57 47
-36.9582 63.7987 -41.4954 0.262 -0.034 0.965 73 80 68
-36.6952 71.3646 -42.2590 0.913 -0.175 0.370 111 104 100
-35.1319 82.4889 -42.9704 0.965 -0.259 -0.036 66 58 56
-34.9876 84.1414 -43.1068 0.930 -0.152 -0.335 68 59 60
-35.2147 84.7273 -43.2525 0.948 -0.149 -0.282 68 59 60
-31.8431 96.1567 -43.3660 0.914 -0.210 0.347 51 46 45
-33.6777 100.4873 -44.4972 0.896 0.158 0.414 51 45 45
-26.3495 99.5571 -41.8295 0.385 0.084 0.919 64 57 58
-26.3179 101.9834 -42.0929 0.705 0.162 0.690 68 58 59
-20.5044 122.5936 -42.3907 0.418 -0.145 0.897 111 97 96
-54.1142 32.7401 -44.3300 -0.022 -0.958 -0.286 43 63 35
-47.8090 41.2509 -43.0879 0.532 -0.724 -0.439 50 69 39
-47.7801 41.5637 -43.1135 0.499 -0.655 -0.566 50 69 39
-42.1795 42.5066 -41.2517 0.455 -0.574 -0.681 56 69 49
-43.0729 43.7277 -41.7059 0.442 -0.834 0.331 59 71 48
-44.2493 44.4076 -42.1977 0.101 -0.865 0.491 53 66 38
-46.9912 49.2826 -43.7210 0.989 0.128 -0.076 57 69 49
-47.2707 50.7570 -43.9883 0.450 -0.751 0.484 50 62 42
-42.9705 53.3895 -42.7775 0.944 -0.269 -0.189 55 64 45
-37.1577 62.8131 -41.8133 0.241 -0.235 0.942 124 133 129
-36.8356 63.0333 -41.7252 0.207 -0.713 0.670 127 137 132
-36.4758 63.2350 -41.6218 0.207 -0.713 0.670 130 139 132
-36.1048 65.6762 -41.7711 0.296 0.023 0.955 155 152 142
-36.3577 71.2250 -42.4962 0.868 -0.238 0.435 50 39 38
-36.3793 71.6338 -42.5507 0.867 -0.227 0.444 49 35 37
-36.4880 72.0909 -42.6413 0.881 -0.246 0.404 61 47 49
-36.4329 72.4612 -42.6644 0.802 -0.456 0.385 71 58 59
-32.9804 74.1515 -41.6438 0.496 -0.244 0.834 80 60 74
-32.7644 74.4301 -41.5997 0.497 -0.247 0.832 83 66 77
-34.4090 77.8469 -42.5699 0.686 -0.192 -0.702 62 58 55
-34.9957 79.8799 -43.0093 0.661 -0.728 -0.181 68 60 58
-34.8564 80.2197 -42.9993 0.744 -0.612 -0.267 68 60 58
-35.2517 84.3593 -43.6129 0.941 -0.322 -0.103 68 59 60
-35.5882 85.0169 -43.8066 0.922 -0.351 -0.164 68 59 60
-34.8661 84.9926 -43.5499 0.934 -0.336 -0.122 67 58 59
-36.8162 90.3583 -44.8509 0.957 0.021 0.288 44 40 39
-33.5051 92.2352 -43.9014 0.631 0.088 0.771 49 40 41
-31.7734 96.6409 -43.7974 0.907 -0.356 0.224 51 42 43
-33.6651 100.5377 -44.9095 0.753 0.191 0.629 70 61 62
-33.7323 101.0882 -44.9962 0.753 0.191 0.629 70 61 62
-26.2985 102.0292 -42.4894 0.699 0.167 0.696 74 64 65
-20.5215 110.0834 -41.3807 -0.089 -0.993 -0.072 91 81 79
-55.3470 33.0126 -45.1458 -0.022 -0.958 -0.286 40 58 32
-47.1375 36.4066 -42.6356 0.307 -0.371 0.876 39 52 34
-46.6104 37.5043 -42.5767 0.399 -0.174 0.900 49 62 44
-48.1765 41.6976 -43.6180 0.499 -0.655 -0.566 50 69 39
-47.3377 42.1074 -43.3688 0.494 -0.655 -0.571 57 73 47
-46.1014 42.7209 -43.0027 0.494 -0.655 -0.571 50 63 43
-42.6749 43.3129 -41.8592 0.657 -0.270 0.704 62 75 54
-43.7496 46.8953 -42.6557 0.765 -0.505 0.399 61 69 47
-37.3074 49.9664 -40.7333 0.432 -0.402 0.808 63 75 55
-39.3936 51.4007 -41.6380 0.689 -0.280 0.669 61 73 53
-36.8825 56.6044 -41.3542 0.653 -0.117 0.748 68 77 60
-36.6511 57.9149 -41.4246 0.655 -0.115 0.747 114 123 104
-36.5800 58.2388 -41.4371 0.655 -0.115 0.747 124 133 114
-35.4729 65.0271 -41.8342 0.306 0.026 0.952 78 70 67
-35.4641 68.4482 -42.2286 0.391 -0.552 0.736 24 29 28
-34.4439 69.0779 -41.9408 0.366 -0.520 0.771 29 29 29
-36.1495 71.5510 -42.8316 0.879 -0.230 0.419 41 28 31
-36.1526 78.9272 -43.6898 0.635 -0.186 -0.750 63 58 55
-36.0082 79.2641 -43.6778 0.620 -0.246 -0.745 63 58 55
-35.1186 83.4461 -43.8490 0.392 -0.097 0.915 54 44 43
-35.8836 84.3716 -44.2272 0.413 -0.071 0.908 54 45 46
-33.1167 86.5513 -43.5016 0.072 -0.314 0.947 50 45 42
-32.9211 86.8658 -43.4689 0.278 -0.311 0.909 49 44 41
-33.0913 91.0677 -44.0173 0.578 0.018 0.816 43 33 32
-33.2634 93.9931 -44.4182 0.509 -0.692 0.512 58 47 46
-33.0515 94.3113 -44.3802 0.513 -0.685 0.517 65 54 54
-33.1271 99.1922 -44.9740 0.744 0.200 0.637 83 72 71
-33.1984 99.7399 -45.0629 0.744 0.200 0.637 87 75 75
-33.2645 100.2860 -45.1497 0.749 0.198 0.632 87 75 75
-33.4468 100.9254 -45.2885 0.753 0.191 0.629 87 75 75
-34.8706 103.0515 -46.0393 0.684 -0.302 -0.664 90 80 79
-25.3362 98.8479 -42.1776 0.476 0.170 0.863 88 78 77
-20.4737 110.1071 -41.7655 -0.089 -0.993 -0.072 96 85 81
-23.1334 115.8959 -43.3791 0.676 -0.018 0.736 107 92 88
-56.0255 33.1718 -45.7571 -0.040 -0.962 -0.270 43 58 35
-44.8038 34.9663 -41.9750 0.857 -0.512 -0.065 42 55 37
-46.7519 38.4908 -43.0832 0.395 -0.203 0.896 55 70 49
-40.5465 48.8284 -42.0922 0.965 -0.147 -0.217 64 76 54
-39.0908 54.3946 -42.2296 0.585 -0.266 0.766 88 92 75
-36.6156 56.5245 -41.5996 0.653 -0.117 0.748 141 150 134
-36.5441 56.8447 -41.6118 0.653 -0.117 0.748 143 151 135
-36.3456 61.4063 -42.0783 0.270 -0.236 0.933 90 95 98
-35.8089 62.9918 -42.0740 0.210 -0.717 0.664 52 57 56
-34.8233 66.2496 -42.1069 0.366 0.087 0.927 27 24 25
-34.8469 74.8950 -43.1333 0.545 -0.277 -0.792 65 53 55
-34.8484 76.9486 -43.3756 0.525 -0.343 -0.779 67 57 55
-35.2956 77.6262 -43.6146 0.635 -0.330 -0.699 66 58 56
-35.8315 78.7815 -43.9413 0.954 0.051 0.297 63 55 53
-35.9029 79.2465 -44.0215 0.956 0.037 0.291 62 54 52
-35.9041 79.6712 -44.0719 0.956 0.037 0.291 61 53 51
-36.1683 81.1134 -44.3358 0.068 -0.486 0.872 66 54 54
-33.7605 84.8130 -43.9145 0.408 0.086 0.909 42 32 33
-33.2620 84.9270 -43.7505 0.178 -0.239 0.955 43 33 34
-32.4321 86.5871 -43.6507 0.280 -0.310 0.909 43 35 33
-32.6399 88.5220 -43.9525 0.638 0.265 0.723 49 41 39
-32.8016 93.7121 -44.6211 0.536 -0.633 0.558 73 59 59
-32.6683 94.0864 -44.6178 0.541 -0.605 0.584 76 62 62
-32.4860 94.4253 -44.5928 0.549 -0.616 0.566 80 66 66
-32.2169 94.7004 -44.5294 0.552 -0.619 0.559 83 69 69
-30.4621 95.2851 -43.9738 0.523 -0.741 0.421 87 73 73
-32.7800 99.9687 -45.3502 0.749 0.193 0.634 90 76 76
-32.8578 100.5249 -45.4434 0.781 -0.220 0.585 89 75 75
-34.2367 102.1073 -46.1204 0.995 0.104 -0.012 90 76 76
-22.4958 115.3426 -43.5007 0.622 -0.055 0.781 112 97 90
-19.2050 113.7069 -42.1369 0.242 -0.571 0.785 116 101 94
-46.7147 36.0427 -43.1200 0.603 -0.016 0.797 50 62 48
-45.3381 38.4581 -42.9154 0.369 -0.246 0.896 53 69 42
-46.3160 39.9633 -43.4450 0.397 -0.251 0.883 47 66 36
-36.6173 50.1000 -41.1829 0.722 -0.104 0.684 81 93 73
-39.1047 53.0515 -42.4254 0.457 0.016 0.889 111 115 99
-36.2402 56.7487 -41.8412 0.652 -0.118 0.749 141 146 135
-36.1681 57.0686 -41.8536 0.652 -0.118 0.749 135 140 130
-36.0070 57.7035 -41.8716 0.670 -0.043 0.741 100 105 95
-35.8736 57.9991 -41.8592 0.676 -0.035 0.736 81 86 76
-35.9370 58.3806 -41.9274 0.770 0.073 0.634 64 70 59
-36.0874 59.8752 -42.1595 0.562 -0.009 0.827 27 30 21
-35.3486 62.8103 -42.2453 0.468 -0.698 0.542 24 24 24
-33.5351 65.6421 -41.9340 0.807 0.506 0.303 32 28 27
-35.7822 69.8581 -43.2413 0.705 -0.583 0.404 32 28 25
-36.6293 70.6974 -43.6446 0.716 -0.339 0.611 34 30 27
-35.9201 71.5087 -43.4876 0.840 -0.206 0.502 35 31 26
-35.4894 74.8943 -43.7374 0.921 -0.053 0.385 52 44 39
-35.5164 75.3183 -43.7976 0.908 -0.074 0.412 51 42 38
-33.9281 83.6557 -44.2238 0.197 -0.224 0.955 63 53 54
-33.5716 84.2999 -44.1731 0.195 -0.230 0.954 62 52 53
-33.2880 84.5538 -44.1019 0.408 0.086 0.909 51 41 42
-31.4134 85.9510 -43.5976 0.384 0.046 0.922 59 51 49
-31.3758 86.3678 -43.6339 0.384 0.046 0.922 59 51 49
-31.7476 87.0647 -43.8501 0.401 0.052 0.914 72 64 62
-31.8760 87.5993 -43.9598 0.639 0.262 0.723 74 66 64
-32.4556 93.5152 -44.8731 0.552 -0.611 0.567 73 59 59
-32.3588 93.9153 -44.8862 0.546 -0.616 0.568 71 57 57
-31.5117 95.1812 -44.7340 0.253 -0.958 -0.138 84 70 70
-31.2639 97.8734 -44.9665 0.761 0.233 0.605 93 79 79
-5.0771 119.5746 -38.1824 0.990 -0.134 -0.048 97 96 77
-4.2069 120.7486 -38.0110 -0.034 -0.950 0.310 117 117 100
-45.1681 34.1993 -42.6788 0.325 -0.895 0.304 39 54 31
-46.4180 35.9929 -43.3455 0.603 -0.016 0.797 53 66 49
-39.9265 46.7016 -42.3029 0.621 0.104 0.777 95 105 88
-36.2985 50.3407 -41.4367 0.701 -0.098 0.706 112 119 105
-38.6863 52.5796 -42.5669 0.437 -0.020 0.899 124 126 114
-38.6321 52.9000 -42.5861 0.437 -0.020 0.899 122 124 112
-38.2847 55.5261 -42.7785 0.898 0.018 0.439 61 64 56
-35.8931 54.9017 -41.8420 0.896 0.114 0.430 56 59 51
-36.1025 57.0728 -42.1798 0.905 -0.087 0.416 29 31 25
-35.9873 57.7273 -42.2174 0.904 -0.096 0.417 16 18 12
-35.8430 58.0183 -42.2007 0.900 -0.049 0.432 16 17 12
-35.6456 58.2866 -42.1620 0.816 0.134 0.562 17 19 13
-35.6521 58.6440 -42.2076 0.850 0.161 0.502 22 23 18
-36.9816 61.3995 -43.0192 0.613 -0.088 0.785 27 26 24
-36.9132 61.7346 -43.0351 0.613 -0.088 0.785 27 26 25
-34.7212 70.5118 -43.3068 0.117 -0.980 0.162 33 32 25
-36.1392 80.3308 -45.0041 0.495 0.227 0.839 49 37 37
-31.5356 84.7639 -43.8826 0.157 -0.247 0.956 93 84 85
-31.6924 85.3068 -44.0047 0.164 -0.244 0.956 66 58 56
-30.9681 86.1418 -43.8449 0.416 0.027 0.909 68 60 58
-31.1026 86.6760 -43.9578 0.400 0.055 0.915 101 93 91
-32.0643 91.8860 -44.9338 0.767 0.310 0.561 90 76 76
-31.4293 92.8218 -44.8183 0.745 -0.134 0.653 106 92 92
-5.3312 121.6451 -38.9066 0.913 0.384 0.139 105 109 86
-4.0550 124.0517 -38.7381 0.328 0.103 0.939 127 129 108
-110.0770 280.7283 -95.8434 0.846 0.467 -0.258 128 131 121
-43.7816 33.3162 -42.4012 0.941 -0.267 -0.209 46 61 40
-43.7047 33.5915 -42.4070 0.941 -0.267 -0.209 41 56 35
-43.6276 33.8671 -42.4129 0.941 -0.267 -0.209 39 54 33
-43.5504 34.1433 -42.4188 0.941 -0.267 -0.209 40 55 34
-45.2997 36.3504 -43.3223 0.014 -1.000 -0.026 100 113 96
-44.9101 36.5579 -43.2067 0.021 -1.000 -0.007 99 112 94
-43.9446 36.9236 -42.9019 0.642 -0.738 0.209 62 75 58
-43.6906 37.1624 -42.8391 0.642 -0.738 0.209 70 82 67
-45.1044 39.6838 -43.6597 0.302 -0.128 0.945 70 89 59
-36.8247 44.7479 -41.2818 0.592 -0.619 0.516 136 141 136
-36.5990 44.9889 -41.2296 0.587 -0.640 0.495 142 148 140
-39.6765 46.9696 -42.5864 0.626 0.113 0.771 151 158 144
-39.7183 47.9642 -42.7233 0.628 0.108 0.770 148 152 140
-37.0678 48.6766 -41.8508 0.330 -0.572 0.751 158 160 151
-36.1418 49.6524 -41.6350 0.458 -0.371 0.808 124 126 118
-38.2864 53.1384 -42.8383 0.447 -0.002 0.895 51 50 46
-38.0083 54.4042 -42.8925 0.505 -0.500 0.704 46 45 43
-36.3331 54.7670 -42.3304 0.822 -0.482 0.303 31 31 28
-35.8588 56.6515 -42.3894 0.908 -0.019 0.419 30 29 27
-37.3772 58.3563 -43.1479 0.554 -0.104 0.826 22 21 19
-37.2994 58.6800 -43.1593 0.554 -0.104 0.826 21 20 18
-36.6787 60.9316 -43.2103 0.597 -0.097 0.796 27 26 24
-34.5754 62.8827 -42.6876 0.561 -0.746 0.360 31 30 28
-33.3498 64.8764 -42.4879 0.508 -0.586 0.631 34 30 29
-33.0571 66.6029 -42.5933 0.605 -0.516 0.607 35 26 23
-34.4873 71.2130 -43.6755 0.843 -0.519 0.139 39 34 31
-34.4451 71.5853 -43.7058 0.474 -0.694 0.542 44 39 36
-35.4750 78.7045 -44.9503 0.447 0.167 0.879 86 76 75
-32.5211 84.1507 -44.5475 0.415 0.161 0.895 118 108 109
-31.4013 83.8525 -44.1055 0.387 -0.097 0.917 119 109 110
-31.0199 84.4708 -44.0432 0.157 -0.247 0.956 117 108 109
-29.8030 85.4017 -43.7165 0.547 0.240 0.802 94 86 84
-30.2823 86.6091 -44.0379 0.454 0.070 0.888 115 107 105
-31.0601 92.6072 -45.0538 0.659 0.135 0.740 112 98 98
-28.5701 8.9443 -34.1687 0.309 -0.520 0.796 36 45 24
-50.0915 12.4739 -42.4432 0.991 -0.030 -0.129 42 54 34
-44.7589 33.5556 -43.1152 0.556 -0.632 -0.540 33 48 29
-40.0130 38.0370 -41.9427 0.949 0.026 0.314 84 103 73
-36.6368 44.7119 -41.5408 0.592 -0.619 0.516 161 162 161
-39.3850 46.8982 -42.8126 0.626 0.113 0.771 144 146 137
-39.4199 47.5616 -42.9076 0.629 0.110 0.770 138 139 133
-37.9632 52.0242 -42.9304 0.437 -0.020 0.899 38 36 38
-37.8536 53.3424 -43.0540 0.447 -0.002 0.895 32 30 32
-37.8572 53.6863 -43.0979 0.457 0.002 0.889 34 32 34
-35.5475 54.4794 -42.3552 0.891 -0.180 0.418 31 29 30
-32.9392 67.3371 -42.9996 0.646 -0.482 0.592 33 29 26
-34.4865 69.2954 -43.8058 0.959 0.088 0.269 35 30 27
-33.9765 71.7659 -43.9264 0.620 -0.761 0.194 45 44 37
-34.5296 76.9376 -44.7690 0.438 0.190 0.879 87 76 75
-33.5807 79.2933 -44.7156 0.075 -0.649 0.757 83 71 71
-33.3066 79.9693 -44.6996 0.139 -0.531 0.836 77 65 65
-31.6325 82.7541 -44.4352 0.388 0.135 0.912 106 96 97
-31.8512 83.7615 -44.6398 0.413 0.162 0.896 114 104 105
-28.8941 84.4005 -43.6422 0.544 0.235 0.805 97 89 87
-29.8562 86.3675 -44.2364 0.454 0.070 0.888 113 105 103
-32.0371 89.2190 -45.3841 0.708 0.333 0.623 111 101 100
-29.7410 91.2386 -44.7984 0.827 0.177 0.533 106 92 92
-29.9115 91.8231 -44.9330 0.826 0.176 0.535 107 93 93
-21.0534 105.3342 -43.3825 0.301 -0.954 -0.015 108 94 93
-20.6296 105.4534 -43.2429 0.335 -0.942 0.007 113 99 98
-2.2404 108.5553 -36.9313 0.451 -0.149 -0.880 128 120 103
-1.9284 108.7099 -36.8368 0.444 -0.160 -0.882 129 120 101
-1.9443 109.2352 -36.9077 0.475 -0.135 -0.870 129 121 104
-39.9037 36.8375 -42.0803 0.029 -0.926 0.375 98 112 90
-39.2152 36.9552 -41.8429 0.029 -0.926 0.375 100 114 88
-39.8292 38.0099 -42.2002 0.950 0.025 0.312 95 113 83
-39.9266 38.3362 -42.2768 0.946 0.026 0.324 89 106 77
-36.3940 44.6581 -41.7768 0.597 -0.619 0.510 96 95 93
-36.6583 48.2602 -42.3258 0.317 -0.533 0.785 51 47 46
-35.1234 51.3089 -42.1465 0.679 -0.045 0.733 41 39 40
-37.5649 54.6341 -43.4580 0.862 -0.186 0.471 32 30 31
-33.9444 56.2528 -42.3354 0.958 0.175 -0.225 31 29 30
-38.9391 62.3935 -44.9355 0.983 0.132 -0.127 27 26 24
-37.1814 63.0710 -44.3768 0.510 -0.846 -0.156 31 31 29
-36.5477 63.1459 -44.1541 0.522 -0.842 -0.137 33 32 30
-35.5780 63.4297 -43.8347 0.931 -0.330 -0.157 34 31 29
-35.8949 64.7004 -44.1102 0.906 0.310 -0.288 36 32 31
-34.9252 66.1082 -43.9319 0.574 -0.058 0.816 41 35 35
-36.7319 67.3937 -44.7549 0.371 -0.745 0.554 42 37 34
-34.5258 71.7104 -44.4889 0.418 -0.313 0.853 48 44 41
-32.7191 77.5649 -44.5623 0.524 0.107 0.845 100 90 89
-33.0388 79.0085 -44.8606 0.070 -0.655 0.752 99 87 87
-32.7929 79.6987 -44.8572 0.129 -0.541 0.831 99 87 89
-29.7164 86.3220 -44.5621 0.450 -0.099 0.887 108 100 98
-30.4259 90.8698 -45.3929 0.511 -0.107 0.853 111 97 97
-30.3255 91.2566 -45.4047 0.511 -0.107 0.853 110 96 96
-21.2037 104.5287 -43.7304 0.518 -0.342 0.784 97 83 80
-20.8586 105.7280 -43.7546 0.452 -0.876 0.170 114 100 99
-37.8692 25.0219 -40.1554 0.632 -0.597 0.495 53 72 40
-42.5130 31.0805 -42.6358 0.620 -0.218 0.754 54 69 46
-42.4390 31.3495 -42.6427 0.607 -0.196 0.770 61 76 53
-38.7575 36.8575 -41.9870 0.045 -0.924 0.381 123 133 108
-39.7253 38.0041 -42.4891 0.952 0.026 0.306 112 121 92
-36.5245 41.3242 -41.7323 0.568 -0.013 0.823 103 102 100
-35.4768 44.0730 -41.6958 0.168 0.013 0.986 44 43 41
-36.1154 51.0489 -42.8177 0.765 -0.108 0.635 35 31 32
-39.1508 54.2538 -44.3430 0.603 0.028 0.797 28 26 27
-37.1131 60.5013 -44.3866 0.892 0.379 -0.247 37 36 34
-36.6874 63.2470 -44.5789 0.523 -0.840 -0.144 40 39 37
-36.5235 67.3271 -45.0371 0.320 -0.788 0.526 54 50 47
-32.2423 66.6752 -43.3775 0.599 -0.404 0.691 54 49 46
-34.1802 71.5627 -44.7125 0.418 -0.313 0.853 53 50 45
-32.6502 79.2359 -45.1243 0.744 -0.314 0.590 112 101 99
-32.1234 79.3317 -44.9425 0.285 -0.509 0.812 112 100 100
-30.5052 81.2682 -44.5927 0.371 0.100 0.923 94 84 85
-25.7164 83.6255 -43.1286 0.234 -0.302 0.924 102 94 92
-20.6360 104.5835 -43.9215 0.491 -0.366 0.791 103 89 88
-13.1178 109.5858 -41.7885 0.503 0.105 0.858 122 107 104
-15.9696 123.5563 -44.6145 0.868 -0.040 0.494 110 103 74
-3.9334 111.6384 -38.6668 0.456 -0.211 -0.865 109 103 77
-2.9964 120.2296 -39.4138 0.179 -0.964 0.196 83 85 64
-47.9203 11.6313 -42.4588 0.552 0.125 0.825 56 74 48
-51.3287 12.0934 -43.7806 0.356 -0.165 0.920 57 75 49
-41.9953 25.4742 -42.0455 0.972 -0.226 0.069 55 76 43
-42.4206 25.8156 -42.2470 0.852 -0.443 0.280 56 77 44
-42.2959 26.0644 -42.2328 0.852 -0.443 0.280 56 77 44
-40.1779 27.3083 -41.6084 0.471 -0.702 0.534 52 72 41
-42.4408 30.5169 -42.8594 0.214 -0.119 0.969 61 75 54
-42.3300 30.7771 -42.8518 0.214 -0.119 0.969 56 70 48
-41.3742 34.5940 -42.9890 0.067 -0.274 0.960 147 153 143
-40.9824 34.7927 -42.8694 0.293 -0.250 0.923 150 155 146
-40.9229 35.0711 -42.8832 0.347 -0.055 0.936 158 163 154
-36.2258 41.2582 -41.9397 0.568 -0.013 0.823 28 27 25
-38.6527 43.2308 -43.0923 0.481 -0.146 0.865 30 29 27
-37.5911 50.9620 -43.6939 0.766 -0.423 0.484 27 23 22
-33.3898 57.1183 -42.9300 0.997 -0.049 0.057 34 33 31
-39.7202 62.8194 -46.0082 0.922 -0.278 -0.268 36 35 33
-35.4162 63.0539 -44.4443 0.928 -0.369 -0.054 44 43 41
-35.4305 63.4307 -44.4981 0.934 -0.351 -0.069 56 52 51
-35.6957 64.6767 -44.7566 0.924 0.338 0.180 64 60 59
-33.4265 65.4343 -44.0137 0.512 -0.527 0.678 51 47 46
-36.4792 67.3428 -45.3898 0.299 -0.805 0.513 64 60 57
-33.2874 68.3968 -44.3433 0.959 0.202 -0.199 53 49 46
-31.5703 75.3325 -44.5998 0.459 -0.054 0.887 100 89 88
-15.2273 105.6308 -42.4455 0.544 0.062 0.837 96 88 85
-8.8241 113.4957 -41.0859 0.473 0.415 0.777 101 96 69
-3.0643 119.2825 -39.6973 0.213 -0.069 0.975 77 79 58
-0.2728 123.6423 -39.2244 0.114 -0.729 0.675 81 82 55
-46.4253 11.3090 -42.1639 0.323 -0.325 0.889 56 76 48
-50.9994 12.0832 -43.9683 0.359 -0.169 0.918 56 76 48
-40.0352 22.2906 -41.2141 0.800 -0.115 -0.589 49 70 39
-40.2026 22.5729 -41.3133 0.765 -0.149 -0.626 52 73 42
-40.7318 23.9556 -41.6904 0.914 -0.030 -0.405 62 81 51
-43.1846 25.6914 -42.8300 0.766 -0.502 0.401 63 82 50
-42.9411 25.9210 -42.7692 0.841 -0.449 0.303 63 82 50
-42.8420 26.1754 -42.7655 0.844 -0.447 0.296 64 83 52
-42.8443 26.4479 -42.8018 0.873 -0.465 0.145 64 83 52
-42.7624 26.7062 -42.8049 0.798 -0.601 0.053 60 79 46
-42.5831 26.9474 -42.7696 0.798 -0.601 0.053 62 81 48
-41.1258 32.8174 -42.9913 0.248 -0.058 0.967 204 209 201
-41.1120 33.1019 -43.0232 0.248 -0.059 0.967 202 204 196
-37.7376 36.3422 -42.1884 0.103 -0.868 0.485 63 64 47
-36.0201 37.0574 -41.6419 0.960 0.278 -0.031 42 45 23
-38.7821 41.1225 -43.2000 0.231 -0.225 0.947 35 31 30
-38.2950 43.1446 -43.2819 0.478 -0.151 0.865 36 35 33
-37.9153 52.4620 -44.3540 0.624 -0.229 0.747 28 28 28
-37.0251 60.8940 -45.1205 0.918 0.395 0.033 46 45 43
-36.8754 62.2937 -45.2471 0.973 0.164 -0.160 48 47 45
-35.0741 63.6672 -44.7551 0.840 0.391 0.375 63 57 57
-35.4167 64.5778 -45.0013 0.869 0.417 0.266 62 56 56
-35.6463 65.0649 -45.1502 0.870 0.420 0.260 60 54 54
-36.1428 67.2117 -45.6147 0.314 -0.771 0.554 63 57 54
-32.0691 65.5366 -43.8794 0.599 -0.411 0.687 63 57 55
-31.7113 74.2469 -44.8805 0.712 0.077 0.698 98 88 87
-31.8129 74.7084 -44.9784 0.549 -0.011 0.836 103 91 91
-32.6612 75.6080 -45.4115 0.796 -0.042 0.604 105 93 93
-20.0177 103.1587 -44.2907 0.233 -0.616 0.752 117 107 106
-21.0312 105.5763 -44.9830 0.363 -0.894 0.263 116 106 107
-12.0417 105.5981 -41.6377 0.621 0.207 0.756 131 113 111
-11.5257 105.5859 -41.4440 0.611 -0.124 0.782 121 103 101
-8.4543 108.4922 -40.6786 0.424 0.281 0.861 104 99 92
-5.1812 119.1571 -40.8485 0.350 -0.881 -0.319 82 86 63
-98.9737 7.7868 -61.6803 0.324 -0.591 -0.739 68 71 78
-42.9212 7.6757 -40.6732 0.326 -0.644 -0.692 76 79 86
-47.9432 14.1065 -43.4015 0.952 0.237 0.194 38 57 29
-48.3491 14.3885 -43.5907 0.974 0.169 0.151 36 55 27
-41.1907 23.7810 -42.1477 0.774 -0.101 -0.625 68 87 57
-41.0196 24.0169 -42.1147 0.817 -0.051 -0.574 69 86 58
-43.6550 25.7874 -43.3351 0.225 -0.657 0.720 69 84 57
-42.1279 27.1557 -42.9435 0.304 -0.054 0.951 80 93 70
-39.9438 34.5837 -43.1045 0.196 -0.190 0.962 81 79 77
-39.9180 35.4523 -43.2093 0.346 -0.058 0.936 61 60 56
-35.3677 36.6146 -41.6584 0.994 0.092 0.057 26 30 11
-37.8216 43.9610 -43.5456 0.452 -0.233 0.861 34 33 31
-36.5862 46.4081 -43.4055 0.177 -0.619 0.765 31 27 26
-35.9765 46.8395 -43.2340 0.178 -0.614 0.769 30 26 25
-38.3106 50.2808 -44.5617 0.705 0.046 0.708 33 29 28
-38.4113 50.6521 -44.6484 0.728 0.067 0.682 38 34 33
-38.3401 50.9614 -44.6624 0.709 0.050 0.703 39 35 34
-38.4380 51.3343 -44.7483 0.699 -0.108 0.707 39 35 34
-34.5310 62.3390 -44.7354 0.838 0.435 0.328 56 51 51
-35.2358 64.5264 -45.2877 0.840 0.391 0.375 58 49 48
-35.3670 64.9652 -45.3946 0.871 0.407 0.275 59 50 49
-35.6431 65.4771 -45.5655 0.873 0.406 0.271 66 57 55
-33.2091 66.5276 -44.7924 0.414 -0.136 0.900 70 60 58
-35.1670 70.6360 -46.0671 0.754 -0.409 -0.514 69 60 53
-34.9860 70.9337 -46.0386 0.754 -0.409 -0.514 70 62 55
-25.6641 82.0373 -44.0108 0.261 -0.269 0.927 107 97 95
-25.4186 82.2935 -43.9526 0.266 -0.270 0.925 106 96 94
-10.4444 98.7941 -40.5194 0.389 0.063 0.919 118 113 110
-9.8497 104.9738 -41.1111 0.025 -0.349 0.937 121 105 102
-4.9225 108.8438 -39.7758 0.377 0.220 0.900 88 89 80
-5.0489 109.4929 -39.9087 0.385 0.229 0.894 96 98 83
-5.1278 110.6084 -40.0853 0.405 0.267 0.875 75 79 58
-5.2571 116.0408 -40.8497 0.249 -0.018 0.968 71 78 44
-4.9084 116.1746 -40.7368 0.265 -0.002 0.964 79 85 52
-48.5204 14.4144 -43.9681 0.961 0.174 0.215 37 56 28
-38.3600 19.8143 -40.8619 0.914 0.398 -0.086 52 66 50
-39.5158 20.2153 -41.3507 0.898 0.425 -0.117 53 67 52
-40.7722 20.6349 -41.8798 0.796 -0.001 0.605 53 67 54
-41.2992 20.9608 -42.1217 0.889 -0.051 0.456 51 65 53
-41.3073 21.2178 -42.1590 0.891 -0.050 0.451 50 64 49
-40.6968 21.3891 -41.9520 0.884 0.395 -0.249 48 63 44
-39.8413 25.9547 -42.2387 0.186 -0.674 0.715 94 102 87
-37.9229 32.1342 -42.3404 0.697 0.176 0.696 50 46 46
-37.9388 32.4187 -42.3843 0.697 0.160 0.699 41 37 36
-39.3028 36.1993 -43.4021 0.362 -0.176 0.916 30 29 27
-38.8733 36.3837 -43.2650 0.157 -0.297 0.942 34 33 28
-36.5689 37.5404 -42.5514 0.979 -0.037 0.202 30 31 19
-36.2768 38.6407 -42.5882 0.252 -0.738 0.626 30 30 20
-36.3839 38.9677 -42.6721 0.189 -0.826 0.532 31 31 25
-35.4993 40.5073 -42.5443 0.231 -0.675 0.701 22 23 18
-37.2122 43.1688 -43.5443 0.380 -0.242 0.893 30 29 27
-38.4214 45.4468 -44.3035 0.482 0.124 0.868 26 25 23
-39.3977 50.7053 -45.3724 0.353 -0.240 0.904 43 39 36
-39.1699 50.9589 -45.3205 0.355 -0.254 0.900 45 41 38
-39.1171 51.2772 -45.3431 0.247 -0.372 0.895 45 41 38
-38.7019 51.7999 -45.2564 0.287 -0.319 0.903 45 41 40
-38.5806 52.7754 -45.3408 0.690 -0.125 0.713 49 48 46
-36.3989 54.6636 -44.7710 0.169 -0.482 0.860 65 62 63
-36.5121 57.1500 -45.1452 0.675 0.245 0.696 55 49 49
-39.1475 60.0771 -46.5281 0.805 0.505 -0.312 52 47 44
-42.5655 62.3219 -48.1147 0.857 0.388 -0.340 61 55 55
-34.9408 64.4195 -45.5230 0.841 0.392 0.373 69 57 57
-33.3882 68.1813 -45.4400 0.598 -0.022 0.801 77 63 60
-14.4040 95.4535 -41.9278 0.134 -0.169 0.976 100 88 88
-14.2231 95.7565 -41.9001 0.134 -0.169 0.976 100 88 88
-14.3287 96.3117 -42.0139 0.138 -0.162 0.977 100 88 88
-13.8309 96.8006 -41.8916 0.025 -0.367 0.930 110 98 98
-9.9735 98.8837 -40.7167 0.368 0.045 0.929 117 113 110
-10.4943 103.7095 -41.5565 0.267 -0.028 0.963 122 112 108
-8.5812 104.2576 -40.9091 0.074 -0.296 0.952 117 110 104
-3.3096 109.1694 -39.5789 0.412 0.004 0.911 65 73 52
-0.8852 115.7691 -39.5461 0.296 -0.895 -0.335 73 82 55
-0.5732 115.9271 -39.4496 0.359 -0.892 -0.274 70 79 50
-0.3478 117.8217 -39.6174 0.124 -0.226 0.966 53 64 32
-42.2867 23.9844 -43.2089 0.536 -0.260 0.803 108 115 103
-42.2076 24.2374 -43.2130 0.527 -0.273 0.804 113 120 107
-39.6961 25.6795 -42.4566 0.180 -0.671 0.719 115 118 113
-39.2845 25.8734 -42.3269 0.188 -0.668 0.720 116 117 113
-38.9679 26.0832 -42.2353 0.378 -0.617 0.691 111 112 109
-38.3050 27.5644 -42.1842 0.414 0.052 0.909 128 128 130
-40.5744 29.0943 -43.2500 0.299 -0.023 0.954 97 97 99
-40.3027 30.7088 -43.3649 0.236 -0.125 0.964 26 25 24
-37.5099 31.2242 -42.3769 0.727 -0.213 0.653 17 16 14
-37.4846 32.8971 -42.5931 0.713 -0.021 0.701 40 39 37
-39.5727 37.4751 -44.0014 0.846 -0.531 0.054 32 29 23
-36.8521 42.1538 -43.6026 0.379 -0.132 0.916 32 31 29
-37.2495 42.5841 -43.8111 0.446 -0.083 0.891 35 34 32
-38.9905 45.0183 -44.7988 0.750 -0.038 0.661 29 28 26
-38.0904 46.3254 -44.6343 0.491 0.031 0.870 42 38 37
-39.1069 50.6278 -45.5998 0.288 -0.327 0.900 54 49 46
-38.9166 50.8946 -45.5637 0.288 -0.327 0.900 48 43 40
-38.6926 51.1490 -45.5132 0.247 -0.372 0.895 51 46 43
-38.4763 51.4062 -45.4660 0.247 -0.372 0.895 50 45 42
-38.2648 52.6841 -45.5583 0.685 -0.128 0.717 69 65 64
-35.8040 54.4538 -44.8653 0.426 -0.339 0.839 98 91 92
-33.0998 62.0979 -44.8727 0.840 0.407 0.359 88 78 77
-33.8173 63.1716 -45.2893 0.906 0.422 -0.033 94 81 81
-32.8880 63.8271 -45.0258 0.962 0.263 -0.074 94 80 79
-32.3552 66.5440 -45.1906 0.656 0.116 0.746 96 83 77
-32.0519 69.0524 -45.4142 0.932 -0.077 -0.353 81 71 62
-30.5753 69.7956 -44.9554 0.949 0.059 0.310 84 74 65
-30.3002 70.8051 -44.9874 0.554 0.175 0.814 92 81 77
-30.1816 71.1280 -44.9861 0.559 0.189 0.807 94 80 80
-30.5221 71.7097 -45.1935 0.834 -0.153 0.530 94 79 82
-9.7566 98.2723 -40.9143 0.353 0.016 0.935 120 115 112
-9.6929 98.6811 -40.9453 0.353 0.016 0.935 119 115 112
-4.7759 112.9704 -41.0114 0.433 0.118 0.894 64 69 48
-43.8549 12.8512 -42.5985 0.130 -0.276 0.952 53 72 44
-51.8298 15.7410 -46.0294 0.970 0.202 0.132 49 68 40
-52.6446 16.0747 -46.3852 0.981 0.068 0.182 50 69 41
-44.1746 17.7880 -43.3941 0.097 -0.621 0.778 71 83 65
-44.1184 18.0340 -43.4063 0.060 -0.570 0.820 69 81 63
-39.7114 20.5206 -42.0677 0.876 0.118 0.467 81 86 84
-42.1618 21.8821 -43.1866 0.717 0.031 0.696 101 107 96
-38.8909 25.8206 -42.4788 0.188 -0.668 0.720 97 96 98
-38.6751 26.0475 -42.4276 0.378 -0.617 0.691 84 85 81
-40.0981 35.2659 -44.2277 0.986 -0.163 -0.030 29 28 26
-39.3464 40.1526 -44.6085 0.257 -0.938 0.232 32 30 31
-41.1660 44.1333 -45.8446 0.449 -0.001 0.893 41 40 38
-40.8585 44.6783 -45.8020 0.434 -0.040 0.900 41 40 38
-41.3132 45.1442 -46.0387 0.410 -0.086 0.908 41 40 38
-41.1570 45.4179 -46.0166 0.390 -0.129 0.912 42 41 38
-40.0893 45.3979 -45.6073 0.419 -0.247 0.874 43 42 39
-35.8060 47.8245 -44.3076 0.623 0.048 0.781 79 73 72
-37.3453 50.3458 -45.2379 0.458 0.005 0.889 87 82 78
-37.3405 50.6775 -45.2813 0.466 -0.067 0.882 90 85 81
-37.2835 51.6621 -45.3940 0.289 -0.308 0.906 85 81 78
-34.0055 56.4995 -44.8062 0.606 0.273 0.747 121 111 110
-32.8993 60.9533 -44.9930 0.984 0.044 -0.171 101 90 92
-32.7320 61.9583 -45.0664 0.839 0.426 0.339 104 92 92
-33.1488 62.5205 -45.3019 0.844 0.424 0.329 111 97 97
-34.0221 64.0456 -45.8425 0.842 0.434 0.320 115 99 99
-32.7362 63.7887 -45.3179 0.962 0.268 -0.058 110 94 94
-32.5160 65.9110 -45.5237 0.608 -0.204 0.767 106 93 87
-33.5022 66.7897 -46.0192 0.615 -0.175 0.769 106 93 87
-32.0694 66.4350 -45.4252 0.656 0.116 0.746 107 94 88
-32.0677 67.1895 -45.5275 0.653 0.118 0.748 97 86 82
-13.9570 95.1810 -42.4526 0.097 -0.370 0.924 105 93 93
-9.4556 97.1212 -41.0035 0.681 -0.733 0.002 144 134 135
-9.2066 97.3526 -40.9403 0.681 -0.733 0.002 143 136 134
-6.0136 105.7010 -40.8641 0.402 0.249 0.881 86 83 76
-3.1960 108.1717 -40.1285 0.590 -0.141 0.795 64 69 49
-44.1245 13.1219 -43.0373 0.825 -0.473 0.310 48 67 39
-44.2490 13.3719 -43.1195 0.815 -0.511 0.275 47 66 38
-44.4366 17.3259 -43.7372 0.503 -0.202 0.840 51 61 46
-44.4538 17.5794 -43.7788 0.513 -0.198 0.835 49 59 44
-44.0594 18.0406 -43.6915 0.869 0.346 0.355 75 82 70
-41.9710 21.0950 -43.3137 0.754 -0.090 0.650 137 138 137
-41.9506 21.3497 -43.3410 0.756 -0.093 0.648 133 134 133
-41.9442 21.8659 -43.4099 0.717 0.031 0.696 129 131 125
-41.9147 22.1212 -43.4338 0.721 0.046 0.692 127 129 123
-40.5194 22.4359 -42.9431 0.822 -0.003 0.570 127 128 123
-39.6940 24.9170 -42.9697 0.226 -0.690 0.687 60 60 60
-39.3607 25.1246 -42.8707 0.226 -0.690 0.687 52 52 52
-40.7549 26.7034 -43.6225 0.768 -0.315 0.557 28 28 26
-40.0848 38.5564 -45.0024 0.972 0.208 -0.108 30 27 33
-40.0765 38.8568 -45.0407 0.997 -0.051 0.050 30 27 33
-40.7257 39.3389 -45.3558 0.171 -0.605 0.777 30 28 34
-38.2245 44.5050 -45.1115 0.271 -0.265 0.925 58 55 50
-36.2674 46.0854 -44.5805 0.552 0.007 0.834 71 63 61
-36.9025 46.6203 -44.8974 0.449 -0.114 0.886 73 65 63
-35.8982 47.8839 -44.6874 0.627 0.132 0.767 101 93 91
-35.8661 48.5212 -44.7631 0.587 0.203 0.784 102 94 90
-36.6831 49.4700 -45.2069 0.474 0.017 0.880 102 95 89
-36.6900 49.8023 -45.2554 0.456 -0.001 0.890 103 96 90
-36.9512 50.5618 -45.4602 0.472 -0.062 0.879 104 97 91
-37.0042 50.9151 -45.5293 0.142 -0.452 0.881 105 97 94
-36.7014 51.1361 -45.4439 0.137 -0.456 0.879 103 98 94
-36.8767 51.5374 -45.5664 0.289 -0.308 0.906 105 100 96
-34.9388 51.1361 -44.7691 0.584 0.246 0.774 107 102 99
-32.4618 60.4257 -45.1034 0.594 0.020 0.804 97 87 88
-32.7845 60.9340 -45.2971 0.983 0.067 -0.170 102 92 93
-32.5803 61.1985 -45.2555 0.892 0.371 0.260 100 91 93
-34.0734 64.8522 -46.3315 0.896 0.396 -0.201 110 96 95
-34.2439 66.0653 -46.5643 0.497 -0.353 0.793 111 97 96
-33.9609 66.3016 -46.4886 0.510 -0.342 0.789 111 97 94
-32.0447 66.0839 -45.7250 0.589 -0.221 0.777 111 97 94
-31.7189 66.6689 -45.6810 0.621 -0.027 0.783 106 92 89
-28.8781 70.0939 -45.0663 0.266 -0.026 0.964 98 87 83
-14.9260 92.4328 -42.8092 0.332 -0.047 0.942 91 80 78
-12.8099 94.2385 -42.2484 0.201 -0.155 0.967 119 109 107
-10.4362 97.1624 -41.7433 0.096 -0.344 0.934 131 121 122
-8.0466 102.9414 -41.6264 0.008 -0.312 0.950 66 75 64
-7.8750 103.2558 -41.6041 -0.003 -0.365 0.931 65 74 63
-7.6526 103.5194 -41.5554 -0.006 -0.370 0.929 66 73 65
-5.6228 102.4276 -40.6275 0.220 -0.021 0.975 74 73 63
-6.3319 108.6231 -41.7544 0.133 -0.332 0.934 69 68 64
1.9373 115.7484 -39.5724 0.238 -0.243 0.940 59 70 38
-44.1514 12.8951 -43.3154 0.991 0.079 0.109 43 62 34
-44.7722 13.4236 -43.6281 0.150 -0.932 0.330 42 61 33
-43.9950 16.0470 -43.6953 0.835 -0.361 0.415 64 73 60
-43.7855 16.2740 -43.6463 0.835 -0.351 0.425 66 74 61
-44.5651 16.6004 -43.9920 0.464 -0.265 0.845 68 76 64
-43.9532 17.0372 -43.8175 0.869 0.170 0.466 75 81 71
-43.9240 17.2843 -43.8407 0.851 0.166 0.498 88 93 84
-43.9395 17.5368 -43.8819 0.848 0.166 0.503 111 116 107
-43.8746 17.7811 -43.8911 0.869 0.346 0.355 133 136 130
-41.7742 21.0825 -43.5436 0.754 -0.090 0.650 132 132 132
-41.7291 21.3335 -43.5613 0.754 -0.090 0.650 120 120 120
-41.7123 21.8476 -43.6266 0.721 0.046 0.692 104 105 100
-40.5743 22.7179 -43.3101 0.841 0.130 0.525 79 80 75
-41.4747 23.6395 -43.7853 0.533 -0.252 0.808 44 45 40
-41.4351 23.8968 -43.8060 0.536 -0.260 0.803 38 39 34
-38.4837 25.2542 -42.8595 0.560 -0.550 0.620 23 23 21
-37.9911 25.6948 -42.7315 0.839 -0.151 0.523 30 30 28
-40.5735 26.4178 -43.8264 0.880 -0.195 0.433 31 31 29
-40.2436 38.9249 -45.4458 0.998 -0.051 0.026 30 28 32
-38.6632 40.0043 -44.9882 0.213 -0.872 0.440 35 31 27
-37.9662 40.1091 -44.7346 0.629 -0.652 0.424 38 34 31
-37.9559 40.4102 -44.7727 0.631 -0.646 0.430 44 40 37
-37.3796 40.5471 -44.5699 0.241 -0.844 0.479 50 46 43
-37.2313 40.8080 -44.5493 0.461 -0.735 0.498 51 47 44
-35.9543 46.0057 -44.7835 0.536 -0.002 0.844 83 75 73
-35.1291 47.3186 -44.6492 0.594 0.201 0.779 109 101 98
-35.8906 50.8603 -45.4369 0.344 -0.215 0.914 111 106 102
-35.7448 51.4718 -45.4661 0.332 -0.216 0.918 121 116 113
-34.8412 52.4631 -45.2567 0.259 -0.280 0.924 116 111 108
-35.2356 54.3154 -45.6672 0.850 0.078 0.521 125 115 116
-32.7087 62.0169 -45.7699 0.874 0.456 -0.169 103 91 91
-35.5354 65.2307 -47.3067 0.911 0.413 0.020 114 100 99
-35.2886 66.2454 -47.3534 0.606 -0.236 0.759 111 97 96
-34.7990 67.5271 -47.3439 0.612 -0.125 0.781 109 95 92
-26.7757 66.3470 -44.0909 0.751 0.501 0.430 93 83 74
-16.0534 85.1059 -42.5830 -0.119 -0.993 0.019 99 87 88
-14.1884 91.8701 -42.8097 0.098 -0.119 0.988 97 85 85
-12.2382 93.3457 -42.2651 0.179 -0.126 0.976 138 124 125
-9.2721 98.4695 -41.8388 0.535 -0.815 0.223 108 105 100
-7.0906 103.0171 -41.6341 0.006 -0.363 0.932 59 67 59
0.1727 115.8682 -40.6328 -0.219 -0.969 0.115 62 71 42
-44.4451 12.4486 -43.6652 0.981 0.112 0.158 42 58 33
-43.7935 17.5339 -44.1311 0.867 0.348 0.358 151 151 148
-43.7891 17.7847 -44.1648 0.864 0.348 0.363 153 153 150
-43.9806 18.0580 -44.2775 0.864 0.350 0.362 138 137 135
-41.3302 22.0664 -43.8178 0.717 0.013 0.697 47 48 43
-40.8694 24.0862 -43.9247 0.337 -0.273 0.901 31 32 27
-37.4524 25.6162 -42.8183 0.890 -0.142 0.434 27 28 23
-42.0945 28.3535 -45.0013 0.428 -0.748 -0.506 29 29 27
-40.4446 35.4132 -45.3597 0.932 0.142 0.332 28 27 23
-39.1738 36.8627 -45.0725 0.940 -0.331 0.088 32 30 31
-39.3039 37.1934 -45.1696 0.962 0.076 0.262 32 30 32
-39.4873 37.8386 -45.3317 0.973 -0.228 0.025 38 34 35
-39.6161 38.1730 -45.4287 0.959 -0.280 0.031 40 36 37
-39.5133 38.4462 -45.4275 0.978 0.031 0.208 42 38 39
-39.1805 39.5649 -45.4567 0.302 -0.754 0.584 47 43 42
-38.7960 39.7607 -45.3355 0.279 -0.780 0.560 40 37 31
-37.9219 40.1194 -45.0479 0.628 -0.635 0.451 63 60 54
-37.3981 40.5757 -44.9096 0.240 -0.824 0.513 81 78 71
-37.2992 40.8512 -44.9103 0.434 -0.689 0.580 72 69 63
-36.5852 42.1681 -44.8199 0.755 0.408 0.513 66 61 57
-37.4722 43.6858 -45.3775 0.354 -0.131 0.926 96 88 85
-37.4281 44.6159 -45.4917 0.086 -0.411 0.908 125 120 116
-34.1386 46.3636 -44.4655 0.443 -0.401 0.802 110 102 100
-34.6707 46.8655 -44.7423 0.412 -0.235 0.880 116 108 106
-35.0307 47.6318 -44.9898 0.644 0.239 0.726 122 114 111
-35.2829 48.0435 -45.1455 0.588 0.208 0.782 122 115 109
-36.1426 49.3294 -45.6598 0.706 0.105 0.700 125 118 112
-36.4009 49.7526 -45.8195 0.417 -0.113 0.902 115 108 102
-34.3682 50.9761 -45.2057 0.074 -0.346 0.935 120 115 112
-29.2371 55.9059 -43.9160 0.435 -0.236 0.869 116 106 105
-29.1061 56.1875 -43.9051 0.435 -0.236 0.869 113 103 102
-25.6914 65.0742 -43.8384 0.652 0.210 0.728 99 88 82
-14.4320 89.4731 -42.9262 0.362 0.038 0.931 116 107 105
-14.1564 90.1254 -42.9117 0.323 0.007 0.946 116 107 105
-14.0675 90.4928 -42.9292 0.013 -0.441 0.897 116 107 105
-13.6824 91.0573 -42.8598 0.072 -0.375 0.924 146 136 135
-13.4565 91.3117 -42.8083 0.070 -0.381 0.922 146 136 135
-10.3772 96.7656 -42.3867 0.132 -0.323 0.937 86 80 82
-9.3709 98.1563 -42.1937 0.567 -0.821 0.075 103 101 97
-5.1587 98.7675 -40.6499 0.037 -0.961 0.274 56 72 56
-43.8702 18.0588 -44.5418 0.864 0.350 0.362 125 123 124
-40.8372 22.7873 -44.0368 0.729 0.032 0.684 25 26 21
-41.1991 33.2795 -45.6756 0.519 -0.850 0.090 28 27 23
-40.8533 33.4894 -45.5710 0.468 -0.882 0.063 28 27 23
-38.9803 37.4274 -45.4045 0.964 0.266 -0.026 55 51 49
-38.9965 38.3284 -45.5395 0.953 0.302 -0.023 58 54 51
-37.2384 39.9461 -45.0864 0.250 -0.858 0.450 87 82 76
-36.5809 42.1908 -45.1511 0.784 0.459 0.417 91 83 80
-37.2526 43.3286 -45.5748 0.774 0.438 0.458 109 101 98
-37.0764 43.5856 -45.5430 0.354 -0.131 0.926 113 105 102
-35.8648 46.9859 -45.5570 -0.215 -0.709 0.672 120 112 110
-35.7820 50.2134 -45.9856 0.418 -0.139 0.898 117 110 104
-28.3765 57.5988 -44.1587 0.529 -0.171 0.831 105 95 96
-24.4187 65.5227 -43.7501 0.568 0.255 0.782 103 93 84
-25.1303 67.7507 -44.3451 0.524 0.223 0.822 98 87 81
-17.2873 77.4969 -42.6850 0.318 -0.111 0.942 102 94 91
-17.5461 78.4713 -42.9248 0.436 -0.037 0.899 90 82 79
-17.4679 78.8178 -42.9438 0.437 -0.039 0.898 92 84 81
-13.6456 82.1357 -41.9304 0.499 -0.447 0.742 108 103 92
-6.7309 98.5008 -41.5764 0.509 -0.772 0.381 61 67 53
-6.2988 98.5479 -41.4151 0.045 -0.907 0.419 58 69 53
-5.9723 98.6962 -41.3092 0.047 -0.929 0.366 46 59 42
-5.0797 104.0099 -41.7206 0.631 -0.052 0.774 81 84 67
-37.7317 10.1954 -41.3126 0.466 -0.446 0.764 51 63 43
-41.3876 11.0927 -42.8723 0.010 -0.901 0.435 52 64 46
-42.9407 15.7359 -44.1500 0.830 0.077 0.553 59 57 58
-43.6109 16.0466 -44.4570 0.841 -0.343 0.419 71 69 70
-43.5253 17.0306 -44.5656 0.868 0.175 0.465 80 78 81
-43.4866 17.2762 -44.5859 0.851 0.166 0.498 72 70 71
-40.7773 23.0538 -44.3600 0.767 0.074 0.637 27 28 23
-39.8000 31.8403 -45.2460 0.021 -0.356 0.934 32 31 27
-40.0960 36.2533 -45.9988 0.903 0.261 0.342 63 62 58
-39.5010 36.6938 -45.8296 0.907 -0.422 0.008 67 63 60
-39.5436 37.0017 -45.8908 0.854 -0.520 0.001 65 61 58
-39.0873 37.1798 -45.7380 0.899 -0.178 0.399 66 62 59
-36.6446 43.4739 -45.6910 0.348 -0.135 0.928 117 109 106
-35.7261 43.8045 -45.3794 -0.062 -0.621 0.782 127 119 116
-34.2701 44.2648 -44.8763 0.022 -0.567 0.823 138 130 127
-36.6703 46.0060 -46.0665 0.569 0.103 0.816 127 119 117
-38.2936 46.8746 -46.8269 0.452 0.065 0.889 124 116 114
-36.8921 47.0442 -46.3032 -0.203 -0.701 0.684 118 110 108
-36.2135 47.1329 -46.0505 -0.194 -0.695 0.692 120 112 110
-35.4921 48.1720 -45.9183 0.684 0.080 0.725 121 114 108
-35.5949 48.8591 -46.0577 0.620 0.053 0.783 120 113 107
-29.3975 53.6876 -44.3305 0.960 -0.248 0.128 115 105 106
-16.9018 69.2815 -41.6934 0.774 -0.259 0.578 103 93 92
-16.4976 69.4009 -41.5525 0.761 -0.201 0.617 99 89 88
-16.8800 77.2635 -42.8370 0.442 -0.109 0.890 100 95 92
-15.9847 79.4296 -42.7995 0.287 -0.159 0.945 89 87 82
-13.6775 82.6190 -42.3574 0.649 -0.599 0.469 117 117 101
-14.0757 85.4249 -42.9181 0.264 -0.133 0.955 111 116 114
-13.6482 88.0751 -43.1334 0.308 -0.021 0.951 157 158 153
-7.4862 97.8913 -42.1400 0.051 -0.759 0.649 61 74 53
-7.1584 98.0427 -42.0336 0.487 -0.804 0.341 56 68 49
-7.4579 99.2687 -42.3277 0.482 -0.756 0.442 56 68 47
-3.1366 99.6757 -40.6961 0.472 0.063 0.879 46 58 31
-37.7296 9.7600 -41.5304 0.528 -0.079 0.845 49 59 42
-43.4677 15.7984 -44.6680 0.825 0.022 0.565 44 42 43
-43.2549 18.7737 -45.0185 0.483 -0.385 0.786 35 35 37
-42.8438 22.3294 -45.3757 0.886 0.183 0.426 26 27 22
-40.2490 24.5603 -44.6808 0.824 -0.162 0.543 27 27 25
-40.6803 25.1625 -44.9382 0.651 -0.127 0.748 26 26 26
-42.7546 28.8111 -46.2864 0.426 -0.393 0.815 29 30 27
-42.8483 29.1093 -46.3667 0.417 -0.419 0.806 30 31 26
-43.1823 29.4558 -46.5486 0.418 -0.401 0.815 29 30 25
-41.8989 30.3262 -46.1709 0.221 -0.420 0.880 31 32 27
-38.4268 30.9977 -44.9035 0.224 -0.225 0.948 40 39 34
-36.1356 39.6748 -45.2686 0.228 -0.870 0.437 110 105 101
-35.1325 43.0205 -45.3623 -0.022 -0.595 0.804 109 101 98
-35.6121 43.4819 -45.6183 0.019 -0.553 0.833 117 109 106
-35.7431 45.4040 -45.9502 0.590 0.188 0.785 125 117 115
-36.3193 45.9142 -46.2513 0.565 0.101 0.819 125 117 115
-35.3026 46.5251 -45.9406 -0.174 -0.673 0.718 117 109 107
-28.4061 50.0562 -43.7438 0.652 -0.297 0.697 115 110 107
-24.5316 66.7566 -44.6570 0.789 0.104 0.605 102 93 88
-24.4398 67.0746 -44.6673 0.786 0.106 0.609 96 87 82
-24.6550 67.5638 -44.8232 0.792 0.129 0.596 92 83 78
-16.3081 76.5245 -42.8483 0.539 0.182 0.822 95 90 87
-18.2531 78.6496 -43.9233 0.487 -0.178 0.855 86 81 78
-16.6238 79.1238 -43.3517 0.388 -0.251 0.887 74 71 68
-16.4547 79.8101 -43.3854 0.403 -0.147 0.903 83 84 78
-15.5988 79.6038 -43.0187 0.431 -0.158 0.888 87 88 83
-15.4210 79.8793 -42.9890 0.450 -0.151 0.880 92 93 88
-13.2526 79.5146 -42.0830 0.734 -0.665 -0.137 108 110 99
-13.5970 81.7878 -42.5502 0.702 0.060 0.710 109 112 93
-12.9481 81.7087 -42.2834 0.271 -0.945 0.186 111 114 94
-13.7524 84.8035 -43.0513 0.261 -0.096 0.961 125 130 124
-13.9199 85.7773 -43.2593 0.281 -0.061 0.958 121 126 120
-9.9401 93.3561 -42.8001 0.286 -0.148 0.947 77 79 81
-8.8964 97.4285 -42.9838 0.592 0.175 0.787 60 71 59
-3.9448 101.5159 -41.6330 0.725 -0.193 0.661 57 68 33
-44.7626 16.1835 -45.5398 0.861 -0.063 0.505 33 31 32
-42.5794 17.9534 -44.9377 0.487 -0.240 0.840 39 37 38
-40.4657 25.1424 -45.1624 0.662 -0.284 0.693 26 27 23
-40.3234 25.3846 -45.1419 0.655 -0.285 0.700 26 27 23
-42.7427 29.3873 -46.6887 0.551 -0.076 0.831 36 35 30
-40.3270 29.1878 -45.7042 0.111 -0.310 0.944 38 37 32
-39.4114 30.1111 -45.4784 0.097 -0.332 0.938 44 43 38
-37.8116 30.3297 -44.8782 0.133 -0.345 0.929 50 50 43
-39.9454 33.9163 -46.2507 0.821 -0.268 0.504 61 60 55
-39.4183 34.6604 -46.1521 0.796 -0.109 0.596 64 63 59
-36.4228 35.9429 -45.1570 -0.142 -0.567 0.812 96 93 88
-36.8008 36.3313 -45.3637 0.854 0.171 0.490 97 94 89
-37.2509 37.6248 -45.7325 0.820 0.514 0.251 110 107 102
-37.8178 38.0749 -46.0230 0.822 0.515 0.245 115 112 107
-37.5524 38.5992 -45.9954 0.796 0.369 0.480 117 114 109
-37.1224 38.7789 -45.8519 0.097 -0.597 0.797 115 112 107
-36.0470 41.7926 -45.8712 0.824 0.419 0.382 112 107 101
-34.6972 43.2149 -45.5473 0.310 -0.184 0.933 115 107 104
-24.2345 66.9993 -44.9190 0.786 0.106 0.609 94 86 83
-19.9444 71.2208 -43.8455 0.134 0.064 0.989 92 84 82
-16.1418 78.0337 -43.3470 0.290 -0.149 0.945 90 86 83
-15.6881 78.1144 -43.1795 0.371 -0.035 0.928 89 85 82
-15.0632 78.8681 -43.0436 0.228 -0.663 0.713 95 94 89
-13.4525 80.9153 -42.7088 0.634 0.222 0.741 119 120 102
-12.8324 81.2640 -42.5151 0.622 -0.325 0.712 120 121 103
-12.7160 81.5826 -42.5161 0.247 -0.930 0.271 116 119 99
-13.4404 85.4528 -43.3733 0.289 -0.047 0.956 114 118 107
-9.5410 93.0589 -42.9535 0.163 -0.243 0.956 78 80 78
-9.8165 98.3535 -43.8433 0.622 -0.250 0.742 55 67 53
-15.7579 5.5345 -32.7315 0.837 -0.176 0.519 71 71 79
-46.0804 16.5767 -46.4287 0.822 -0.112 0.558 30 26 27
-44.3416 16.9036 -45.7863 0.588 -0.383 0.712 34 33 31
-38.9579 24.1181 -44.7221 0.902 -0.029 0.430 30 31 25
-39.6229 24.4889 -45.0417 0.769 -0.154 0.621 32 33 27
-39.8372 24.7880 -45.1714 0.781 -0.079 0.619 35 36 29
-39.7447 25.0370 -45.1718 0.750 -0.119 0.650 37 38 31
-39.7668 25.8382 -45.3000 0.720 -0.173 0.672 39 40 32
-40.5306 27.8687 -45.9062 0.275 -0.855 0.441 43 44 36
-40.5688 28.4248 -46.0043 0.068 -0.418 0.906 47 48 40
-40.5987 33.7998 -46.8174 0.657 -0.470 0.589 71 70 65
-37.7307 38.0732 -46.3146 0.821 0.514 0.248 106 103 98
-37.4412 38.5907 -46.2766 0.747 0.376 0.548 103 100 95
-36.6160 38.9585 -46.0035 -0.007 -0.585 0.811 107 104 99
-36.3166 39.1729 -45.9165 -0.010 -0.609 0.793 111 106 100
-36.0684 41.8230 -46.2129 0.755 0.413 0.509 112 107 103
-31.5042 44.6545 -44.8210 0.327 -0.145 0.934 114 106 104
-28.2177 49.7193 -44.2698 0.486 -0.566 0.666 107 99 97
-18.3435 71.0301 -43.5221 0.086 -0.063 0.994 83 73 72
-15.4887 76.8372 -43.2532 0.188 -0.206 0.960 117 112 109
-15.2763 77.4769 -43.2641 0.188 -0.202 0.961 118 114 111
-13.1846 79.9594 -42.8028 0.697 0.090 0.712 121 119 107
-12.5157 81.0750 -42.7033 0.569 -0.427 0.703 109 108 92
-12.0849 83.1972 -42.8484 0.764 0.059 0.642 86 94 75
-16.6837 5.7431 -33.3620 0.842 -0.243 0.481 69 72 77
-44.3234 12.7451 -45.4596 0.942 -0.329 0.067 40 41 35
-44.2634 13.7052 -45.5802 0.960 -0.201 0.196 38 39 33
-44.4744 13.9650 -45.7037 0.974 -0.226 -0.015 36 37 31
-44.6571 14.2239 -45.8157 0.956 -0.295 -0.002 34 35 29
-45.0067 14.4982 -45.9967 0.946 -0.309 0.093 34 35 29
-45.5511 14.7913 -46.2583 0.675 -0.705 -0.216 34 35 29
-44.7889 15.7131 -46.0926 0.707 -0.030 0.707 29 27 28
-41.3987 21.9055 -45.6710 0.860 0.298 0.415 30 29 24
-41.4897 22.1780 -45.7484 0.856 0.298 0.422 31 30 25
-41.7195 22.4720 -45.8845 0.839 0.288 0.462 32 31 27
-39.3884 23.9420 -45.1746 0.757 0.105 0.644 44 43 38
-39.7744 25.3232 -45.5369 0.156 -0.835 0.528 47 49 39
-39.8829 25.6079 -45.6231 0.491 0.122 0.863 49 51 40
-39.5364 26.8864 -45.6773 0.673 -0.244 0.699 53 55 44
-40.5302 33.8039 -47.1164 0.663 -0.473 0.580 77 76 71
-36.8280 37.8498 -46.2467 0.931 0.123 0.342 103 100 95
-36.8483 38.1518 -46.3003 0.931 0.123 0.342 103 100 95
-31.5424 40.1726 -44.4849 0.735 -0.241 -0.634 112 107 101
-31.0554 48.2776 -45.5113 0.565 -0.825 0.011 117 109 106
-30.6929 48.4615 -45.3941 0.577 -0.817 0.001 116 108 105
-29.5173 48.6565 -44.9538 0.434 -0.825 -0.362 113 104 103
-28.8790 49.0486 -44.7579 0.097 -0.992 -0.085 111 101 100
-22.0185 65.8501 -44.5479 0.299 0.119 0.947 94 86 83
-17.7485 70.7028 -43.5729 0.080 -0.079 0.994 72 65 63
-15.5332 71.9242 -42.8719 0.923 0.037 0.382 109 101 99
-15.2414 76.3207 -43.4176 0.219 -0.145 0.965 143 138 135
-14.5456 76.6219 -43.1849 0.194 -0.194 0.962 127 122 119
-14.4415 77.3330 -43.2505 0.446 0.084 0.891 122 120 116
-12.9933 79.8662 -43.0535 0.711 0.071 0.700 92 92 79
-11.3191 81.4337 -42.6207 0.782 0.070 0.620 77 80 60
-8.4021 91.7176 -43.0045 0.905 -0.016 0.425 64 71 54
-9.3850 95.2969 -43.9364 0.509 -0.217 0.833 57 65 47
-45.7741 12.8616 -46.3605 0.406 -0.081 0.910 36 37 31
-44.6970 13.5083 -46.0263 0.493 0.011 0.870 36 37 31
-44.6470 13.7472 -46.0426 0.504 0.018 0.864 34 35 29
-45.8519 14.3351 -46.6160 0.501 -0.753 0.426 34 35 29
-39.7647 24.0179 -45.6452 0.807 0.086 0.584 48 47 42
-39.2085 26.5746 -45.8110 0.499 -0.083 0.863 84 86 75
-39.4187 28.2376 -46.1485 0.140 -0.295 0.945 85 85 77
-38.9989 28.9764 -46.0923 0.128 -0.312 0.941 95 95 87
-38.9895 29.2493 -46.1301 0.079 -0.322 0.943 97 97 89
-36.0206 29.7322 -45.0112 0.268 -0.962 0.043 103 103 95
-33.5966 31.6540 -44.3303 0.169 -0.407 0.898 89 89 81
-30.1904 37.1960 -43.8058 0.774 0.633 -0.011 109 104 100
-33.8620 39.9999 -45.7072 0.822 0.566 -0.060 112 107 101
-34.1725 40.3905 -45.8914 0.821 0.569 -0.048 113 108 102
-30.2136 43.6591 -44.7989 0.179 -0.362 0.915 103 98 95
-29.4511 44.9218 -44.6849 0.411 0.018 0.911 118 113 110
-25.1649 50.4640 -43.8071 0.806 0.030 0.592 114 104 105
-25.0690 56.9539 -44.7565 0.440 0.243 0.864 109 103 102
-19.7459 64.2755 -43.7331 0.003 -0.354 0.935 89 81 78
-17.3414 69.0130 -43.4885 0.127 0.071 0.989 84 76 74
-16.6739 71.1937 -43.5523 0.064 -0.089 0.994 98 90 88
-15.1753 71.7355 -43.0329 0.852 -0.045 0.521 138 130 128
-13.9399 76.6361 -43.2827 0.466 0.111 0.878 112 107 104
-13.9364 78.9997 -43.6411 0.418 -0.568 0.709 92 91 87
-12.7856 79.3614 -43.2340 0.700 -0.397 0.594 75 75 66
-12.7576 79.7403 -43.2804 0.711 0.071 0.700 79 79 66
-10.7844 82.6991 -42.9383 0.834 -0.128 0.536 74 83 52
-11.5759 84.1422 -43.4759 0.504 -0.080 0.860 75 84 54
-11.5113 84.9248 -43.5690 0.522 0.006 0.853 77 83 57
-11.2998 85.1753 -43.5222 0.491 -0.048 0.870 79 84 62
-11.7536 89.8282 -44.4127 0.548 0.176 0.818 82 81 77
-11.3913 90.8396 -44.4212 0.595 -0.609 0.525 76 75 72
-42.9817 14.5916 -45.8031 0.022 -0.795 0.607 34 35 29
-42.5553 15.0396 -45.6999 0.212 -0.686 0.696 31 30 28
-43.0169 15.8162 -46.0057 0.102 -0.947 0.303 28 26 27
-41.1376 16.1218 -45.2940 0.084 -0.963 0.258 28 26 26
-42.3759 21.8139 -46.6693 0.730 0.190 0.656 58 57 53
-33.6835 21.8128 -43.1599 0.697 0.171 0.697 48 47 43
-39.7674 25.0887 -46.1199 0.109 -0.829 0.549 67 69 58
-39.0764 26.8358 -46.1096 0.660 -0.248 0.709 79 81 70
-39.2644 27.1397 -46.2322 0.526 0.070 0.847 59 61 50
-40.2689 27.8711 -46.7502 0.401 -0.856 0.327 74 74 66
-40.1226 28.1169 -46.7290 0.189 -0.906 0.378 84 84 76
-38.9559 28.7114 -46.3494 0.075 -0.317 0.945 103 103 95
-36.3415 29.8177 -45.4641 0.236 -0.972 0.002 102 102 94
-33.2977 31.0596 -44.4262 0.184 -0.312 0.932 90 90 82
-32.9476 31.2518 -44.3145 0.213 -0.317 0.924 89 89 81
-33.5288 31.6571 -44.6114 0.169 -0.360 0.917 89 89 81
-33.5369 32.2076 -44.6994 0.176 -0.383 0.907 86 85 80
-33.3649 35.8045 -45.1831 0.310 -0.505 0.805 103 100 95
-30.0920 43.6431 -45.0673 0.664 0.136 0.735 101 95 95
-29.1122 45.1351 -44.9012 0.404 0.013 0.915 114 109 106
-25.1449 54.0280 -44.6672 0.979 0.179 -0.101 115 103 105
-17.7763 61.8457 -42.8948 0.125 -0.153 0.980 94 86 83
-17.7090 62.8437 -43.0211 0.210 -0.012 0.978 90 82 79
-17.5398 63.0976 -42.9918 0.212 -0.010 0.977 90 82 79
-15.8679 70.7271 -43.4902 0.059 -0.088 0.994 126 116 115
-14.6231 70.6797 -42.9804 0.036 -0.157 0.987 135 126 125
-14.5745 71.0189 -43.0129 0.038 -0.156 0.987 138 130 128
-10.2758 78.3549 -42.4057 0.391 -0.211 0.896 74 75 58
-10.8370 86.1169 -43.8260 0.763 -0.085 0.641 79 81 75
-10.8449 87.3977 -44.0261 0.545 0.336 0.768 73 75 69
-11.6512 90.2353 -44.7881 0.564 -0.718 0.407 69 70 66
-11.4043 90.4657 -44.7238 0.564 -0.718 0.407 69 70 66
-11.5091 92.7773 -45.1216 0.830 -0.164 0.533 60 67 46
-5.2552 103.6856 -44.2745 0.961 0.276 -0.024 51 61 27
-13.4571 6.2006 -32.8192 0.871 -0.488 0.050 82 86 89
-42.7505 15.0691 -46.0845 0.329 -0.676 0.660 30 29 25
-42.3664 15.5214 -45.9989 0.320 -0.676 0.663 31 27 28
-41.8910 15.7202 -45.8368 0.524 -0.832 0.180 30 26 27
-36.8822 22.5639 -44.8675 0.349 -0.053 0.936 56 55 51
-38.0498 22.9991 -45.4090 0.476 -0.020 0.879 57 56 52
-41.4195 25.1157 -47.1053 0.475 -0.107 0.873 75 77 66
