ply
format ascii 1.0
element vertex 141
property float x
property float y
property float z
property float nx
property float ny
property float nz
property uchar diffuse_red
property uchar diffuse_green
property uchar diffuse_blue
end_header
34.8452 429.3656 -15.7514 -0.041 -0.625 0.780 29 28 36
36.3778 424.6749 -17.6552 0.064 -0.680 0.730 33 32 40
42.2934 352.4741 -17.5828 -0.162 -0.863 0.479 59 57 60
34.4246 383.1530 -24.3700 0.919 0.084 -0.385 74 62 84
36.0807 375.0721 -26.9588 0.868 0.151 0.473 79 70 91
38.0263 397.3317 -31.5948 0.568 -0.004 0.823 63 58 71
33.7284 380.5940 -32.2682 -0.246 -0.812 -0.529 88 86 99
38.5920 390.1335 -32.3375 0.490 -0.846 0.213 61 68 67
37.8741 380.2571 -32.9889 0.107 -0.759 -0.643 55 75 60
32.5548 382.8241 -34.6254 -0.221 -0.796 -0.563 62 62 59
35.4714 374.5349 -33.5167 0.340 -0.794 -0.504 69 69 67
53.3617 422.5265 -36.3900 0.035 -0.357 0.934 29 41 38
54.9006 409.6787 -35.0454 0.105 -0.309 0.945 27 38 36
67.1040 303.5960 -26.8571 0.068 -0.122 0.990 50 61 43
59.5924 378.8904 -37.3257 0.244 -0.967 0.078 56 70 47
65.9532 344.3891 -33.2678 -0.050 -0.281 0.958 59 74 51
67.8551 331.9170 -31.6375 0.173 -0.103 0.980 59 74 51
65.4238 347.7383 -34.2715 0.048 -0.166 0.985 59 74 51
68.5386 327.8545 -31.6162 0.222 -0.070 0.973 59 74 51
68.9040 328.6521 -31.6423 0.222 -0.070 0.973 57 71 48
30.3763 372.8683 -43.4023 0.854 0.157 0.497 89 95 81
64.7157 354.1101 -35.6513 0.207 -0.124 0.971 59 74 51
68.2979 326.1920 -31.9945 0.164 -0.112 0.980 59 74 51
68.7449 325.1942 -31.8109 0.220 -0.079 0.972 59 74 51
69.0957 326.2284 -31.8662 0.223 -0.074 0.972 61 75 52
69.2733 324.0875 -32.1147 0.220 -0.076 0.972 64 78 55
64.2649 394.9110 -42.1698 -0.090 -0.274 0.958 73 88 65
45.4656 262.9647 -45.2478 0.691 -0.434 0.579 57 59 46
46.1475 261.2465 -44.7820 0.766 -0.304 0.567 62 62 50
46.3207 260.6177 -45.0742 0.758 -0.346 0.553 65 68 54
71.3301 246.4904 -43.2059 -0.375 -0.433 0.820 67 83 57
72.2144 246.0448 -42.8815 -0.390 -0.452 0.803 59 78 49
72.9286 244.1202 -42.6552 -0.387 -0.448 0.806 56 75 43
73.4296 241.6419 -42.7220 -0.401 -0.507 0.763 64 83 51
73.7619 240.2791 -42.3314 -0.424 -0.508 0.750 64 83 51
73.5352 240.4785 -42.8026 -0.407 -0.468 0.784 69 88 56
73.8479 239.5417 -42.5095 -0.440 -0.545 0.714 69 88 56
72.9180 234.9068 -43.1468 0.867 -0.197 0.458 76 90 64
73.6846 230.8989 -42.3560 0.891 -0.198 0.408 70 87 58
53.5833 225.8218 -47.4063 0.721 0.210 0.660 71 87 58
53.9681 223.8488 -47.1996 0.721 0.210 0.660 73 89 60
53.9329 225.8887 -47.7003 0.719 0.214 0.661 72 88 59
53.9106 226.3364 -48.1902 0.702 0.098 0.705 77 93 64
55.1324 224.8019 -47.8467 0.693 0.231 0.683 70 86 57
74.0227 203.4012 -44.7559 -0.096 -0.792 0.603 74 95 60
73.8739 202.8125 -44.9319 -0.082 -0.794 0.603 62 82 52
75.1857 199.1753 -43.7106 0.015 -0.724 0.690 70 92 54
75.3972 199.2488 -43.6630 0.493 -0.075 0.867 70 92 54
75.6032 199.4528 -43.6563 0.502 -0.061 0.863 71 93 55
75.7975 199.9677 -43.7467 0.832 0.074 0.550 74 96 58
73.5610 197.9365 -44.1670 -0.200 -0.920 0.338 61 81 56
74.6646 202.1005 -45.0592 -0.101 -0.799 0.592 65 87 49
75.2472 198.7596 -43.8570 0.023 -0.717 0.697 66 88 50
75.4720 198.4966 -43.7032 0.275 -0.452 0.849 67 89 51
73.2904 199.6356 -45.0669 -0.110 -0.903 0.415 65 84 62
73.7550 199.1844 -44.7749 0.606 -0.606 0.515 58 78 53
74.2694 202.0521 -45.4758 0.069 -0.308 0.949 57 79 45
74.7296 201.6584 -45.2028 -0.087 -0.732 0.675 59 81 43
75.2961 198.6373 -44.0952 0.040 -0.686 0.726 60 82 44
75.5296 198.1523 -43.8700 0.263 -0.452 0.853 61 83 45
75.7392 198.2241 -43.8220 0.502 -0.061 0.863 62 84 46
75.9527 198.1840 -43.7387 0.837 0.002 0.548 69 91 53
73.6487 197.9251 -44.7204 -0.260 -0.933 0.247 65 85 60
73.8130 198.9199 -44.9700 0.268 -0.903 -0.335 61 81 56
73.9587 200.3242 -45.3512 0.277 -0.892 -0.358 57 77 52
74.7836 201.4514 -45.4202 -0.087 -0.732 0.675 56 78 40
75.3429 198.5650 -44.3491 0.050 -0.685 0.727 56 78 40
76.1942 198.5568 -44.0615 0.837 -0.004 0.547 75 97 59
74.8655 200.6217 -45.4356 -0.133 -0.510 0.850 56 78 40
76.2572 198.0116 -44.1624 0.837 -0.004 0.547 74 96 58
75.2025 198.8850 -45.0796 -0.008 -0.983 0.182 60 82 44
67.8787 194.1701 -46.6879 0.134 -0.965 -0.227 72 87 64
74.8300 199.5277 -45.9958 -0.087 -0.888 0.451 70 91 59
75.1223 198.8064 -45.9626 -0.169 -0.525 0.834 73 95 58
68.1985 191.8209 -46.4230 -0.025 -0.956 -0.291 62 77 54
75.1577 190.6448 -45.3101 -0.057 -0.985 0.161 58 79 46
75.6204 189.3393 -44.7126 -0.059 -0.960 0.274 59 78 46
75.6724 189.0797 -44.8826 -0.060 -0.995 0.080 59 78 46
76.1293 192.8304 -45.9695 -0.182 -0.947 0.264 66 87 56
60.2936 193.4262 -52.1534 0.404 -0.629 0.664 62 81 51
61.4500 184.4947 -50.1993 0.992 0.027 -0.122 70 89 61
63.1528 186.0415 -50.6921 0.409 -0.450 0.794 62 76 51
61.5637 187.5064 -52.0973 0.946 -0.175 0.274 57 76 48
61.8605 187.1254 -51.8518 0.862 -0.322 0.392 58 77 49
67.2606 166.7343 -43.3768 0.036 -0.998 -0.050 53 67 42
66.5242 185.7402 -50.4779 0.170 -0.565 0.807 60 76 49
68.6826 186.4157 -50.1851 0.096 -0.647 0.757 52 67 46
69.2707 180.9368 -48.2552 0.015 -0.972 0.235 70 85 62
69.4937 180.7714 -48.1095 0.808 -0.559 0.187 65 80 59
68.3698 186.0208 -50.7329 0.023 -0.401 0.916 67 83 56
69.5656 180.4327 -48.2303 0.678 -0.671 0.301 71 86 65
69.7757 180.3827 -48.1310 0.635 -0.683 0.361 68 83 62
67.2912 184.3008 -50.8047 0.463 -0.596 0.656 64 80 53
67.4505 184.8216 -50.9343 0.831 0.031 0.556 71 87 59
67.9053 184.6396 -50.6912 0.217 -0.491 0.844 75 91 62
68.1070 184.7766 -50.6634 0.217 -0.491 0.844 74 90 61
69.3964 180.4516 -48.5745 -0.090 -0.996 -0.029 74 89 66
69.6352 180.1151 -48.3584 0.620 -0.697 0.361 72 87 66
69.8312 180.2059 -48.3158 0.627 -0.693 0.355 69 84 63
67.0601 184.7612 -51.3493 0.561 -0.827 -0.041 61 77 52
67.3849 183.8260 -50.8772 0.800 -0.405 0.444 64 80 55
67.5713 184.0980 -50.9052 0.819 0.029 0.574 70 86 60
67.7577 184.3728 -50.9341 0.649 -0.128 0.750 79 95 68
68.9383 181.2642 -49.3256 -0.072 -0.997 -0.041 77 93 66
69.3796 181.0123 -49.0606 0.832 -0.432 -0.348 74 89 66
69.5872 181.0051 -48.9771 0.810 -0.389 -0.440 71 86 65
69.7561 181.3964 -49.0560 0.810 -0.393 -0.436 69 84 63
67.1415 184.4016 -51.4699 0.578 -0.809 -0.101 60 75 54
67.8377 184.0060 -51.0505 0.840 0.016 0.542 70 85 62
68.8966 182.0535 -49.9104 -0.073 -0.991 -0.115 79 94 69
69.2147 180.9752 -49.3852 -0.097 -0.995 -0.018 80 96 70
69.7480 181.8919 -49.5173 0.810 -0.393 -0.436 70 85 64
70.0599 180.7713 -48.9787 0.654 -0.749 -0.104 66 81 60
67.5378 183.1756 -51.1413 0.809 -0.482 0.337 60 75 56
68.8838 182.5639 -50.3835 -0.081 -0.956 0.282 64 79 56
69.3687 181.9133 -49.9497 0.871 -0.446 -0.206 66 81 60
69.5516 182.1786 -49.9770 0.904 -0.351 -0.244 66 81 62
67.8557 182.6065 -51.0842 0.842 0.028 0.539 60 75 56
68.2260 183.1375 -51.1376 0.214 -0.525 0.824 64 79 60
68.3117 182.7050 -51.2214 0.292 -0.767 0.572 65 80 61
57.6475 176.2205 -54.4346 0.098 -0.992 0.075 60 74 48
67.0441 184.2266 -53.7335 -0.055 -0.507 0.860 57 72 53
67.5314 183.7841 -53.3635 -0.086 -0.487 0.869 56 71 52
75.2761 178.6366 -48.4769 0.861 -0.228 -0.456 56 73 55
67.8669 177.7683 -51.4317 -0.356 -0.767 0.533 70 85 62
68.1205 177.3613 -51.1678 -0.311 -0.808 0.501 66 84 62
68.7283 175.5713 -50.2147 -0.113 -0.692 0.713 63 81 59
69.6538 174.3801 -49.3670 -0.044 -0.779 0.625 54 72 50
75.1965 177.2479 -48.2238 0.297 -0.684 -0.667 58 75 57
68.7857 175.3869 -50.3844 -0.113 -0.692 0.713 67 85 61
69.9174 172.8721 -49.4412 0.126 -0.763 -0.634 64 82 58
70.4545 173.3437 -49.4067 0.013 -0.995 0.103 62 80 56
70.4990 173.2605 -49.6137 0.023 -0.996 0.092 67 85 61
69.3378 171.1818 -50.5483 0.954 -0.205 0.220 65 83 59
69.7581 169.3933 -49.8837 0.924 -0.104 0.367 62 80 58
69.4551 168.9879 -50.0985 -0.072 -0.904 -0.422 56 71 48
78.4194 172.1196 -49.5012 0.631 0.048 0.774 49 60 44
77.1835 170.1290 -52.1220 0.727 0.190 0.659 55 67 47
77.4205 169.3000 -51.8723 0.549 0.059 0.834 51 63 43
67.8878 162.1353 -53.7739 -0.351 -0.681 0.643 73 88 67
68.1344 161.6842 -53.4442 -0.394 -0.703 0.592 74 89 66
