ply
format ascii 1.0
element vertex 864
property float x
property float y
property float z
property float nx
property float ny
property float nz
property uchar diffuse_red
property uchar diffuse_green
property uchar diffuse_blue
end_header
-332.7368 157.5322 25.6789 0.993 0.034 0.113 72 65 59
-331.9941 157.7344 25.6609 0.989 0.061 0.134 75 68 62
-330.4514 161.1510 25.8995 0.780 0.425 0.459 85 76 75
-331.8932 163.0544 26.1456 0.784 0.425 0.452 66 57 56
-330.3524 162.6134 26.0292 0.625 -0.420 -0.658 58 48 47
-327.0453 173.0940 26.8311 0.682 -0.663 -0.308 65 55 56
-325.6095 172.6552 26.7201 0.743 -0.580 -0.335 83 72 74
-330.7841 188.2801 28.4127 0.708 -0.412 -0.573 85 80 77
-327.8513 186.4516 28.1001 0.916 0.293 -0.274 83 78 75
-333.0682 212.8951 30.7905 0.850 0.479 0.219 96 90 90
-333.3234 214.0030 30.9050 0.940 0.340 0.033 97 91 91
-333.8165 215.3516 31.0534 0.940 0.340 0.033 101 95 95
-334.6728 219.6646 31.4925 0.852 -0.523 -0.036 81 75 75
-333.3509 225.2687 31.9432 0.954 -0.061 -0.294 90 88 89
-221.8299 122.4077 16.9903 0.457 -0.708 -0.538 74 74 74
-333.2396 251.9745 34.3956 0.483 0.125 0.867 73 73 73
-301.9195 225.4647 30.4150 0.240 -0.131 0.962 89 89 89
-244.5073 -67.1741 0.3450 0.403 -0.910 -0.100 69 69 71
-277.1127 -46.3165 3.7816 0.354 -0.713 -0.605 99 90 93
-284.2617 -46.4240 4.1073 0.848 -0.058 0.527 84 78 80
-334.4773 -24.4065 8.4763 0.506 -0.855 0.115 57 46 54
-344.4547 -13.8873 9.9060 0.774 0.544 -0.324 72 59 68
-353.8153 -2.3163 11.4029 0.325 -0.923 0.207 73 56 66
-343.6231 2.6142 11.3753 0.795 0.497 0.347 85 68 76
-347.6337 25.3824 13.6446 0.787 0.543 -0.293 80 61 67
-346.0839 25.6972 13.6007 0.786 0.503 -0.360 84 65 71
-359.1893 30.2133 14.6285 0.653 0.720 -0.233 97 78 84
-344.2156 36.4534 14.4962 0.358 -0.851 0.385 119 104 101
-348.1884 38.6813 14.8863 0.699 -0.677 -0.230 136 121 118
-348.2997 39.3461 14.9522 0.726 -0.608 -0.322 171 156 153
-347.8478 39.8711 14.9790 0.726 -0.608 -0.322 203 188 185
-354.5314 51.4598 16.3519 0.572 0.044 0.819 108 92 95
-353.5924 51.8540 16.3439 0.375 -0.814 0.444 137 121 123
-338.7135 61.5308 16.5302 0.375 0.184 0.909 69 53 53
-341.8138 67.2151 17.1953 0.774 -0.125 0.621 87 72 75
-341.4425 67.7388 17.2257 0.750 0.245 0.614 77 62 65
-341.0321 68.2469 17.2529 0.939 0.138 0.316 81 66 69
-342.6472 69.5140 17.4445 0.775 0.245 0.583 89 74 78
-342.4692 70.1127 17.4909 0.769 0.275 0.577 96 80 80
-340.4496 70.6722 17.4472 0.907 0.412 -0.083 96 80 80
-332.9019 74.2425 17.4194 0.731 -0.499 -0.466 96 80 81
-331.2602 74.2153 17.3399 0.801 -0.405 -0.441 94 78 79
-337.9287 78.9716 18.0876 0.986 0.120 0.114 93 77 77
-338.3031 79.7991 18.1808 0.989 0.109 0.104 96 81 77
-339.8466 81.1288 18.3747 0.844 -0.469 0.260 103 88 81
-339.4496 81.6339 18.4023 0.815 -0.558 0.158 113 99 90
-338.0197 81.6910 18.3404 0.668 -0.683 0.295 126 111 104
-337.4975 82.1363 18.3566 0.682 -0.674 0.282 121 106 99
-336.2296 82.2530 18.3078 0.621 -0.653 0.433 124 109 102
-335.2171 82.4761 18.2806 0.586 -0.390 0.711 119 105 96
-336.2705 85.6279 18.6182 0.826 0.031 0.563 90 78 80
-333.8774 86.5518 18.5903 0.484 -0.448 0.752 79 67 67
-333.4707 87.0337 18.6153 0.484 -0.448 0.752 79 67 67
-333.8425 87.8770 18.7098 0.798 -0.182 0.574 80 68 68
-334.3963 88.8085 18.8209 0.979 0.203 0.024 79 65 65
-334.0337 89.9865 18.9116 0.966 0.218 0.139 90 74 75
-334.9778 91.1123 19.0588 0.964 0.224 0.142 103 87 88
-336.3754 92.4621 19.2478 0.802 -0.597 0.022 112 96 97
-335.1560 92.5572 19.1992 0.808 -0.589 0.007 109 93 94
-335.3414 93.3286 19.2784 0.741 -0.219 0.635 93 77 78
-334.5436 94.3032 19.3301 0.660 0.097 0.745 105 91 91
-336.6355 97.3989 19.7112 0.838 -0.268 0.475 105 93 93
-337.4312 98.4902 19.8483 0.868 -0.235 0.438 105 93 93
-335.8674 101.1639 20.0193 0.622 0.083 0.779 115 104 102
-331.7898 100.4230 19.7602 0.745 -0.063 0.664 81 68 62
-328.8980 102.9857 19.8588 0.387 -0.687 0.615 90 76 73
-330.3020 105.8065 20.1825 0.627 -0.759 0.174 96 81 88
-329.8038 106.2210 20.1970 0.627 -0.759 0.174 121 106 111
-328.9203 107.1071 20.2366 0.655 -0.744 0.130 132 116 119
-329.4054 108.0673 20.3471 0.662 -0.729 0.176 126 109 115
-333.2899 110.9471 20.7926 0.401 -0.816 0.417 117 102 107
-329.4325 110.8514 20.6028 0.398 -0.678 0.618 100 88 88
-328.8382 111.2041 20.6072 0.398 -0.678 0.618 83 71 71
-333.4963 120.2897 21.6563 0.702 -0.673 -0.232 79 66 60
-334.4311 121.5721 21.8173 0.748 -0.643 -0.163 84 71 65
-334.3761 122.2593 21.8776 0.948 -0.189 0.256 87 74 68
-334.3243 122.9492 21.9382 0.950 -0.245 0.195 99 84 79
-331.1148 125.9982 22.0663 0.997 0.075 -0.018 102 90 90
-330.4727 127.0291 22.1304 0.919 -0.019 -0.393 95 84 84
-330.4321 127.7231 22.1919 0.919 -0.019 -0.393 104 92 92
-333.1882 156.4266 24.9449 0.853 0.508 0.118 72 62 58
-328.5562 162.8195 25.3119 0.671 -0.560 -0.485 88 76 76
-329.0773 165.5485 25.5858 0.888 -0.173 -0.426 93 81 83
-328.6472 177.6975 26.6761 0.802 0.360 -0.476 122 112 113
-328.6902 178.5257 26.7538 0.795 0.437 -0.421 95 85 86
-332.1751 189.6305 27.9324 0.712 -0.403 -0.575 85 80 77
-329.1722 201.6388 28.8891 0.842 0.386 0.378 59 55 54
-331.0068 205.9094 29.3656 0.765 -0.467 0.443 65 61 60
-329.9095 205.6799 29.2931 0.760 -0.486 0.432 69 65 64
-328.3879 205.0292 29.1622 0.755 -0.493 0.432 82 78 77
-331.1582 209.4231 29.6938 0.854 0.432 0.289 90 86 85
-332.2137 211.3110 29.9159 0.847 0.474 0.240 84 80 79
-332.9884 212.9294 30.1002 0.847 0.472 0.245 87 81 81
-333.2931 214.0868 30.2203 0.898 0.410 0.162 99 93 93
-333.5262 215.1762 30.3308 0.933 0.357 0.053 117 111 111
-333.9336 216.4434 30.4658 0.983 0.170 -0.068 126 120 120
-334.0093 217.3812 30.5550 0.924 -0.082 -0.375 117 111 111
-334.6467 219.7548 30.8019 0.852 -0.523 -0.036 82 76 76
-334.6335 224.9708 31.2781 0.888 -0.108 -0.447 88 84 83
-334.1782 225.3741 31.2936 0.858 -0.188 -0.478 98 97 95
-331.2483 223.1961 30.9570 0.857 -0.408 -0.315 101 99 100
-331.6971 250.3249 33.4578 0.439 0.094 0.893 72 69 70
-244.5259 -67.1763 0.0328 0.406 -0.908 -0.104 81 81 83
-276.2901 -46.2025 3.3553 0.306 -0.799 -0.517 100 90 91
-213.4880 -33.7254 1.6832 0.790 -0.363 -0.494 63 58 61
-354.0528 -2.2637 10.8168 0.338 -0.919 0.202 74 57 65
-352.1232 2.9449 11.2034 0.962 0.247 0.120 97 80 88
-345.3658 3.4168 10.9445 0.850 0.322 0.418 79 62 70
-346.2325 12.4074 11.7993 0.683 -0.647 0.340 88 67 72
-339.1007 12.5511 11.4938 0.835 -0.428 0.345 87 68 72
-350.8109 29.1812 13.5264 0.768 -0.603 0.215 102 83 89
-317.7884 24.5776 11.6337 0.237 -0.969 -0.074 110 91 95
-322.9714 26.2621 12.0181 0.222 -0.974 -0.053 120 101 105
-343.7148 36.3774 13.8628 0.358 -0.851 0.385 119 104 101
-343.6547 36.9873 13.9154 0.416 -0.748 0.517 124 109 106
-353.9558 50.0137 15.5580 0.581 0.447 0.680 101 85 88
-353.7108 53.9427 15.9037 0.345 -0.554 0.758 115 101 100
-347.2661 52.6667 15.5000 0.509 -0.663 0.549 112 98 97
-346.7498 53.1633 15.5220 0.543 -0.662 0.516 104 90 89
-344.9074 56.5062 15.7432 0.336 -0.588 -0.736 98 80 80
-341.6758 56.7633 15.6222 0.324 -0.618 -0.716 91 73 73
-339.1334 59.1465 15.7250 0.280 -0.627 -0.727 84 68 68
-337.8098 59.3398 15.6835 0.278 -0.666 -0.692 84 68 68
-340.7120 67.5237 16.5560 0.924 0.211 0.318 72 57 60
-342.8077 68.9645 16.7804 0.871 0.049 0.490 78 63 66
-342.1962 69.4007 16.7926 0.898 0.426 -0.111 83 68 71
-341.0425 69.6293 16.7619 0.866 0.496 0.070 91 75 75
-341.6812 70.5355 16.8727 0.877 0.476 0.063 97 81 81
-340.9536 70.9219 16.8752 0.884 0.282 0.373 90 74 74
-345.9905 79.6759 17.8948 0.709 -0.687 -0.158 98 79 81
-339.7229 80.4612 17.6862 0.857 -0.515 0.009 80 65 60
-339.3089 80.9591 17.7129 0.863 -0.505 0.000 97 82 74
-338.8344 81.4296 17.7344 0.853 -0.522 0.006 112 98 89
-337.7834 81.6489 17.7074 0.668 -0.683 0.295 112 97 90
-334.0282 82.6765 17.6330 0.595 -0.379 0.708 89 76 69
-332.4105 85.9377 17.8568 0.530 -0.415 0.739 75 64 62
-332.6998 86.7382 17.9424 0.484 -0.448 0.752 75 63 63
-333.2889 87.6809 18.0542 0.768 -0.161 0.620 75 63 63
-332.7342 88.0915 18.0667 0.842 0.029 0.538 77 63 63
-333.1241 88.9455 18.1617 0.946 0.324 -0.022 79 65 65
-334.1218 90.7670 18.3716 0.958 0.267 0.107 103 87 88
-335.9037 92.2995 18.5903 0.807 -0.590 0.029 111 95 96
-335.1174 92.6024 18.5827 0.808 -0.589 0.007 108 92 93
-334.4832 92.9758 18.5882 0.743 -0.215 0.634 113 99 99
-332.3402 101.4643 19.2631 0.665 0.289 0.688 81 68 62
-330.2402 105.8411 19.5666 0.672 -0.741 0.002 101 88 95
-329.7675 106.2696 19.5844 0.672 -0.741 0.002 124 112 116
-328.4444 107.5976 19.6458 0.551 -0.644 0.530 106 92 96
-330.8168 110.3195 19.9989 0.468 -0.764 0.444 94 79 82
-329.0734 110.7161 19.9570 0.526 -0.734 0.428 94 83 81
-329.0001 111.3678 20.0129 0.635 -0.724 0.267 93 82 80
-329.2126 112.1854 20.0966 0.645 -0.689 0.332 89 77 77
-329.1706 112.8573 20.1557 0.572 -0.680 0.459 76 64 64
-334.1291 120.7453 21.0932 0.707 -0.689 -0.161 73 62 56
-333.9074 121.3301 21.1364 0.747 -0.641 -0.178 79 65 62
-334.1937 122.9448 21.2958 0.950 -0.245 0.195 106 92 89
-330.8765 125.9239 21.4180 0.999 0.018 -0.033 41 33 31
-330.8565 129.5187 21.7435 0.961 -0.018 -0.276 84 76 73
-329.2470 130.6380 21.7732 0.902 -0.028 0.431 71 65 62
-331.2160 132.6607 22.0447 0.936 0.277 0.219 69 63 60
-330.3437 151.3408 23.7015 0.934 0.093 -0.346 79 68 64
-330.8376 163.1799 24.7982 0.637 -0.405 -0.656 91 79 79
-328.1049 163.3186 24.6888 0.900 -0.043 -0.434 91 79 79
-329.4871 165.9718 24.9914 0.886 -0.089 -0.455 104 92 94
-327.6772 173.0383 25.5520 0.983 0.047 -0.179 58 48 49
-329.3344 179.1802 26.1835 0.791 0.443 -0.421 96 86 87
-330.8569 184.5073 26.7351 0.748 0.107 -0.655 110 102 100
-332.5508 190.0709 27.3158 0.711 -0.407 -0.574 76 71 68
-327.3404 195.0785 27.5377 0.823 0.508 -0.255 109 105 102
-328.5531 198.6793 27.9187 0.768 -0.519 -0.375 112 108 105
-327.3781 198.3824 27.8393 0.757 -0.613 -0.229 109 105 104
-325.7897 197.6831 27.7049 0.751 -0.542 0.377 99 95 94
-328.3346 200.9428 28.1144 0.882 0.379 0.281 95 91 90
-329.0612 202.4693 28.2854 0.884 0.381 0.271 97 93 92
-329.7639 203.9791 28.4539 0.884 0.381 0.271 105 101 100
-329.4155 204.4748 28.4833 0.856 0.413 0.310 87 83 82
-329.5079 205.3987 28.5713 0.996 0.086 -0.039 91 87 86
-328.9123 205.6518 28.5677 0.737 -0.659 -0.154 106 102 101
-331.5683 209.0935 28.9987 0.905 0.100 0.414 114 110 109
-331.7231 210.0914 29.0962 0.905 0.100 0.414 112 108 107
-331.7898 211.0047 29.1821 0.836 0.429 0.343 108 104 103
-332.6607 212.7178 29.3765 0.847 0.472 0.245 71 65 65
-332.8973 213.8068 29.4859 0.897 0.406 0.173 87 81 81
-332.8882 214.6532 29.5623 0.879 -0.083 0.469 121 115 115
-333.2363 215.8592 29.6874 0.889 -0.156 0.430 137 131 131
-332.7948 216.2743 29.7053 0.885 -0.211 0.415 128 122 122
-332.7739 217.1123 29.7805 0.891 -0.204 0.406 107 101 101
-331.2278 222.4273 30.1939 0.884 -0.116 -0.454 101 97 96
-329.9116 221.9202 30.0891 0.997 0.028 -0.065 101 99 100
-371.8291 301.0938 39.1481 0.749 -0.542 -0.381 83 75 76
-244.7303 -67.2324 -0.2766 0.406 -0.908 -0.104 90 90 90
-331.5906 -61.2304 3.9466 0.422 -0.217 0.880 71 66 70
-287.9284 -52.7529 2.8599 0.181 -0.913 0.366 71 66 70
-335.0122 -6.0119 9.0694 0.196 -0.788 -0.584 71 55 58
-333.3805 -5.5839 9.0388 0.196 -0.788 -0.584 73 56 62
-354.8366 3.2599 10.7456 0.940 0.324 0.104 90 73 83
-343.9772 3.3008 10.2889 0.861 0.344 0.373 80 63 71
-369.9523 18.4736 12.7578 0.574 -0.575 -0.583 79 63 68
-270.1732 6.5945 7.4571 0.754 -0.644 0.129 79 64 71
-348.8966 39.5867 13.7684 0.959 0.188 0.210 105 90 87
-348.8020 40.2032 13.8200 0.966 0.157 0.208 84 69 66
-349.2844 40.9663 13.9093 0.745 0.661 0.085 82 66 67
-349.2839 41.6091 13.9672 0.742 0.666 0.077 108 92 93
-347.0754 51.3553 14.7521 0.203 -0.972 0.121 104 90 89
-343.2426 50.8591 14.5449 0.557 -0.667 0.495 106 92 91
-336.2910 49.4019 14.1189 0.786 -0.583 0.206 108 94 93
-339.7656 51.0861 14.4180 0.602 -0.701 -0.381 103 89 88
-344.2284 55.6892 15.0221 0.754 -0.539 0.375 96 80 80
-339.8772 59.4505 15.1767 0.280 -0.627 -0.727 73 57 57
-336.8914 59.0784 15.0166 0.278 -0.653 -0.704 72 56 56
-328.2397 60.4622 14.7746 0.684 0.513 0.518 79 65 65
-339.5620 67.1529 15.8577 0.889 0.295 0.351 66 51 54
-342.3196 69.5031 16.1865 0.898 0.426 -0.111 77 62 65
-341.6255 69.9060 16.1934 0.882 0.470 0.044 85 69 70
-342.0917 71.4152 16.3492 0.957 -0.289 -0.000 85 69 70
-338.3824 75.2782 16.5402 0.804 -0.551 -0.224 96 80 81
-338.0196 75.7950 16.5714 0.804 -0.551 -0.224 97 81 82
-337.9632 77.1022 16.6868 0.831 -0.494 -0.254 82 66 67
-338.3817 78.6115 16.8406 0.979 -0.091 0.180 81 65 67
-338.3316 79.2599 16.8969 0.979 -0.091 0.180 81 66 65
-339.0013 80.2145 17.0114 0.690 -0.663 0.291 76 63 59
-337.5239 81.5966 17.0733 0.707 -0.650 0.279 113 100 94
-336.3765 82.4378 17.1005 0.768 -0.629 0.118 113 100 94
-333.4035 89.8130 17.6393 0.950 0.307 -0.051 91 75 76
-333.9513 90.7487 17.7469 0.955 0.277 0.100 104 88 89
-334.1895 91.5397 17.8283 0.955 0.277 0.100 109 93 94
-335.0789 92.6477 17.9659 0.808 -0.589 0.007 102 88 88
-333.9762 92.7933 17.9323 0.743 -0.215 0.634 125 111 111
-330.6575 102.6986 18.6845 0.411 -0.619 0.669 87 76 72
-329.4268 103.4063 18.6961 0.548 -0.834 0.069 85 74 71
-329.6621 106.2800 18.9652 0.668 -0.744 0.013 80 69 73
-328.6695 107.7930 19.0595 0.894 -0.446 0.050 73 62 66
-329.5125 110.3436 19.3251 0.528 -0.849 -0.026 102 91 90
-328.9311 110.7049 19.3331 0.528 -0.849 -0.026 114 103 99
-328.4569 111.1255 19.3509 0.531 -0.847 -0.029 117 106 102
-328.0421 112.2718 19.4366 0.624 -0.726 0.290 90 79 76
-334.0889 121.5149 20.5262 0.740 -0.652 -0.166 76 65 61
-332.4207 121.9357 20.4934 0.804 0.557 0.206 78 64 61
-329.6471 123.0804 20.4790 0.938 0.200 0.283 100 92 89
-330.1917 124.8503 20.6616 0.997 0.015 -0.074 84 79 75
-330.6320 125.8456 20.7700 0.999 0.007 -0.048 79 74 70
-329.8340 126.0571 20.7553 0.995 0.103 -0.002 78 73 69
-329.7283 126.7071 20.8094 0.996 0.079 -0.038 66 61 57
-330.8168 129.5708 21.1137 0.862 -0.270 0.429 57 53 48
-323.9619 141.5747 21.9052 0.929 -0.221 -0.296 82 73 66
-330.5972 151.6157 23.0916 0.934 0.093 -0.346 73 62 60
-329.3853 152.2226 23.0950 0.865 0.450 -0.223 72 61 59
-330.0440 153.4726 23.2356 0.878 0.388 -0.280 72 61 59
-330.2721 154.4029 23.3291 0.596 -0.695 -0.402 70 59 57
-329.7612 165.5104 24.3087 0.888 -0.168 -0.429 99 87 89
-329.1425 165.7864 24.3074 0.881 -0.210 -0.423 100 88 90
-328.5316 166.0658 24.3067 0.870 -0.170 -0.463 105 93 95
-328.8095 170.1756 24.6889 0.421 -0.634 -0.648 80 70 71
-328.6492 177.1044 25.3067 0.790 0.449 -0.417 97 87 88
-330.0277 179.8775 25.6152 0.791 0.443 -0.421 86 76 77
-330.2169 180.8392 25.7099 0.848 0.246 -0.470 83 73 74
-329.9837 181.4357 25.7537 0.811 -0.053 -0.583 85 75 76
-330.7906 184.5498 26.0687 0.744 0.109 -0.659 81 76 73
-331.2997 185.8063 26.2035 0.733 0.107 -0.672 75 70 67
-327.2330 183.0054 25.7786 0.800 0.257 0.542 71 66 63
-325.9929 182.6968 25.6983 0.731 0.198 0.653 76 71 68
-332.7699 190.3710 26.6773 0.712 -0.403 -0.575 77 72 69
-329.2228 197.7747 27.1944 0.778 -0.550 -0.304 126 123 118
-329.0083 198.3950 27.2412 0.483 -0.781 -0.397 121 117 114
-328.4810 198.7178 27.2480 0.483 -0.781 -0.397 122 118 115
-328.8419 202.3667 27.5922 0.851 0.439 0.289 95 91 90
-329.4743 203.8083 27.7490 0.884 0.381 0.271 101 97 96
-331.2122 208.8556 28.2776 0.905 0.100 0.414 133 129 128
-331.8587 210.3373 28.4386 0.804 -0.476 0.357 132 128 127
-331.5640 210.8940 28.4763 0.853 0.423 0.306 124 120 119
-332.5381 212.7095 28.6812 0.853 0.423 0.306 70 64 64
-332.8488 213.8724 28.7992 0.891 0.384 0.240 79 73 73
-332.5229 214.4023 28.8332 0.879 -0.083 0.469 100 94 94
-331.8990 214.6321 28.8274 0.879 -0.262 0.398 107 101 101
-331.7216 215.3085 28.8809 0.879 -0.262 0.398 103 97 97
-331.1131 215.5492 28.8768 0.920 -0.212 0.329 97 91 91
-328.3351 216.9789 28.8879 0.940 -0.143 -0.309 88 82 82
-327.6138 217.0858 28.8670 0.944 -0.125 -0.306 89 83 83
-328.2716 222.0413 29.3416 0.883 -0.327 0.336 99 95 94
-330.1088 243.3472 31.3401 0.453 0.005 0.891 98 89 90
-368.1013 296.8828 37.7767 0.792 -0.540 -0.285 73 63 64
-365.0749 294.3848 37.4232 0.664 -0.686 -0.297 72 62 63
-202.2871 -52.2968 -0.9561 0.928 0.046 0.370 69 63 65
-389.4135 14.4832 12.5296 0.039 -0.644 0.764 99 84 89
-380.8414 16.0872 12.3292 0.685 0.333 -0.649 90 73 79
-381.9606 16.9254 12.4492 0.698 0.325 -0.638 90 74 77
-368.8066 17.0288 11.9307 0.461 -0.656 -0.597 95 79 85
-367.1651 22.6749 12.3702 0.076 -0.836 -0.544 65 52 59
-351.0602 39.5260 13.2325 0.643 -0.707 -0.296 111 97 94
-349.8616 40.5158 13.2730 0.665 -0.692 -0.281 91 77 75
-349.3239 41.0231 13.2968 0.665 -0.692 -0.281 97 81 82
-350.3663 49.7501 14.1198 0.600 0.036 0.799 105 88 94
-345.3635 48.9593 13.8483 0.190 -0.934 0.303 87 70 76
-342.8515 50.7915 13.9116 0.512 -0.784 0.351 97 83 82
-339.9768 50.5645 13.7759 0.582 -0.741 -0.335 104 90 89
-339.9957 51.2056 13.8340 0.602 -0.701 -0.381 103 89 88
-346.2273 54.4110 14.3710 0.879 -0.434 -0.199 102 88 87
-345.5818 55.5166 14.4441 0.790 -0.598 0.134 97 81 81
-345.1872 56.0453 14.4756 0.790 -0.598 0.134 96 80 80
-345.0617 56.6591 14.5255 0.881 -0.168 0.443 96 80 80
-334.8482 59.0672 14.3312 0.256 -0.674 -0.693 63 47 48
-341.5155 67.2709 15.3331 0.976 -0.081 -0.200 61 45 46
-341.3110 67.8562 15.3773 0.988 -0.154 0.017 62 46 49
-341.4203 68.5584 15.4445 0.993 -0.107 0.053 68 52 55
-342.7659 69.7270 15.6031 0.891 0.438 -0.123 74 58 61
-342.0893 72.1390 15.7919 0.542 -0.802 -0.251 73 59 59
-341.5817 72.6102 15.8137 0.985 -0.141 -0.101 68 54 54
-341.4859 73.2410 15.8663 0.985 -0.141 -0.101 70 56 56
-341.2941 74.5038 15.9717 0.985 -0.141 -0.101 92 78 79
-340.4357 76.8400 16.1464 0.896 -0.434 -0.098 93 79 83
-340.1606 77.3985 16.1853 0.896 -0.434 -0.098 89 74 79
-340.1953 78.0847 16.2481 0.893 -0.439 -0.100 82 68 73
-337.4884 77.6295 16.0988 0.628 -0.762 -0.159 80 66 70
-338.1661 78.5802 16.2111 0.981 -0.179 0.072 79 64 69
-338.7969 79.5156 16.3201 0.979 -0.155 0.134 78 64 66
-338.9208 80.2400 16.3899 0.983 -0.161 0.089 83 69 70
-338.7261 80.8297 16.4349 0.975 -0.174 0.140 124 110 109
-338.2410 81.2943 16.4570 0.849 -0.528 0.000 134 120 118
-337.9116 81.8246 16.4913 0.849 -0.528 0.000 115 101 100
-337.7912 82.4451 16.5420 0.832 -0.554 -0.005 104 90 89
-337.4439 82.9663 16.5747 0.832 -0.554 -0.005 114 100 99
-335.5705 82.8127 16.4858 0.852 -0.522 0.038 124 110 108
-338.9189 89.0609 17.1795 0.996 0.012 -0.089 74 62 64
-336.2903 89.8851 17.1478 0.965 -0.156 0.212 79 67 69
-333.9064 90.7904 17.1332 0.794 0.119 0.597 95 79 82
-334.0764 91.5488 17.2079 0.794 0.119 0.597 99 84 87
-333.4186 92.5860 17.2743 0.697 -0.463 0.548 99 87 89
-332.3394 96.8063 17.6088 0.694 -0.539 0.476 96 81 84
-331.1076 96.8607 17.5642 0.729 -0.497 0.471 101 86 89
-330.3311 106.7185 18.4155 0.704 -0.710 -0.018 129 121 125
-330.0914 108.6606 18.5797 0.941 -0.287 -0.177 86 77 80
-328.9523 112.8726 18.9111 0.901 0.414 0.134 98 87 81
-330.7034 114.5943 19.1354 0.841 0.532 0.098 84 73 67
-329.2418 114.4379 19.0628 0.845 0.451 0.288 78 67 61
-333.0974 120.2725 19.7398 0.926 -0.137 0.352 71 60 58
-333.2303 121.0695 19.8165 0.812 0.375 0.448 74 64 62
-332.6618 121.4411 19.8269 0.802 0.567 0.187 74 63 61
-332.2243 121.8905 19.8496 0.804 0.557 0.206 79 65 64
-330.5308 125.8579 20.1368 0.788 0.019 0.615 116 111 107
-330.0191 126.2513 20.1515 0.796 0.114 0.595 113 108 104
-329.4167 126.5846 20.1571 0.994 0.101 -0.042 89 84 80
-330.5796 128.0494 20.3349 0.932 0.146 0.333 70 67 62
-331.0056 131.9512 20.7013 0.926 0.175 0.334 93 90 85
-332.5507 134.4357 20.9857 0.928 0.148 0.341 91 88 83
-333.3949 135.7345 21.1358 0.944 0.162 0.289 79 76 71
-328.4443 138.9867 21.2283 0.892 0.002 -0.452 61 51 52
-330.0608 166.6207 23.7668 0.896 -0.163 -0.413 110 98 100
-329.5543 166.9879 23.7794 0.885 -0.174 -0.432 119 107 109
-328.7324 167.0961 23.7561 0.913 -0.088 -0.398 116 104 106
-329.0547 177.5497 24.7048 0.786 0.448 -0.425 85 75 76
-331.0574 184.0795 25.3696 0.614 -0.245 -0.751 86 78 76
-330.4801 186.7975 25.5898 0.574 -0.259 -0.777 78 73 70
-333.3120 190.9616 26.0761 0.699 -0.425 -0.575 73 68 65
-329.1853 203.6379 27.0453 0.884 0.381 0.271 111 107 106
-326.0795 202.2751 26.7987 0.903 0.426 -0.057 122 118 117
-331.7769 210.3690 27.7518 0.810 -0.475 0.345 134 130 129
-331.1616 210.6084 27.7485 0.853 0.423 0.306 124 120 119
-332.1324 212.4201 27.9497 0.853 0.423 0.306 86 80 80
-332.5980 213.7365 28.0862 0.891 0.384 0.240 74 68 68
-330.9052 213.7487 28.0194 0.923 -0.188 0.335 59 53 53
-329.9670 213.6552 27.9733 0.925 -0.206 0.319 70 64 64
-329.5522 216.6385 28.2237 0.780 0.389 0.490 89 83 83
-328.0565 215.9580 28.1028 0.895 0.444 0.039 85 79 79
-328.5048 217.2689 28.2382 0.940 -0.143 -0.309 83 77 77
-328.3759 217.9882 28.2974 0.940 -0.143 -0.309 86 80 80
-326.0082 216.3873 28.0591 0.986 0.090 -0.137 95 91 90
-325.0334 216.2193 28.0049 0.982 0.141 -0.124 93 89 88
-328.5907 220.7767 28.5556 0.891 -0.318 0.325 85 81 80
-328.3804 221.4145 28.6043 0.891 -0.318 0.325 87 83 82
-328.0471 221.9229 28.6364 0.883 -0.327 0.336 92 88 87
-327.8315 222.5544 28.6843 0.883 -0.327 0.336 94 90 87
-362.1506 296.3042 36.6629 0.470 -0.844 -0.258 75 74 72
-201.9857 -52.2138 -1.1870 0.902 0.049 0.430 79 73 75
-345.4011 2.9369 9.1435 0.880 0.401 0.253 75 59 69
-368.0989 23.5372 11.8337 0.054 -0.876 -0.480 68 55 61
-347.9877 31.8570 11.8120 0.516 -0.392 -0.761 89 70 74
-349.5286 32.8267 11.9565 0.886 -0.285 0.365 98 79 83
-347.8878 45.8472 13.0517 0.989 0.011 0.144 99 82 88
-349.8712 47.6952 13.2911 0.695 0.124 0.709 99 82 88
-349.5249 49.5585 13.4436 0.602 0.020 0.798 84 67 73
-341.1560 50.9704 13.2523 0.757 -0.607 0.241 106 92 91
-345.0162 55.3896 13.7912 0.781 -0.615 0.108 107 93 93
-342.7065 67.1012 14.7447 0.963 -0.038 -0.268 62 46 47
-342.5498 67.7070 14.7927 0.961 -0.029 -0.275 59 43 44
-343.5466 68.7408 14.9223 0.963 -0.001 -0.271 59 43 44
-342.1924 68.9025 14.8854 0.990 -0.135 0.048 66 50 51
-342.5697 69.7093 14.9714 0.990 -0.101 0.094 72 56 57
-341.8239 72.0933 15.1551 0.964 -0.261 0.053 75 60 63
-339.9783 74.7051 15.3173 0.556 -0.619 0.555 82 71 76
-339.1902 75.7218 15.3779 0.768 -0.607 0.202 93 81 88
-338.7973 76.2288 15.4081 0.768 -0.607 0.202 83 72 79
-338.8166 76.9042 15.4688 0.942 -0.100 0.319 77 66 73
-339.1152 77.6963 15.5505 0.942 -0.092 0.324 86 75 82
-331.8641 79.2633 15.4154 0.961 0.260 -0.091 86 74 76
-332.7828 80.3206 15.5441 0.953 0.303 -0.009 84 72 75
-331.3464 83.6435 15.7851 0.899 -0.414 0.144 96 83 91
-331.7144 85.1360 15.9317 0.982 0.159 0.102 79 67 71
-333.5711 89.3440 16.3760 0.980 0.137 0.143 79 64 67
-335.9769 91.1618 16.6286 0.795 -0.008 0.607 84 69 72
-336.8317 92.9376 16.8188 0.918 0.220 0.330 95 80 83
-336.6082 93.5156 16.8617 0.934 0.248 0.257 94 82 84
-340.4253 98.1575 17.4188 0.990 0.139 -0.008 99 87 89
-333.2937 95.9886 16.9561 0.824 -0.522 0.218 90 78 80
-332.5960 97.0016 17.0197 0.833 -0.509 0.219 83 68 71
-329.8956 96.9843 16.9160 0.708 -0.564 0.425 84 73 74
-328.5726 98.3282 16.9853 0.639 0.067 0.766 67 57 55
-329.9127 107.2463 17.8287 0.886 -0.409 0.219 162 158 159
-329.8940 107.9272 17.8886 0.890 -0.410 0.201 151 147 148
-330.6093 109.0212 18.0129 0.899 -0.374 0.229 156 150 154
-331.1070 109.9976 18.1185 0.852 -0.523 0.011 142 136 138
-331.1472 110.7181 18.1841 0.614 -0.711 -0.343 120 112 111
-328.9810 112.9605 18.3014 0.898 0.421 0.128 99 88 81
-332.4920 121.4124 19.1855 0.802 0.567 0.187 74 63 61
-333.4471 122.7143 19.3374 0.802 0.567 0.187 76 64 64
-325.6796 119.3533 18.7446 0.682 0.530 0.505 87 75 75
-326.5558 120.5973 18.8884 0.664 0.519 0.538 84 75 72
-329.3038 124.4425 19.3342 0.795 0.111 0.596 113 107 103
-329.7531 125.4416 19.4400 0.786 0.018 0.617 128 120 117
-329.4769 125.9827 19.4776 0.796 0.114 0.595 135 130 126
-329.3743 126.6341 19.5316 0.855 0.073 0.513 112 107 103
-331.8304 134.0372 20.2826 0.920 0.163 0.357 77 74 69
-332.6746 135.3344 20.4299 0.937 0.154 0.313 65 62 57
-330.1134 138.7539 20.6369 0.886 0.311 0.344 45 35 36
-329.9635 139.3871 20.6875 0.967 -0.137 0.214 39 29 30
-335.0500 152.0234 22.0032 0.646 0.658 -0.388 66 57 50
-332.5327 154.7553 22.1507 0.584 -0.683 -0.439 71 60 58
-331.5380 154.7722 22.1146 0.597 -0.673 -0.438 72 61 59
-330.6765 180.6364 24.3809 0.771 0.475 -0.424 85 75 76
-334.4430 192.0821 25.5408 0.739 -0.481 -0.472 70 65 62
-327.1347 200.1133 25.9780 0.874 0.398 0.280 102 98 97
-331.3225 210.8803 27.0935 0.860 0.422 0.287 123 119 118
-325.7080 208.6424 26.6821 0.992 0.095 -0.080 63 57 59
-328.0580 214.3785 27.2809 0.776 0.401 0.486 89 83 85
-328.6560 215.8372 27.4332 0.780 0.389 0.490 99 93 95
-326.8412 215.6713 27.3498 0.991 -0.054 -0.119 90 84 84
-326.9030 216.5820 27.4330 0.994 -0.032 -0.102 98 92 92
-325.4089 215.8808 27.3142 0.985 0.081 -0.155 109 103 103
-328.4844 219.9259 27.7901 0.942 -0.271 0.199 100 96 95
-328.3033 220.5936 27.8426 0.942 -0.271 0.199 89 85 82
-328.1256 221.2648 27.8955 0.997 0.046 -0.070 82 78 75
-237.6606 -40.7868 0.8645 0.084 -0.329 0.941 50 41 44
-389.1325 6.2372 10.4039 0.925 -0.175 -0.338 70 57 67
-348.6402 3.3145 8.7052 0.976 0.217 -0.004 67 54 64
-366.2078 16.7241 10.5137 0.010 -0.641 0.768 121 110 114
-365.5771 19.2261 10.7121 0.568 0.500 -0.654 61 52 57
-362.9388 21.3925 10.8094 -0.018 -0.974 -0.225 67 58 63
-354.4429 28.8255 11.1631 0.379 0.470 0.797 91 74 80
-356.0487 29.7924 11.3056 0.793 -0.462 0.397 101 84 90
-350.7395 32.5035 11.3559 0.957 0.273 -0.098 90 69 74
-352.6791 34.2100 11.5756 0.360 -0.614 -0.703 105 84 89
-351.8727 34.6693 11.5874 0.360 -0.614 -0.703 110 90 92
-341.4174 44.1199 12.0494 0.837 0.239 0.493 109 92 98
-349.6377 47.0270 12.5985 0.744 -0.016 0.668 103 86 92
-351.1288 50.7283 12.9782 0.304 -0.949 -0.087 82 65 73
-345.0431 51.5483 12.8340 0.330 -0.944 0.004 110 94 95
-346.1854 52.5421 12.9624 0.378 -0.906 -0.188 108 92 93
-345.7969 67.6157 14.2789 0.981 -0.093 0.170 71 53 53
-344.1545 67.6861 14.2266 0.995 -0.004 0.104 68 50 50
-342.4384 69.0504 14.2860 0.764 -0.554 0.330 76 58 58
-342.1331 72.2700 14.5592 0.703 0.079 0.706 82 70 74
-340.1830 74.1771 14.6582 0.563 -0.598 0.570 75 63 67
-339.4847 74.5650 14.6676 0.556 -0.619 0.555 76 65 72
-339.5275 75.9170 14.7884 0.971 -0.233 0.058 94 83 91
-339.1618 77.1048 14.8802 0.987 -0.030 0.159 76 64 74
-337.8539 81.9200 15.2586 0.785 -0.619 -0.008 83 71 75
-335.4312 93.0102 16.1512 0.829 -0.171 0.532 97 82 87
-336.2852 94.7963 16.3392 0.913 0.012 0.407 97 82 85
-335.2031 97.0106 16.4961 0.735 -0.346 0.582 90 78 80
-331.8481 98.7331 16.5288 0.833 -0.355 0.424 109 97 99
-332.2242 99.6116 16.6197 0.808 0.288 0.515 103 93 92
-329.0794 110.3072 17.4517 0.574 -0.726 0.379 92 83 77
-328.9368 110.9193 17.5006 0.569 -0.728 0.382 115 103 95
-327.4336 112.1300 17.5540 0.620 -0.782 -0.064 95 84 78
-328.9369 125.7151 18.8064 0.796 0.114 0.595 103 98 94
-331.5170 133.1768 19.5567 0.712 -0.702 -0.007 82 79 74
-331.9825 134.2182 19.6652 0.995 -0.086 0.051 71 68 63
-331.7217 134.7785 19.7054 0.967 0.104 0.233 65 62 57
-329.9786 140.9563 20.1886 0.694 -0.714 -0.097 81 71 72
-329.6174 141.4429 20.2187 0.714 -0.692 -0.102 77 67 68
-328.6268 142.2223 20.2522 0.878 0.441 0.186 70 62 59
-331.8721 153.5857 21.3705 0.874 0.284 -0.394 73 62 60
-331.5191 154.0837 21.4019 0.858 0.388 -0.335 71 60 58
-331.7315 155.0062 21.4909 0.597 -0.673 -0.438 75 64 60
-330.1725 156.8769 21.6005 0.994 0.099 0.035 107 96 94
-329.6086 157.2072 21.6096 0.995 0.095 0.030 118 106 106
-329.7727 158.0972 21.6940 0.689 -0.378 0.618 139 127 127
-328.3269 170.0599 22.6983 0.846 0.307 -0.435 130 118 120
-334.6607 192.3823 24.8937 0.739 -0.481 -0.472 70 62 60
-327.2974 201.2016 25.4100 0.587 0.320 0.744 99 93 93
-327.7160 204.0901 25.6798 0.930 0.314 0.194 125 119 119
-328.1750 205.3705 25.8091 0.930 0.314 0.194 124 118 118
-329.7899 208.6328 26.1545 0.861 0.419 0.289 124 118 118
-330.7003 210.3766 26.3408 0.861 0.419 0.289 119 113 115
-332.2612 213.6284 26.6833 0.893 0.388 0.229 87 81 83
-331.4627 213.6837 26.6598 0.906 -0.221 0.362 72 66 68
-324.6366 207.6772 25.8868 0.948 0.199 0.250 64 58 60
-328.0735 212.8171 26.4627 0.702 -0.712 -0.030 65 59 61
-327.4548 213.0337 26.4598 0.707 -0.706 -0.049 56 50 52
-327.7659 215.0416 26.6481 0.780 0.389 0.490 141 135 137
-326.4069 216.1842 26.7006 0.997 0.028 -0.076 128 122 122
-325.5309 216.1222 26.6639 0.985 0.081 -0.155 114 108 108
-325.2648 216.6902 26.7046 0.982 0.141 -0.124 110 105 102
-328.5929 221.0132 27.2045 0.968 0.097 -0.230 97 92 89
-328.6661 221.9489 27.2897 0.968 0.097 -0.230 77 72 69
-326.1903 220.2044 27.0477 0.925 0.337 0.176 73 68 65
-327.0815 221.9984 27.2377 0.918 0.350 0.189 89 84 81
-361.2471 -2.1153 8.0546 0.781 -0.087 0.619 94 78 79
-365.7795 16.0533 9.7975 0.003 -0.639 0.769 103 91 95
-214.1259 -4.9961 2.9020 0.525 -0.533 0.664 98 89 94
-368.3878 20.3702 10.2627 0.556 0.530 -0.640 63 54 59
-369.2378 21.8294 10.4188 0.629 -0.541 0.558 68 59 64
-363.3632 23.4555 10.3656 0.156 -0.190 0.969 87 71 74
-359.5269 23.4259 10.2353 0.156 -0.212 0.965 84 68 71
-355.5709 29.7384 10.6566 0.788 -0.467 0.400 105 88 94
-351.8672 31.5203 10.6894 0.817 0.497 -0.293 104 85 89
-349.7661 44.5094 11.7575 0.645 -0.303 0.702 86 72 72
-349.5374 45.0970 11.8014 0.645 -0.303 0.702 79 64 67
-348.6232 46.1459 11.8628 0.751 -0.029 0.660 122 105 111
-349.0521 46.9136 11.9444 0.744 -0.016 0.668 112 95 101
-344.1914 51.3426 12.1706 0.341 -0.940 -0.012 111 95 96
-347.6997 53.0512 12.4371 0.348 -0.917 -0.197 108 92 93
-346.1695 53.2398 12.4027 0.235 -0.930 -0.284 124 108 109
-347.3082 54.2435 12.5286 0.830 -0.535 -0.157 131 115 116
-346.3337 54.5975 12.5271 0.829 -0.519 -0.207 138 122 123
-345.8788 55.1101 12.5569 0.816 -0.554 -0.164 143 127 128
-342.5266 67.8095 13.5580 0.860 -0.353 -0.368 79 61 61
-342.5591 68.4860 13.6184 0.764 -0.554 0.330 82 64 64
-342.1911 69.0138 13.6523 0.764 -0.554 0.330 91 73 73
-340.1882 71.5735 13.8099 0.702 -0.016 0.712 95 83 87
-340.2349 72.2562 13.8713 0.702 -0.016 0.712 69 57 61
-340.3497 72.9668 13.9374 0.708 -0.014 0.706 63 51 55
-338.9385 74.4036 14.0163 0.559 -0.602 0.571 73 62 68
-338.7863 75.0078 14.0641 0.964 -0.065 0.257 88 77 83
-338.7571 75.6620 14.1205 0.964 -0.065 0.257 143 132 140
-339.0609 77.1219 14.2585 0.987 -0.030 0.159 109 98 106
-338.0135 80.7042 14.5375 0.828 0.466 0.312 152 140 144
-337.9942 82.0411 14.6540 0.787 -0.617 0.005 68 56 60
-336.1266 83.2398 14.6968 0.771 -0.607 -0.193 74 62 66
-337.0458 86.3484 14.9998 0.892 -0.310 -0.328 154 142 146
-331.1440 84.3337 14.6267 0.885 0.463 0.040 145 133 137
-336.9908 87.6798 15.1147 0.880 -0.346 -0.325 116 104 108
-333.7498 89.5538 15.1709 0.975 0.135 0.177 79 64 67
-335.0602 92.8947 15.5073 0.869 -0.107 0.483 97 82 85
-334.7722 93.4369 15.5452 0.867 -0.113 0.485 97 82 87
-334.9478 94.8900 15.6784 0.873 0.046 0.485 98 83 86
-331.3344 98.5341 15.8773 0.855 -0.354 0.379 105 93 95
-329.4075 110.5649 16.8673 0.399 -0.648 0.649 67 57 53
-330.5390 111.9098 17.0229 0.596 -0.762 -0.252 80 70 61
-327.7086 112.3612 16.9681 0.624 -0.779 -0.062 80 69 63
-331.0658 120.6921 17.8099 0.488 -0.846 -0.214 93 82 80
-329.9160 120.7005 17.7724 0.460 -0.869 -0.181 90 79 77
-330.7165 133.4563 18.9167 0.612 -0.774 0.160 72 69 64
-331.0596 134.4164 19.0123 0.964 0.124 0.237 69 66 61
-328.6735 141.5999 19.5622 0.855 0.462 0.237 86 76 74
-328.5386 142.2428 19.6140 0.874 0.451 0.181 75 65 62
-328.5876 143.0168 19.6835 0.821 0.551 0.152 71 62 57
-331.1510 155.4203 20.8557 0.585 -0.690 -0.425 98 87 85
-329.7011 156.6049 20.9112 0.886 -0.449 -0.114 119 108 106
-329.7403 157.3977 20.9820 0.870 -0.475 -0.131 118 106 106
-329.2288 157.7665 20.9973 0.703 -0.373 0.606 107 95 95
-328.7477 158.1567 21.0154 0.698 -0.375 0.610 101 89 89
-333.0706 165.4082 21.7948 0.852 0.301 0.428 93 81 81
-327.0293 186.4214 23.4348 0.763 0.624 -0.171 75 65 64
-328.2134 203.8539 25.0017 0.705 -0.664 -0.247 116 110 110
-327.3555 204.6772 25.0453 0.705 -0.674 -0.220 115 109 109
-331.8174 210.7465 25.7257 0.826 -0.541 -0.162 113 107 107
-328.2729 211.4442 25.6687 0.821 -0.571 -0.019 65 59 61
-328.0222 212.8788 25.7861 0.791 -0.610 0.038 61 55 57
-327.4883 213.1814 25.7948 0.910 -0.399 -0.112 56 50 52
-325.6859 215.5533 25.9426 0.992 0.118 -0.052 137 131 131
-325.6530 216.3639 26.0126 0.985 0.081 -0.155 114 108 108
-324.9775 216.5061 26.0025 0.987 0.129 -0.091 122 117 114
-324.7962 217.1614 26.0539 0.971 0.023 -0.239 105 100 97
-325.3344 218.5715 26.1954 0.963 0.270 0.019 69 64 61
-325.9201 220.0369 26.3433 0.925 0.330 0.186 60 55 52
-336.5876 252.1360 29.5112 0.775 0.626 -0.089 93 83 84
-200.5442 -37.2052 -0.6053 0.052 -0.110 0.993 72 62 63
-349.7181 10.7050 8.1917 0.814 0.482 -0.324 83 71 75
-367.3135 15.6676 9.1695 0.002 -0.610 0.792 94 82 86
-358.8568 15.0793 8.8559 0.009 -0.639 0.769 92 80 84
-365.3986 19.2802 9.4243 0.564 0.511 -0.649 111 102 107
-352.8946 22.2888 9.2980 0.159 -0.237 0.958 68 52 55
-355.4489 29.7571 10.0269 0.842 -0.421 0.337 93 76 82
-351.9927 31.5911 10.0792 0.817 0.498 -0.291 104 85 89
-357.2858 35.9875 10.6259 0.875 0.484 0.003 148 129 133
-355.8737 37.6232 10.7244 0.374 -0.620 -0.690 104 89 89
-353.9153 38.4628 10.7366 0.396 -0.597 -0.697 124 110 109
-355.0444 40.0407 10.9090 0.914 -0.018 0.405 108 94 93
-351.5411 41.7747 10.9511 0.390 -0.431 -0.814 99 85 85
-348.8847 44.9693 11.1465 0.645 -0.303 0.702 92 78 78
-348.0344 45.3858 11.1564 0.650 -0.300 0.699 83 68 71
-346.1641 48.0950 11.3340 0.651 -0.728 0.216 99 82 90
-340.6918 49.0689 11.2489 0.275 -0.955 0.109 74 58 60
-346.6194 54.0823 11.8690 0.816 -0.552 -0.173 125 109 110
-346.2467 54.6217 11.9043 0.816 -0.552 -0.173 132 116 117
-345.9517 55.1843 11.9441 0.816 -0.554 -0.164 137 121 122
-342.5397 54.7610 11.8014 0.999 -0.030 -0.031 136 122 122
-345.1873 56.2519 12.0133 0.630 -0.149 -0.762 133 119 119
-342.3803 67.8111 12.9317 0.817 0.556 0.155 87 69 69
-342.4434 68.4988 12.9935 0.702 -0.490 0.517 93 75 75
-341.9441 68.9773 13.0196 0.764 -0.554 0.330 98 80 80
-341.5771 69.5039 13.0540 0.764 -0.554 0.330 105 88 88
-340.3710 69.7109 13.0346 0.692 -0.273 0.668 119 104 107
-340.1824 70.3013 13.0801 0.692 -0.273 0.668 115 103 105
-339.7300 70.7900 13.1086 0.712 -0.040 0.702 106 94 98
-339.2317 71.9214 13.1915 0.743 -0.017 0.669 74 62 66
-339.2702 72.5996 13.2517 0.743 -0.017 0.669 63 51 55
-339.7177 74.7739 13.4547 0.622 -0.720 0.308 80 69 75
-339.4848 75.3478 13.4974 0.997 0.072 -0.026 91 80 86
-339.4546 76.0037 13.5536 0.998 0.060 -0.015 98 87 93
-335.7499 83.1337 14.0588 0.778 -0.610 -0.150 93 80 87
-337.7193 86.0367 14.3725 0.943 -0.286 -0.172 174 162 166
-337.2697 86.5118 14.3998 0.756 -0.616 -0.223 187 175 179
-336.8809 87.0130 14.4314 0.917 -0.271 -0.293 163 151 155
-337.2000 87.8382 14.5131 0.871 -0.351 -0.343 178 166 170
-337.4397 88.6293 14.5893 0.872 -0.378 -0.312 136 124 128
-332.1967 87.5422 14.3321 0.947 0.315 -0.067 71 59 63
-338.5204 91.8745 14.9052 0.979 0.104 0.177 83 68 71
-334.8690 93.5484 14.9375 0.862 -0.129 0.490 101 86 89
-331.5753 96.0004 15.0485 0.797 -0.332 0.504 95 83 85
-331.0871 99.1544 15.3078 0.803 0.286 0.523 100 90 89
-331.3221 99.9600 15.3851 0.762 0.315 0.566 96 86 84
-332.1347 101.7588 15.5668 0.788 -0.254 0.561 93 83 81
-334.0638 105.5602 15.9574 0.886 -0.444 0.138 101 92 87
-333.7936 106.1120 15.9970 0.886 -0.444 0.138 101 91 89
-333.6668 106.7415 16.0478 0.881 -0.447 0.152 137 129 127
-332.9410 107.0429 16.0515 0.873 -0.465 0.146 158 152 152
-333.0464 107.7990 16.1206 0.770 -0.570 0.286 164 158 160
-333.1338 108.5467 16.1883 0.356 -0.710 0.607 142 136 138
-328.9848 111.7832 16.3411 0.538 -0.788 0.299 73 63 54
-327.5445 112.3364 16.3445 0.620 -0.782 -0.064 70 59 51
-327.9784 113.9809 16.5010 0.864 0.500 0.055 68 57 51
-331.7323 119.7454 17.1190 0.935 0.346 -0.073 75 64 62
-330.6123 119.7787 17.0871 0.490 -0.863 -0.120 78 67 65
-330.0074 120.1206 17.0981 0.490 -0.863 -0.120 62 51 49
-329.5074 120.5243 17.1177 0.492 -0.861 -0.127 61 50 48
-329.7196 129.2479 17.8832 0.986 0.130 0.103 69 66 61
-330.5415 131.9613 18.1447 0.974 0.001 0.228 114 111 106
-331.7802 133.5101 18.3179 0.714 -0.700 -0.005 82 79 74
-330.8970 134.3876 18.3668 0.964 0.124 0.237 69 66 61
-330.8653 135.0992 18.4277 0.648 -0.713 0.268 70 67 62
-328.7737 135.8798 18.4307 0.679 -0.675 0.287 59 50 51
-328.9026 139.6325 18.7612 0.941 -0.102 0.323 91 81 82
-326.0422 139.8253 18.6892 0.988 -0.146 -0.040 86 76 74
-331.8348 146.9155 19.4857 0.995 0.019 0.100 71 62 54
-329.0598 151.6600 19.8123 0.818 0.571 -0.068 72 61 59
-330.5199 154.2700 20.0847 0.919 0.083 0.386 79 68 66
-330.6287 155.1136 20.1614 0.919 0.083 0.386 97 86 84
-330.8472 164.5147 20.9860 0.870 0.247 0.427 94 82 82
-328.3131 167.9035 21.2022 0.945 0.250 -0.212 162 152 153
-328.4491 169.5708 21.3514 0.866 0.462 -0.193 155 145 146
-329.5268 172.0284 21.5986 0.878 0.151 -0.455 99 89 90
-326.2750 185.0427 22.6298 0.823 0.431 -0.370 82 68 70
-330.1334 192.5884 23.4060 0.885 0.260 -0.387 114 104 103
-326.2537 195.5018 23.5390 0.662 -0.180 0.727 85 75 74
-321.6982 194.3975 23.3016 0.716 0.332 0.615 91 85 85
-324.3513 199.3861 23.8179 0.676 0.422 0.604 93 87 87
-326.5711 202.3644 24.1458 0.730 0.330 0.599 105 99 99
-328.0934 206.3448 24.5393 0.828 -0.402 -0.391 103 97 97
-331.5208 210.5662 25.0129 0.819 -0.561 -0.123 102 96 96
-330.9949 210.8937 25.0251 0.826 -0.560 -0.056 103 97 99
-330.3185 211.0690 25.0194 0.907 -0.389 -0.159 100 94 96
-330.3982 211.9959 25.1025 0.857 0.456 0.241 85 79 81
-330.2920 212.7383 25.1637 0.916 -0.189 0.354 70 64 66
-328.3150 211.5995 25.0033 0.798 -0.595 -0.093 65 59 61
-328.4194 212.5490 25.0892 0.858 -0.512 -0.025 67 61 63
-327.9403 212.9093 25.1056 0.789 -0.613 0.050 63 57 59
-327.5107 213.3179 25.1278 0.910 -0.399 -0.112 63 57 59
-328.5157 215.1884 25.3218 0.855 0.462 -0.236 103 97 99
-329.1230 216.6603 25.4686 0.839 0.482 -0.252 119 113 115
-330.1703 218.5902 25.6690 0.839 0.482 -0.252 117 111 113
-329.9605 219.2326 25.7184 0.837 0.137 -0.530 120 114 114
-329.6792 220.6605 25.8339 0.944 0.288 -0.159 115 109 109
-324.1396 215.7481 25.2346 0.925 0.351 0.144 132 127 124
-324.0395 216.4854 25.2957 0.930 0.366 0.041 107 102 99
-325.0553 218.3947 25.4933 0.919 0.338 0.204 61 56 53
-326.1795 221.2805 25.7792 0.919 0.338 0.204 93 88 85
-327.7056 223.7541 26.0417 0.882 0.268 0.387 122 117 114
-327.0269 223.8937 26.0328 0.860 0.466 0.207 126 121 118
-327.2871 225.0324 26.1400 0.926 0.377 -0.025 124 119 116
-327.2591 228.4629 26.4375 0.485 -0.088 -0.870 99 94 91
-326.4272 228.4275 26.4086 0.568 0.128 -0.813 87 82 79
-200.9836 -51.9361 -2.0977 0.756 0.189 0.627 75 69 69
-325.4050 -43.0657 2.2465 0.649 -0.742 0.169 60 55 59
-326.4488 -42.6655 2.3111 0.650 -0.748 0.137 69 60 62
-367.8554 14.4842 8.4372 0.163 -0.578 0.799 71 59 63
-369.8910 20.6960 9.0322 0.554 0.530 -0.643 73 64 69
-355.9226 21.6011 8.7087 0.406 -0.463 0.788 104 92 96
-352.5185 29.8362 9.3219 0.279 -0.657 0.700 77 60 66
-354.3234 30.8511 9.4615 0.678 -0.619 0.396 79 60 66
-349.1486 30.3947 9.2732 0.524 -0.565 0.637 80 61 67
-353.3191 31.9198 9.5249 0.881 0.232 0.412 86 67 71
-355.4059 33.6607 9.7352 0.799 0.570 0.191 127 108 112
-355.9784 34.4356 9.8186 0.799 0.570 0.191 160 141 145
-356.1371 35.1213 9.8824 0.888 0.188 0.420 157 138 142
-356.3144 35.8128 9.9472 0.888 0.188 0.420 120 101 105
-356.4922 36.5062 10.0122 0.888 0.188 0.420 114 95 99
-357.1268 37.3073 10.0996 0.516 -0.585 0.626 101 83 85
-357.0233 37.9392 10.1512 0.895 -0.098 0.435 112 97 96
-355.4336 38.2192 10.1297 0.960 -0.043 0.277 124 110 109
-355.3824 38.8607 10.1836 0.956 -0.038 0.291 143 129 128
-355.2062 40.1274 10.2879 0.947 0.050 0.317 95 81 80
-353.1485 42.2314 10.4105 0.392 -0.425 -0.816 90 76 76
-347.3936 45.2595 10.5065 0.650 -0.300 0.699 78 63 66
-345.4633 47.9441 10.6828 0.576 -0.770 0.274 85 68 78
-348.1970 50.6814 10.9978 0.091 -0.899 0.429 82 65 72
-349.2675 52.3100 11.1692 0.464 -0.828 0.316 98 82 83
-346.7638 54.1780 11.2585 0.669 -0.554 0.495 124 108 109
-347.5544 63.0424 12.0468 0.646 -0.155 -0.748 91 76 79
-341.2432 67.4469 12.2456 0.789 0.495 0.364 90 72 72
-342.0482 68.4077 12.3518 0.603 -0.142 0.785 91 73 73
-340.1165 69.6702 12.4052 0.966 -0.223 -0.133 101 86 89
-340.1062 70.3284 12.4618 0.959 0.044 0.281 117 105 107
-340.0302 70.9620 12.5143 0.962 0.015 0.274 137 125 129
-339.9818 71.6068 12.5686 0.958 0.018 0.287 120 108 112
-340.4592 72.4577 12.6558 0.785 -0.521 -0.335 96 85 89
-338.8163 72.4780 12.6103 0.963 -0.264 0.062 88 76 80
-338.8067 73.8011 12.7243 0.743 0.119 0.659 68 56 60
-339.1839 74.6174 12.8057 0.613 -0.726 0.312 72 61 67
-339.2004 75.2908 12.8643 0.996 0.077 -0.034 81 70 76
-338.6404 83.1188 13.5242 0.834 0.459 0.308 98 86 90
-337.3489 83.2277 13.4964 0.827 -0.528 -0.193 95 82 89
-337.8877 84.8177 13.6493 0.879 -0.317 -0.356 88 76 80
-337.8009 86.1353 13.7605 0.943 -0.286 -0.172 169 157 161
-337.3641 86.6166 13.7895 0.756 -0.616 -0.223 193 181 185
-337.0355 87.1457 13.8258 0.917 -0.271 -0.293 182 170 174
-337.3800 87.9833 13.9080 0.871 -0.351 -0.343 186 174 178
-337.4360 88.6903 13.9707 0.866 -0.380 -0.324 155 143 147
-336.5946 89.6621 14.0304 0.875 -0.344 -0.340 76 64 68
-334.3820 94.7404 14.4053 0.886 0.001 0.464 88 73 76
-334.1275 96.6677 14.5645 0.816 -0.560 0.142 112 100 102
-331.9428 101.7247 14.9383 0.803 0.288 0.521 101 91 89
-334.1901 105.6972 15.3460 0.855 -0.427 0.293 92 82 80
-334.1528 106.3759 15.4036 0.877 -0.459 0.145 91 83 81
-333.8701 106.9216 15.4426 0.798 -0.497 0.340 122 113 114
-333.4657 107.3999 15.4722 0.715 -0.580 0.390 135 129 129
-333.8842 108.3304 15.5646 0.739 -0.419 0.527 141 135 137
-334.8072 120.9568 16.6816 0.294 -0.873 -0.389 65 54 52
-332.1055 120.7602 16.5869 0.462 -0.870 -0.173 64 53 51
-329.9878 132.4022 17.5314 0.606 -0.783 0.139 64 61 56
-330.1314 134.6864 17.7327 0.660 -0.735 0.153 70 65 61
-327.6876 133.7688 17.5832 0.614 -0.741 0.271 70 65 61
-330.4800 164.3147 20.3014 0.922 0.274 0.273 94 84 83
-330.9662 193.4574 22.8321 0.889 0.249 -0.385 115 105 104
-330.0491 193.4338 22.8037 0.586 -0.660 0.470 115 105 104
-330.6965 203.9763 23.7327 0.653 0.118 0.748 86 80 80
-328.2642 206.6236 23.8914 0.828 -0.402 -0.391 95 89 89
-331.0248 210.1886 24.2787 0.683 -0.537 0.495 94 88 88
-331.0984 211.1092 24.3603 0.824 -0.564 -0.056 99 93 95
-330.3669 211.2301 24.3497 0.907 -0.389 -0.159 98 92 94
-330.1006 211.8118 24.3922 0.857 0.456 0.241 82 76 78
-330.0469 212.6061 24.4593 0.916 -0.189 0.354 70 64 66
-328.1326 211.5290 24.3112 0.856 -0.489 -0.168 67 61 63
-328.3628 212.6052 24.4108 0.915 -0.394 -0.084 69 63 65
-328.1062 213.1911 24.4540 0.915 -0.394 -0.084 71 65 67
-329.0323 215.8304 24.7086 0.855 0.462 -0.236 93 87 89
-330.8985 219.4551 25.0753 0.842 0.479 -0.249 103 97 99
-330.4571 219.8615 25.0977 0.837 0.137 -0.530 110 104 104
-330.3481 220.6102 25.1592 0.877 0.043 -0.478 115 109 109
-330.8312 221.9747 25.2909 0.877 0.051 -0.478 121 115 115
-325.0699 218.5261 24.8274 0.942 0.313 0.120 70 65 62
-325.6085 219.9421 24.9652 0.941 0.317 0.119 77 72 69
-326.4978 221.7345 25.1455 0.954 0.297 0.034 103 98 95
-327.5088 223.6638 25.3412 0.939 0.330 0.101 121 116 113
-326.7932 223.7635 25.3293 0.860 0.470 0.200 117 112 109
-327.4044 225.2769 25.4775 0.926 0.377 -0.025 111 106 103
-328.1685 231.3150 26.0209 0.565 0.136 -0.813 89 84 81
-329.4993 233.6469 26.2606 0.576 0.143 -0.805 93 88 85
-213.3718 -60.3267 -2.7135 0.457 -0.886 -0.083 173 185 185
-270.5384 -42.1216 0.3610 0.737 -0.565 0.372 65 60 64
-363.9109 -41.7267 2.8676 0.487 -0.161 0.858 119 109 107
-345.5485 13.2041 7.0903 -0.011 -0.643 0.766 65 53 57
-357.2217 21.2313 8.0876 0.065 -0.948 -0.311 91 80 86
-346.7983 22.5117 7.9213 0.840 0.437 0.322 77 61 64
-358.2791 29.7753 8.8480 0.316 -0.646 0.695 76 59 65
-357.4621 30.2571 8.8677 0.325 -0.654 0.683 73 56 62
-355.0698 30.4088 8.8173 0.407 -0.772 0.488 73 56 62
-353.2679 31.3128 8.8471 0.691 -0.655 0.304 78 59 65
-352.5881 31.8069 8.8715 0.745 -0.478 0.465 88 68 71
-354.5826 33.5247 9.0715 0.795 0.575 0.192 124 103 108
-354.7576 34.2095 9.1349 0.805 0.560 0.197 166 145 150
-355.4335 35.0086 9.2213 0.894 0.183 0.409 176 155 160
-356.0728 35.8037 9.3064 0.530 -0.501 0.684 90 70 72
-357.9203 36.8803 9.4476 0.270 -0.291 0.918 87 67 69
-355.5726 36.9926 9.3950 0.376 -0.542 0.751 94 74 76
-356.3008 37.8162 9.4849 0.895 -0.100 0.435 105 90 89
-354.6997 43.3325 9.9154 0.274 -0.607 -0.746 99 85 85
-349.8690 44.0319 9.8475 0.309 -0.779 -0.546 66 52 52
-347.2509 45.2687 9.8841 0.916 -0.149 0.372 65 50 53
-345.2006 47.9180 10.0570 0.576 -0.770 0.274 72 55 63
-348.3575 52.0892 10.4981 0.492 -0.810 0.318 94 78 79
-346.1540 53.3874 10.5511 0.399 -0.866 0.300 132 116 117
-346.2974 54.0852 10.6147 0.676 -0.550 0.490 128 112 113
-344.5365 57.4559 10.8570 0.934 -0.317 -0.166 114 100 100
-345.0553 60.2566 11.1108 0.915 -0.362 -0.176 83 69 69
-340.9072 67.3781 11.6115 0.789 0.495 0.364 149 131 131
-340.7858 67.9938 11.6610 0.755 -0.582 0.303 144 126 126
-341.0124 68.7401 11.7310 0.758 -0.556 0.342 119 101 101
-340.0831 69.7135 11.7899 0.963 0.029 0.268 101 85 88
-339.8864 70.3005 11.8350 0.962 0.038 0.272 87 75 77
-339.7640 70.9158 11.8845 0.958 0.018 0.287 92 80 84
-339.7944 71.5908 11.9431 0.958 0.018 0.287 95 83 87
-339.5465 72.1580 11.9852 0.795 -0.567 -0.213 81 69 73
-340.4488 73.1775 12.0965 0.790 -0.579 -0.199 82 70 74
-340.4323 73.8386 12.1527 0.969 -0.245 0.041 96 84 88
-339.8069 74.2576 12.1721 0.968 -0.249 0.021 91 79 83
-339.0412 74.6178 12.1827 0.969 -0.242 0.050 71 60 67
-339.4403 75.4458 12.2642 0.998 0.060 -0.015 68 57 65
-339.4809 76.1310 12.3241 0.998 0.060 -0.015 84 73 81
-339.6972 76.8892 12.3948 0.994 0.102 -0.032 81 69 79
-337.3456 83.2870 12.8810 0.825 -0.527 -0.204 94 82 86
-337.1194 83.8615 12.9242 0.994 -0.113 -0.001 99 87 91
-337.0460 84.5039 12.9773 0.994 -0.113 -0.001 103 91 95
-336.9499 85.8130 13.0870 0.996 -0.091 -0.008 93 81 85
-337.0327 86.5280 13.1505 0.725 -0.666 -0.178 138 126 130
-337.0772 87.2269 13.2116 0.924 -0.247 -0.291 132 120 124
-337.0022 87.8721 13.2649 0.919 -0.257 -0.298 102 90 94
-337.1619 88.6263 13.3338 0.924 -0.245 -0.295 89 77 81
-334.0320 93.2686 13.6489 0.868 -0.109 0.484 110 95 98
-334.1079 93.9873 13.7125 0.862 -0.129 0.490 98 83 86
-334.0132 96.6758 13.9405 0.816 -0.560 0.142 118 106 108
-330.4051 98.2519 13.9800 0.827 -0.386 0.409 83 73 74
-331.6375 101.6306 14.3023 0.787 -0.338 0.517 75 65 63
-333.9913 105.6588 14.7100 0.855 -0.427 0.293 80 70 68
-334.0436 106.3858 14.7737 0.877 -0.459 0.145 78 70 68
-333.5875 106.8368 14.8003 0.776 -0.535 0.333 42 33 34
-333.0149 107.2221 14.8181 0.676 -0.640 0.366 22 16 17
-328.5644 113.7714 15.2617 0.614 -0.709 0.346 78 67 62
-328.4662 115.1112 15.3740 0.823 0.564 -0.065 79 68 64
-331.4171 119.7032 15.8458 0.939 0.339 -0.061 71 59 59
-331.3426 120.3710 15.9010 0.940 0.334 -0.065 68 57 55
-329.7458 129.4206 16.6345 0.979 0.178 0.105 126 121 117
-330.4509 132.0595 16.8794 0.592 -0.797 0.121 78 73 67
-329.8539 132.3926 16.8922 0.606 -0.783 0.139 73 68 62
-329.3507 132.7856 16.9125 0.606 -0.783 0.139 76 71 65
-327.9244 133.2830 16.9174 0.603 -0.782 0.154 75 70 64
-326.3913 132.9730 16.8502 0.675 -0.723 0.143 78 71 65
-325.0405 134.9364 16.9828 0.842 0.524 0.132 85 73 73
-329.4032 150.5822 18.4395 0.539 -0.062 -0.840 70 59 57
-328.5383 156.7397 18.9445 0.881 -0.448 0.152 67 55 55
-327.4020 157.3799 18.9693 0.810 -0.575 -0.112 100 90 89
-329.5758 164.4603 19.6338 0.876 0.323 0.357 94 84 83
-328.7355 169.9964 20.0862 0.869 0.452 -0.202 87 77 76
-330.1360 187.9125 21.6591 0.987 0.005 -0.163 91 79 81
-331.1342 193.7166 22.1831 0.986 0.068 -0.150 103 93 92
-329.6849 193.2031 22.1007 0.452 -0.736 0.504 103 93 92
-339.4154 206.4487 23.4939 0.912 0.265 -0.312 109 99 98
-331.4296 210.7014 23.6470 0.916 -0.375 -0.144 88 82 82
-331.1774 211.3005 23.6916 0.916 -0.375 -0.144 82 76 78
-330.3270 211.3032 23.6693 0.912 -0.381 -0.154 77 71 73
-329.2437 211.9138 23.6930 0.918 -0.378 -0.118 77 71 73
-328.3687 211.8797 23.6669 0.793 -0.598 -0.119 78 72 74
-328.3855 212.7416 23.7412 0.910 -0.411 -0.052 77 71 73
-325.4152 210.5759 23.4769 0.947 -0.313 -0.074 82 76 78
-331.4962 220.1866 24.4618 0.842 0.479 -0.249 96 90 92
-330.9561 220.4935 24.4739 0.837 0.137 -0.530 99 93 93
-330.7204 221.1131 24.5207 0.877 0.043 -0.478 103 97 97
-325.8031 220.2642 24.3177 0.928 0.346 0.140 90 85 82
-326.5981 221.9582 24.4840 0.926 0.344 0.156 89 84 81
-327.4582 223.7286 24.6585 0.939 0.330 0.101 92 87 84
-326.8702 223.9641 24.6632 0.862 0.458 0.216 90 85 82
-328.0498 226.0862 24.8763 0.862 0.458 0.216 88 83 80
-329.6142 228.6312 25.1359 0.922 -0.158 -0.354 87 82 79
-328.5778 231.0082 25.3122 0.568 0.128 -0.813 87 82 79
