ply
format ascii 1.0
element vertex 863
property float x
property float y
property float z
property float nx
property float ny
property float nz
property uchar diffuse_red
property uchar diffuse_green
property uchar diffuse_blue
end_header
-24.5573 52.1586 -43.7144 -0.260 -0.354 0.898 95 77 89
-21.2629 51.2559 -44.0571 0.167 -0.271 0.948 104 89 94
-20.2908 51.5809 -44.4353 -0.283 -0.403 0.871 99 84 89
-19.8459 51.8541 -44.6667 -0.449 -0.373 0.812 99 84 87
-18.3910 51.4472 -44.8142 0.498 -0.414 0.762 85 73 79
-17.5220 51.5979 -45.0868 0.515 -0.423 0.746 74 63 69
-17.5816 50.8541 -44.7244 0.206 -0.225 0.952 66 56 62
-17.3575 50.8186 -44.7598 0.247 -0.251 0.936 66 60 64
-17.1263 50.7919 -44.8010 0.236 -0.262 0.936 62 56 60
-16.6441 50.7632 -44.8996 -0.024 -0.278 0.960 51 45 49
-6.4990 38.5394 -41.5284 0.578 -0.810 0.100 56 74 42
-1.3883 37.2075 -42.0920 -0.044 -0.947 0.319 66 88 52
-1.1672 37.1836 -42.1322 -0.044 -0.947 0.319 67 89 53
-49.4147 59.4892 -41.6032 0.613 -0.729 0.304 59 71 47
-49.0997 59.8245 -41.8347 -0.230 -0.801 0.553 70 82 58
-48.9648 59.5175 -41.7214 -0.255 -0.818 0.516 69 81 57
-41.9268 60.1801 -43.6750 0.455 -0.886 -0.086 48 55 39
-41.1647 60.3380 -43.9272 0.436 -0.899 -0.053 43 49 35
-41.7385 58.2148 -42.7926 0.024 -0.969 0.245 45 48 37
-41.4487 58.3719 -42.9342 0.319 -0.845 0.430 50 53 44
-32.8378 56.1486 -43.8943 0.115 -0.434 0.894 123 108 113
-30.2457 54.7322 -43.8311 -0.589 -0.200 0.783 127 111 121
-30.1092 54.5470 -43.7757 -0.589 -0.200 0.783 123 107 118
-25.1718 53.1085 -44.2490 0.102 -0.356 0.929 115 97 109
-25.2805 52.5553 -43.9628 -0.206 -0.362 0.909 109 92 102
-25.0994 52.4596 -43.9600 -0.206 -0.362 0.909 104 87 97
-24.9632 52.2944 -43.9139 -0.214 -0.374 0.902 100 83 93
-24.8619 52.0765 -43.8348 -0.260 -0.354 0.898 95 78 88
-24.6881 51.9716 -43.8259 -0.260 -0.354 0.898 95 78 88
-24.5780 51.7698 -43.7564 -0.253 -0.358 0.899 94 76 88
-19.1008 51.8556 -45.0742 -0.428 -0.135 0.894 93 78 83
-17.3742 50.4764 -44.8267 0.236 -0.262 0.936 67 57 65
-16.2649 46.3076 -43.1204 -0.460 0.094 0.883 32 28 27
-10.7797 38.5683 -40.7515 -0.958 -0.264 0.109 37 48 31
-82.2179 75.4434 -41.7213 -0.835 -0.061 0.547 51 66 43
-49.4343 59.4922 -41.8305 0.626 -0.719 0.301 54 66 42
-49.1717 59.6407 -41.9623 0.219 -0.823 0.524 53 65 41
-44.0055 56.4036 -41.6366 -0.449 -0.857 0.254 54 63 46
-42.4749 60.0060 -43.7025 0.037 -0.999 -0.003 53 61 46
-41.9385 60.1977 -43.9188 0.455 -0.886 -0.086 52 61 44
-41.1802 60.3446 -44.1659 0.436 -0.899 -0.053 55 62 46
-41.7755 58.1634 -42.9926 0.024 -0.969 0.245 53 59 45
-41.5076 58.2638 -43.1029 0.319 -0.845 0.430 58 61 50
-33.5108 55.7836 -43.7983 0.171 -0.533 0.829 112 97 104
-33.2846 55.7626 -43.8413 0.180 -0.522 0.833 116 101 106
-33.0519 55.7540 -43.8916 0.172 -0.474 0.864 122 107 114
-25.3053 52.9131 -44.3575 0.101 -0.350 0.931 113 95 107
-25.1853 52.7196 -44.2939 -0.162 -0.338 0.927 111 94 104
-25.1534 52.3899 -44.1450 -0.170 -0.313 0.935 107 90 100
-24.9756 52.2895 -44.1390 -0.145 -0.331 0.933 104 87 97
-24.9033 52.0266 -44.0313 -0.357 -0.428 0.830 97 80 90
-24.7646 51.8679 -43.9885 -0.359 -0.432 0.827 96 79 89
-24.6339 51.6979 -43.9385 -0.252 -0.363 0.897 95 77 89
-11.3008 40.1505 -41.5842 -0.119 -0.638 0.761 56 75 43
-11.1556 38.8883 -41.0199 -0.093 -0.983 -0.159 44 55 38
-11.0215 38.7890 -41.0041 0.046 -0.977 -0.207 41 53 33
-81.8655 73.8508 -41.2926 -0.822 -0.027 0.569 46 61 38
-49.4865 59.3781 -41.9945 0.626 -0.719 0.301 53 65 43
-49.1782 59.6907 -42.2160 -0.266 -0.789 0.554 53 65 43
-44.0490 56.3318 -41.8188 -0.431 -0.876 0.214 66 77 60
-42.2445 60.0499 -44.0150 0.455 -0.886 -0.086 66 77 60
-33.3273 56.1767 -44.2620 -0.003 -0.558 0.830 112 97 104
-25.2608 52.6159 -44.4582 -0.174 -0.329 0.928 117 100 110
-25.1696 52.3792 -44.3668 -0.132 -0.347 0.928 116 99 109
-24.9520 52.3406 -44.3994 -0.345 -0.457 0.820 115 98 108
-24.9067 52.0355 -44.2646 -0.368 -0.430 0.825 107 90 100
-24.8638 51.7293 -44.1287 -0.365 -0.429 0.826 105 88 98
-24.6319 51.7146 -44.1762 -0.175 -0.381 0.908 105 88 98
-15.9360 46.4174 -43.6923 -0.505 0.101 0.857 33 29 30
-16.0939 45.9387 -43.4270 -0.506 0.104 0.856 30 26 27
-11.8482 39.8392 -41.5160 0.083 -0.286 0.955 52 71 39
-11.4025 40.0474 -41.7199 0.049 -0.786 0.617 53 72 40
-11.2714 39.9406 -41.6997 -0.221 -0.778 0.588 57 73 42
-11.1265 39.8479 -41.6896 -0.443 -0.611 0.656 56 72 45
-11.0171 39.7205 -41.6545 -0.435 -0.621 0.652 53 67 45
-11.0241 39.4791 -41.5378 -0.339 -0.661 0.669 54 65 48
-10.9935 39.0444 -41.3377 -0.169 -0.962 -0.215 44 55 38
-7.1827 38.3487 -41.9007 -0.191 -0.877 0.441 50 57 40
-41.6157 59.9064 -44.3323 0.158 -0.972 0.175 61 72 56
-41.6555 59.1813 -43.9754 -0.696 -0.387 0.605 63 72 54
-42.0251 55.8403 -42.2866 -0.663 -0.721 -0.202 66 69 58
-33.3961 55.5958 -44.2019 -0.148 -0.470 0.870 118 105 113
-33.3191 55.2813 -44.0693 0.090 -0.542 0.836 123 108 115
-25.5732 52.5208 -44.5704 -0.171 -0.331 0.928 122 104 116
-25.2460 52.2745 -44.5294 -0.166 -0.338 0.926 122 105 115
-25.0340 51.8528 -44.3772 -0.183 -0.396 0.900 109 92 102
-24.8802 51.7179 -44.3487 -0.170 -0.388 0.906 105 88 98
-18.1059 46.4378 -43.4130 0.216 -0.419 0.882 41 35 39
-11.5366 39.9120 -41.8318 0.142 -0.801 0.582 46 65 33
-11.3306 39.8801 -41.8651 -0.220 -0.790 0.572 46 65 33
-11.1198 39.8528 -41.9016 -0.451 -0.878 -0.163 46 62 35
-10.9450 39.7898 -41.9126 -0.461 -0.871 -0.172 39 53 31
-10.9060 39.5933 -41.8276 -0.428 -0.873 -0.233 41 54 36
137.1208 143.6274 -126.5710 0.287 -0.910 0.300 57 78 45
-42.3686 59.8106 -44.3466 -0.062 -0.998 -0.010 79 90 73
-42.1410 59.7969 -44.3938 -0.062 -0.998 -0.010 79 90 73
-41.9282 59.7426 -44.4179 0.214 -0.975 0.057 62 73 56
-25.7129 52.3154 -44.6694 -0.171 -0.331 0.928 113 95 107
-24.9562 51.6148 -44.5105 -0.077 -0.382 0.921 105 88 98
-19.0893 47.3324 -43.8325 -0.619 -0.082 0.781 69 56 65
-12.5525 39.6032 -41.6511 -0.108 -0.279 0.954 40 61 28
-11.7190 39.7283 -41.9084 0.148 -0.807 0.572 41 62 29
-11.4136 39.7960 -42.0132 -0.220 -0.790 0.572 43 62 30
-11.2100 39.7617 -42.0448 -0.521 -0.847 0.106 44 60 32
-11.0318 39.7024 -42.0583 -0.443 -0.879 -0.179 39 53 30
-10.9336 39.5643 -42.0149 -0.404 -0.883 -0.239 40 51 34
-42.4459 60.2890 -44.7979 -0.144 -0.938 0.314 69 80 63
-21.8489 45.9057 -42.7089 -0.620 -0.387 0.682 93 78 83
-21.5554 45.6768 -42.6676 -0.537 -0.730 -0.423 92 77 82
-21.3774 45.6042 -42.6746 -0.542 -0.725 -0.426 88 75 84
-18.2393 47.4961 -44.3358 0.206 -0.239 0.949 59 46 55
-17.3811 47.0469 -44.3216 0.190 -0.202 0.961 49 44 48
-13.9957 38.8467 -41.1489 -0.912 -0.305 -0.273 50 68 39
-14.1730 38.1964 -40.7916 -0.935 -0.294 -0.199 49 68 36
-12.7556 39.1602 -41.5950 0.079 -0.285 0.955 36 55 23
-11.8285 39.6174 -42.0364 0.148 -0.807 0.572 37 56 24
-11.4000 39.8079 -42.2304 -0.429 -0.903 -0.025 38 57 25
-11.2499 39.7205 -42.2236 -0.435 -0.900 -0.015 40 56 29
-42.6635 60.3846 -45.0319 -0.138 -0.950 0.281 62 74 54
-41.4037 56.4066 -43.3924 -0.311 -0.360 0.880 66 69 58
-21.4496 46.1317 -43.1307 -0.091 -0.978 -0.188 97 82 87
-14.7768 37.3527 -40.4386 -0.933 -0.302 -0.197 40 55 28
-12.9806 38.9325 -41.6360 0.044 -0.302 0.952 33 49 21
-41.3704 56.5338 -43.6925 -0.303 -0.361 0.882 67 69 58
-38.3596 51.1095 -41.7522 -0.264 0.044 0.964 69 65 66
-24.2543 50.1742 -44.6606 -0.835 -0.467 -0.292 108 91 99
-22.0922 45.9073 -43.0851 -0.626 -0.376 0.683 104 89 94
-21.0005 46.4203 -43.5971 -0.400 -0.852 -0.338 102 87 92
-20.7736 46.4078 -43.6452 -0.387 -0.873 -0.298 98 85 94
-18.6735 46.3507 -44.1185 0.368 -0.502 0.783 58 47 55
-18.1959 46.3465 -44.2304 0.344 -0.546 0.764 64 58 62
-17.8684 46.4537 -44.3611 0.256 -0.263 0.930 59 54 58
-17.5762 46.5157 -44.4613 0.151 -0.190 0.970 54 49 53
-17.1649 44.9681 -43.8008 0.173 -0.627 0.759 43 38 42
-16.8701 45.0336 -43.9033 0.141 -0.639 0.756 34 32 35
-13.5949 39.2550 -41.8525 -0.913 -0.346 -0.217 39 51 32
-6.8959 38.3688 -43.0171 -0.898 -0.368 0.241 40 47 31
-6.8660 38.1766 -42.9300 -0.652 -0.273 0.707 39 48 29
-41.9550 55.6610 -43.3526 -0.261 -0.402 0.878 72 75 66
-41.3707 51.6909 -41.5358 -0.955 -0.108 -0.278 51 57 47
-24.1548 49.9792 -44.8150 -0.825 -0.457 -0.333 109 92 102
-24.0671 49.7565 -44.7262 -0.825 -0.457 -0.333 113 96 106
-23.0533 47.4779 -43.8459 -0.909 -0.385 0.161 110 95 102
-22.4351 47.3554 -43.9336 0.008 -0.227 0.974 112 97 104
-22.1682 46.4396 -43.5461 -0.471 -0.166 0.866 117 102 109
-22.0856 46.2360 -43.4655 -0.416 -0.175 0.892 114 99 106
-22.1621 45.8215 -43.2429 -0.626 -0.371 0.686 108 93 100
-20.7582 46.7459 -44.0347 -0.307 -0.867 -0.392 106 91 98
-20.6392 46.5906 -43.9867 -0.283 -0.873 -0.398 103 90 99
-18.6142 46.1299 -44.2446 0.253 -0.267 0.930 59 49 57
-18.3991 46.0990 -44.2808 0.246 -0.262 0.933 70 63 68
-18.1698 46.0855 -44.3291 0.229 -0.251 0.940 65 60 64
-17.3172 45.3652 -44.1782 -0.239 -0.213 0.947 44 39 43
-17.0738 45.0808 -44.0964 -0.012 -0.566 0.824 44 39 43
-16.8960 45.0065 -44.1024 -0.012 -0.577 0.817 38 33 37
-16.7605 44.8823 -44.0736 -0.045 -0.579 0.814 31 29 32
-45.2139 52.8366 -41.3976 -0.035 -0.362 0.931 60 72 52
-44.9998 52.8414 -41.4515 -0.025 -0.360 0.932 61 72 55
-40.6702 55.5442 -43.8312 -0.998 -0.047 -0.041 51 57 47
-39.0113 52.6332 -42.7871 -0.725 -0.253 0.641 50 56 44
-38.7173 51.3417 -42.2177 -0.669 -0.207 0.714 46 45 41
-23.2794 48.1629 -44.3516 -0.375 -0.925 -0.057 113 97 107
-23.1873 47.9595 -44.2729 0.082 -0.886 0.457 113 97 107
-23.1070 47.7410 -44.1839 -0.259 -0.966 0.016 116 100 110
-23.0925 47.4327 -44.0346 -0.908 -0.385 0.164 115 99 109
-22.9475 46.6610 -43.6870 -0.922 -0.371 0.113 115 99 109
-22.6824 46.7036 -43.7718 -0.002 -0.273 0.962 120 104 114
-20.2892 47.3697 -44.6769 -0.652 -0.696 -0.301 110 94 104
-19.7663 47.7398 -44.9860 -0.512 -0.604 -0.611 107 94 103
-18.6522 45.7893 -44.2870 0.246 -0.263 0.933 75 67 71
-18.4365 45.7601 -44.3244 0.243 -0.259 0.935 72 66 70
-18.1838 44.3243 -43.6735 -0.629 -0.159 0.761 44 39 43
-45.3395 52.5355 -41.4350 -0.212 -0.297 0.931 72 81 62
-45.1645 52.4352 -41.4272 -0.212 -0.297 0.931 67 76 57
-45.0295 52.2266 -41.3559 0.016 -0.334 0.942 63 72 53
-41.6459 55.3939 -43.7497 0.036 -0.234 0.972 55 61 47
-40.9121 54.9917 -43.7262 -0.993 -0.092 -0.079 52 58 45
-39.9670 51.9986 -42.4626 -0.608 -0.789 -0.088 52 55 44
-39.1949 52.2559 -42.7769 -0.278 -0.835 0.474 51 57 45
-38.3182 48.5581 -41.1457 -0.839 -0.243 0.486 140 134 138
-37.1217 49.2456 -41.7767 0.013 -0.005 1.000 149 136 146
-23.3784 47.7005 -44.3197 0.078 -0.904 0.420 114 98 108
-23.1312 47.7168 -44.3874 -0.115 -0.970 0.215 119 103 113
-23.0748 47.4666 -44.2763 -0.907 -0.388 0.164 120 104 114
-23.0864 47.1240 -44.1028 -0.925 -0.360 0.124 119 103 113
-18.5334 45.3501 -44.3164 -0.072 -0.144 0.987 70 64 68
-14.1040 39.6904 -42.5640 0.480 -0.183 0.858 58 62 47
-13.7262 39.8396 -42.7294 0.479 -0.182 0.858 58 63 47
-13.3279 40.0083 -42.9095 0.484 -0.184 0.856 45 51 35
-4.8632 39.2948 -44.5945 -0.795 -0.577 -0.184 40 58 29
2.0694 35.4866 -44.3681 -0.538 -0.299 -0.788 51 71 34
-45.2580 52.2241 -41.5157 -0.212 -0.297 0.931 72 81 62
-45.1420 51.9650 -41.4140 -0.638 -0.345 0.688 67 74 56
-43.8549 52.0135 -41.7496 0.789 -0.489 0.372 68 72 55
-41.0711 55.1918 -44.0151 -0.207 -0.123 0.971 62 69 53
-41.1860 51.2177 -41.9964 -0.950 -0.122 -0.287 61 69 53
-39.9663 52.0338 -42.7002 -0.601 -0.795 -0.084 50 56 42
-39.8451 51.8127 -42.6188 -0.610 -0.788 -0.082 49 55 41
-39.6833 51.6851 -42.5939 -0.610 -0.788 -0.082 50 56 44
-39.3844 51.8649 -42.7563 -0.251 -0.909 0.332 55 61 49
-39.2178 51.7479 -42.7380 -0.698 -0.211 0.684 50 56 42
-38.9486 50.4293 -42.1425 -0.815 -0.512 -0.270 48 47 47
-38.8361 50.2057 -42.0577 -0.815 -0.512 -0.270 46 44 45
-38.3834 48.4501 -41.2876 -0.907 -0.311 0.284 133 127 131
-23.3422 47.7612 -44.5801 -0.134 -0.960 0.245 113 97 108
-23.1329 47.7239 -44.6121 -0.134 -0.960 0.245 123 107 118
-17.1376 41.4491 -42.9184 -0.403 0.036 0.914 36 30 43
1.9427 35.3832 -44.4939 -0.626 -0.289 -0.724 56 76 41
-45.3511 52.0140 -41.6038 -0.212 -0.297 0.931 75 83 62
-45.2860 51.6174 -41.4198 -0.733 -0.155 0.663 73 81 60
-45.2088 51.2590 -41.2580 -0.735 -0.158 0.659 66 74 53
-40.6341 52.0376 -42.7602 -0.157 -0.808 -0.568 56 68 49
-39.9821 52.0315 -42.9153 -0.647 -0.762 0.023 59 67 52
-39.8595 51.8133 -42.8351 -0.610 -0.792 -0.026 59 67 52
-38.9004 50.0969 -42.2033 -0.796 -0.520 -0.312 49 50 47
-27.7356 48.5123 -44.1141 0.577 -0.378 0.724 107 91 101
-23.1707 47.6805 -44.8027 -0.134 -0.960 0.245 125 109 119
-17.2579 43.1925 -43.9768 0.102 -0.651 0.752 31 29 32
-6.4809 38.5026 -44.2294 0.378 -0.921 0.094 44 55 32
-4.8095 38.8918 -44.8310 -0.834 -0.552 -0.000 49 63 32
1.1487 34.5876 -44.1086 -0.625 -0.305 -0.719 59 79 42
-51.6334 53.1337 -40.8575 -0.722 -0.514 0.463 54 62 39
-45.5746 52.0233 -41.7700 -0.326 -0.112 0.939 73 81 60
-45.5171 51.6028 -41.5711 0.012 -0.390 0.921 77 85 64
-45.4487 51.2182 -41.3930 -0.687 -0.179 0.704 80 88 67
-45.3176 51.0084 -41.3186 -0.687 -0.179 0.704 78 86 65
-45.1386 50.9298 -41.3224 -0.724 -0.158 0.672 76 84 63
-43.8735 52.6068 -42.4796 -0.812 -0.321 0.488 70 78 57
-39.4537 51.2877 -42.8875 -0.408 -0.894 -0.185 54 62 47
-38.7393 50.0088 -42.4138 -0.836 -0.547 -0.042 49 49 47
-38.7111 49.6101 -42.2188 -0.836 -0.470 0.283 49 49 47
-36.4806 46.7962 -41.3367 -0.262 0.069 0.963 114 98 109
-36.5128 46.3331 -41.0944 -0.182 0.054 0.982 112 96 107
-27.9893 48.1295 -44.0789 0.436 -0.335 0.835 113 97 107
-27.5148 48.1536 -44.2067 0.437 -0.337 0.834 103 87 97
-27.4372 47.9188 -44.1066 0.289 -0.394 0.872 102 86 96
-23.2053 47.6416 -44.9964 -0.144 -0.964 0.224 119 103 113
-20.6311 45.4086 -44.4922 0.404 -0.361 0.840 101 86 93
-17.1115 43.3659 -44.3145 0.298 -0.763 0.573 34 29 33
-17.1533 43.0428 -44.1408 0.169 -0.972 0.163 32 27 31
-16.9785 42.9720 -44.1475 0.184 -0.971 0.152 33 28 32
-13.8052 38.7972 -42.8058 0.367 -0.143 0.919 44 52 37
-6.2066 38.7452 -44.6292 0.397 -0.913 0.095 46 58 34
-5.7715 38.9144 -44.8208 0.397 -0.913 0.095 49 61 37
-5.3330 39.0849 -45.0138 0.397 -0.913 0.095 48 61 35
-4.6391 39.2587 -45.2707 -0.776 -0.621 -0.111 48 61 31
-46.1291 52.2827 -41.9828 -0.244 -0.296 0.923 71 76 54
-45.8328 51.9349 -41.8780 -0.310 -0.306 0.900 65 73 52
-45.6796 51.7781 -41.8356 -0.326 -0.112 0.939 70 78 57
-45.6163 51.3753 -41.6460 -0.003 -0.387 0.922 78 86 65
-45.5307 51.0390 -41.4957 -0.687 -0.178 0.705 85 93 72
-45.4053 50.8148 -41.4122 -0.688 -0.176 0.704 94 102 81
-45.2996 50.5406 -41.2984 -0.693 -0.185 0.697 97 105 84
-44.8003 50.7640 -41.5340 0.151 -0.298 0.943 96 104 83
-41.5573 53.0308 -43.4801 -0.491 -0.381 0.783 72 84 64
-41.0453 53.2079 -43.6953 -0.968 -0.178 -0.177 73 85 65
-40.7568 51.8213 -43.0598 -0.946 -0.288 -0.148 57 69 49
-38.7570 50.0002 -42.6211 -0.828 -0.558 -0.049 49 49 47
-38.6769 49.7113 -42.4935 -0.831 -0.544 0.120 49 51 48
-38.2112 47.5791 -41.5217 -0.255 0.054 0.965 143 133 144
-36.5974 45.7977 -41.0089 -0.187 0.058 0.981 112 96 109
-28.5569 47.6107 -43.8956 0.402 -0.316 0.859 124 108 118
-17.1942 43.5488 -44.6026 0.208 -0.670 0.713 44 39 43
-17.2003 43.2654 -44.4568 0.300 -0.772 0.560 38 33 37
-17.1715 43.0244 -44.3411 0.156 -0.972 0.176 35 30 34
-16.9644 42.9909 -44.3747 0.184 -0.972 0.145 32 27 31
-16.7700 42.9425 -44.3975 0.232 -0.967 0.106 32 27 31
-4.6951 39.4266 -45.5564 -0.750 -0.660 0.027 50 63 35
-4.5845 39.3024 -45.5202 -0.750 -0.660 0.027 52 65 35
-4.6549 39.0191 -45.3587 -0.706 -0.494 0.507 54 67 37
-5.6912 37.2461 -44.2030 -0.794 -0.369 0.483 63 76 46
-53.3194 53.8323 -41.2307 -0.872 -0.254 0.419 46 55 34
-53.1619 52.8468 -40.7648 -0.507 -0.810 0.293 45 54 33
-46.1607 52.8428 -42.4782 -0.242 -0.269 0.932 60 65 43
-45.8985 51.7980 -42.0077 -0.322 -0.299 0.898 61 69 48
-45.7608 51.0225 -41.6445 0.003 -0.402 0.916 71 79 58
-45.7025 50.6142 -41.4498 0.038 -0.259 0.965 78 86 65
-45.5537 50.4566 -41.4056 -0.691 -0.179 0.701 84 92 71
-45.4090 50.2896 -41.3555 -0.691 -0.188 0.698 94 102 81
-45.2792 50.0846 -41.2824 -0.691 -0.188 0.698 101 109 86
-44.9819 50.3254 -41.4785 0.127 -0.324 0.937 94 102 81
-44.6738 50.5902 -41.6895 0.669 -0.446 0.595 84 92 71
-40.5818 51.7578 -43.2897 -0.533 -0.247 0.809 59 70 53
-40.3930 51.6914 -43.3020 -0.120 -0.191 0.974 67 75 60
-38.1780 47.2450 -41.5689 -0.258 0.014 0.966 154 146 157
-34.2838 48.9322 -43.3865 -0.206 0.035 0.978 114 98 109
-28.5195 47.3274 -43.9774 0.434 -0.342 0.834 123 106 116
-21.6332 45.0331 -44.4904 -0.389 -0.792 0.470 107 91 101
-21.4282 44.9968 -44.5220 -0.398 -0.787 0.471 102 86 96
-20.8933 43.6064 -43.9414 -0.423 -0.212 0.881 89 74 81
-20.8020 43.1443 -43.7273 0.261 -0.304 0.916 89 76 83
-20.3511 43.1321 -43.8315 0.253 -0.300 0.920 79 69 77
-16.9447 43.0162 -44.6068 0.106 -0.371 0.922 32 27 31
-15.0151 38.2654 -42.6479 0.362 -0.165 0.917 83 72 62
-14.5499 38.2713 -42.7649 0.311 -0.129 0.942 46 52 36
-2.2080 40.0473 -46.6978 -0.803 -0.100 0.588 67 80 50
-53.3712 52.8899 -40.9482 -0.797 -0.245 0.553 51 60 39
-52.9914 53.6001 -41.4070 0.207 -0.793 0.574 50 59 38
-45.8738 50.7564 -41.6933 -0.330 -0.201 0.922 71 79 58
-45.1843 49.8314 -41.3868 0.267 -0.335 0.904 91 99 78
-45.0138 49.7381 -41.3807 0.252 -0.338 0.907 83 91 70
-44.5893 50.3081 -41.7784 0.773 -0.476 0.420 81 88 70
-42.0759 52.9074 -43.7336 -0.324 -0.214 0.922 66 75 56
-40.6833 51.5569 -43.3810 -0.536 -0.225 0.814 83 94 77
-40.3018 51.4359 -43.4125 -0.060 -0.160 0.985 55 63 48
-39.7989 51.0992 -43.3629 -0.153 -0.155 0.976 54 62 49
-39.3923 51.0361 -43.4304 -0.159 -0.126 0.979 51 60 43
-37.9709 46.8416 -41.6215 -0.056 -0.091 0.994 154 147 155
-27.3156 46.7494 -44.1932 -0.203 -0.561 0.803 113 95 107
-27.3253 46.3931 -44.0075 -0.195 -0.625 0.756 111 93 105
-21.8345 45.0811 -44.6820 -0.399 -0.787 0.470 111 95 106
-21.3636 44.7852 -44.6455 -0.524 -0.506 0.685 99 84 91
-21.6051 42.7175 -43.5222 -0.820 -0.572 -0.018 80 65 72
-21.0026 42.8996 -43.7640 0.259 -0.311 0.914 78 64 71
-20.6496 42.7686 -43.7833 0.058 -0.256 0.965 71 61 69
-16.8802 42.8209 -44.7368 0.113 -0.376 0.920 32 27 31
-16.2813 38.8569 -42.8443 -0.085 0.002 0.996 86 81 69
-14.0846 38.2746 -43.0846 -0.038 0.002 0.999 47 51 33
-45.9409 50.6166 -41.8174 -0.324 -0.201 0.925 70 78 57
-45.6952 49.6054 -41.3549 -0.123 -0.143 0.982 92 100 79
-45.5952 49.3256 -41.2348 -0.166 -0.639 0.751 101 109 86
-45.2834 49.6106 -41.4591 0.749 -0.592 0.296 92 100 79
-45.1249 49.4874 -41.4345 0.257 -0.338 0.905 81 89 68
-44.6928 50.0793 -41.8472 0.773 -0.476 0.420 75 82 64
-39.5368 50.7482 -43.4647 -0.145 -0.157 0.977 55 64 47
-38.4613 46.7237 -41.6481 -0.216 0.003 0.976 158 153 160
-37.8016 46.3704 -41.6281 -0.013 0.001 1.000 162 155 163
-37.2728 46.9944 -42.0812 -0.031 0.006 0.999 156 146 155
-27.0166 46.8688 -44.5454 -0.095 -0.636 0.766 115 97 109
-23.0619 46.2529 -45.2021 -0.141 -0.850 -0.508 105 89 100
-22.8715 46.1942 -45.2187 -0.162 -0.854 -0.495 103 87 98
-22.1384 44.9942 -44.7787 -0.471 -0.401 0.786 111 95 106
-21.5176 44.5927 -44.7241 -0.484 -0.479 0.733 99 84 91
-21.5764 43.6279 -44.2105 -0.727 -0.332 0.601 85 70 77
-18.5856 44.7343 -45.5204 0.029 -0.225 0.974 69 59 67
-17.0008 42.6848 -44.8510 0.100 -0.384 0.918 32 27 31
-16.7412 42.7118 -44.9290 0.124 -0.377 0.918 32 27 31
-16.7173 40.1230 -43.5958 -0.538 0.087 0.839 35 30 34
-16.2728 38.1427 -42.6810 -0.294 0.081 0.952 99 94 83
-9.9038 37.3358 -43.8343 -0.568 -0.503 -0.651 37 49 27
-9.7895 37.2222 -43.8037 -0.575 -0.450 -0.684 39 51 27
-46.0343 50.4039 -41.8963 -0.324 -0.201 0.925 71 79 58
-45.3552 49.4620 -41.5746 0.749 -0.592 0.296 93 101 80
-44.7290 49.4884 -41.7432 0.793 -0.515 0.325 65 72 54
-41.1090 50.6380 -43.2366 -0.230 -0.223 0.947 75 86 69
-41.1049 50.1531 -42.9854 -0.450 -0.060 0.891 71 79 64
-41.0176 49.3811 -42.6056 -0.417 -0.137 0.898 59 67 52
-40.5434 49.0212 -42.5358 0.358 -0.416 0.836 60 68 53
-38.7220 46.6439 -41.7502 -0.055 -0.087 0.995 68 60 71
-38.5546 46.5605 -41.7482 -0.055 -0.087 0.995 138 131 139
-38.4051 46.4412 -41.7232 -0.036 -0.096 0.995 162 155 163
-36.7633 45.9669 -41.8827 -0.147 0.045 0.988 118 102 115
-32.2828 45.5863 -42.7932 -0.510 -0.804 0.305 122 105 111
-22.2620 44.8385 -44.8835 -0.479 -0.408 0.777 112 96 107
-22.1895 44.6297 -44.7928 -0.450 -0.413 0.791 111 95 106
-16.9251 42.5037 -44.9897 0.124 -0.377 0.918 45 40 44
-9.6101 37.1657 -44.0236 -0.932 -0.353 0.077 46 58 34
-46.2003 49.9905 -41.8513 -0.333 -0.208 0.920 69 77 56
-44.8326 49.2601 -41.8089 0.790 -0.514 0.334 62 69 51
-42.0358 49.4977 -42.6273 -0.172 -0.170 0.970 60 72 52
-41.8570 49.4237 -42.6330 -0.180 -0.166 0.970 67 78 58
-41.1882 48.5498 -42.3422 -0.397 -0.173 0.901 82 90 75
-41.1360 47.7321 -41.9277 -0.427 -0.519 0.741 66 74 58
-40.3304 49.0550 -42.8191 0.328 -0.372 0.868 65 74 57
-39.9029 49.0619 -42.9288 0.393 -0.439 0.808 67 72 64
-39.1453 47.5223 -42.3121 -0.258 0.066 0.964 55 57 54
-38.6998 46.2922 -41.7797 -0.055 -0.087 0.995 108 101 109
-38.5330 46.2092 -41.7777 -0.055 -0.087 0.995 126 119 127
-36.9710 45.5945 -41.8441 0.005 -0.021 1.000 123 107 120
-34.8775 47.5167 -43.3684 -0.210 0.026 0.977 114 98 109
-34.7336 47.3826 -43.3340 -0.210 0.026 0.977 123 108 115
-32.2030 46.1005 -43.2919 -0.261 -0.965 0.013 123 108 113
-31.0997 46.1146 -43.5731 -0.288 -0.299 0.910 120 100 111
-22.8729 44.9559 -45.0092 -0.589 -0.805 0.068 97 84 94
-22.7736 44.7806 -44.9422 -0.586 -0.808 0.065 97 84 94
-23.7625 42.2835 -43.3915 -0.327 -0.879 0.348 103 90 99
-18.3706 41.6476 -44.3973 0.392 -0.612 0.687 58 53 57
-17.0432 42.3708 -45.1047 0.074 -0.398 0.914 50 45 49
-14.9785 37.3645 -43.0003 0.058 -0.024 0.998 85 78 52
-14.6082 37.0488 -42.9272 -0.055 0.002 0.998 72 65 41
-46.3183 49.7092 -41.8853 -0.341 -0.209 0.916 66 74 51
-45.6486 48.7665 -41.5567 0.178 -0.360 0.916 80 88 65
-45.0797 49.1911 -41.9215 0.782 -0.516 0.349 66 71 51
-42.4810 49.4721 -42.7161 -0.211 -0.083 0.974 58 65 49
-42.1948 49.1575 -42.6221 -0.183 -0.162 0.970 63 70 54
-41.2938 48.3430 -42.4185 -0.234 -0.139 0.962 93 102 85
-41.1839 48.1206 -42.3289 0.160 -0.406 0.900 79 88 71
-40.8801 48.3328 -42.5161 0.523 -0.484 0.701 71 80 61
-40.4746 48.7666 -42.8450 0.329 -0.376 0.866 69 78 59
-40.0066 48.8653 -43.0134 0.399 -0.440 0.805 70 76 65
-39.8224 48.8047 -43.0274 0.367 -0.418 0.831 74 76 71
-38.7137 45.8711 -41.7620 -0.056 -0.088 0.995 86 79 87
-37.9837 45.2693 -41.6275 -0.235 0.025 0.972 165 153 165
-34.6596 47.1425 -43.4394 -0.197 0.024 0.980 119 104 111
-32.0980 45.9275 -43.4389 0.006 -0.993 -0.120 128 111 117
-22.3240 44.4672 -45.1051 -0.633 -0.774 -0.000 94 81 91
-22.3328 44.1543 -44.9385 -0.623 -0.781 0.047 94 81 91
-17.4428 42.1840 -45.1207 0.021 -0.388 0.922 54 49 53
-17.2159 42.1755 -45.1727 0.094 -0.426 0.900 51 46 50
-14.5930 37.0628 -43.1393 -0.115 0.021 0.993 80 74 50
35.1139 80.3650 -78.2685 -0.558 -0.634 0.536 64 70 45
-10.1467 36.6634 -44.0365 -0.909 -0.407 -0.085 56 65 41
-46.0870 48.7197 -41.6309 0.264 -0.444 0.856 76 84 61
-45.9689 48.4939 -41.5412 0.178 -0.392 0.903 75 85 60
-45.7709 48.4831 -41.5849 0.178 -0.392 0.903 76 84 61
-45.5832 48.4446 -41.6115 0.174 -0.387 0.905 73 81 58
-45.2056 48.9025 -41.9477 0.781 -0.517 0.350 66 71 51
-42.7541 49.3544 -42.7987 -0.258 -0.083 0.963 56 60 45
-42.6143 49.1888 -42.7462 -0.254 -0.080 0.964 58 62 47
-42.2838 48.9819 -42.7194 -0.250 -0.187 0.950 65 72 56
-42.1667 48.7669 -42.6351 -0.259 -0.195 0.946 70 77 61
-41.4182 48.0932 -42.4662 -0.235 -0.140 0.962 117 126 109
-41.2363 48.0342 -42.4805 0.529 -0.483 0.698 106 113 97
-41.0266 48.0370 -42.5343 0.521 -0.482 0.705 90 97 79
-40.8039 48.0680 -42.6064 0.520 -0.485 0.703 78 85 67
-40.5598 48.1449 -42.7080 0.552 -0.489 0.676 66 73 57
-40.1063 48.6775 -43.1025 0.393 -0.443 0.806 60 66 54
-39.9497 48.5580 -43.0785 0.363 -0.415 0.834 62 65 58
-22.0241 42.7906 -44.5097 0.184 -0.244 0.952 83 73 81
-46.4371 48.3599 -41.5604 0.349 -0.487 0.801 72 80 57
-46.2144 48.4182 -41.6472 0.348 -0.484 0.803 70 78 55
-46.0668 48.2735 -41.6073 -0.084 -0.523 0.848 70 80 55
-45.9634 48.0128 -41.4948 -0.009 -0.338 0.941 71 79 56
-45.8103 47.8863 -41.4660 0.014 -0.339 0.941 69 77 54
-42.2338 48.6436 -42.7643 -0.238 -0.196 0.951 75 79 64
-42.1519 48.3495 -42.6287 -0.468 -0.193 0.863 80 87 71
-41.7376 47.8712 -42.4785 0.229 -0.353 0.907 110 117 101
-41.5301 47.8718 -42.5308 0.229 -0.353 0.907 105 114 97
-41.3853 47.7305 -42.4921 0.517 -0.480 0.709 95 102 86
-41.1382 47.8189 -42.6010 0.521 -0.482 0.705 84 91 73
-40.9177 47.8462 -42.6707 0.516 -0.487 0.705 76 84 63
-40.7996 47.6472 -42.5946 0.536 -0.503 0.678 64 71 54
-40.2366 48.4226 -43.1474 0.389 -0.445 0.806 61 64 52
-40.0683 48.3300 -43.1404 0.363 -0.415 0.834 58 61 53
-39.8266 48.3961 -43.2361 0.351 -0.422 0.836 59 60 55
-37.9127 44.2601 -41.5198 -0.043 0.009 0.999 139 127 137
-37.3782 44.8862 -41.9861 -0.042 0.007 0.999 130 118 130
-36.8941 44.6274 -41.9700 -0.013 0.007 1.000 99 86 96
-33.5580 46.8208 -43.9705 0.574 -0.792 -0.207 112 99 106
-31.2370 45.5785 -43.8925 -0.251 -0.287 0.924 116 96 107
-31.2681 45.1739 -43.6699 -0.298 -0.249 0.922 120 100 111
-22.0154 42.5193 -44.5791 -0.279 -0.148 0.949 77 67 75
-9.9756 36.3815 -44.3373 -0.901 -0.396 -0.178 69 78 49
-46.1920 47.9794 -41.6261 -0.119 -0.500 0.858 65 75 50
-45.8211 47.8984 -41.6761 -0.188 -0.283 0.940 66 74 51
-41.8809 47.5764 -42.4947 0.161 -0.336 0.928 104 111 93
-41.6444 47.6444 -42.5904 0.229 -0.353 0.907 95 102 84
-41.4537 47.6078 -42.6188 0.234 -0.360 0.903 82 89 71
-41.2491 47.6020 -42.6672 0.521 -0.482 0.705 74 81 63
-41.0313 47.6247 -42.7341 0.507 -0.482 0.715 70 78 57
-40.2979 48.3184 -43.2886 0.355 -0.436 0.827 62 65 53
-40.1537 48.1739 -43.2477 0.359 -0.417 0.835 58 61 53
-36.3967 44.4165 -42.1870 0.018 -0.002 1.000 94 82 88
-31.3866 44.9968 -43.7561 -0.298 -0.249 0.922 122 102 113
-25.3378 41.4015 -43.3580 -0.298 -0.547 0.782 96 83 93
-17.5425 36.1107 -42.4941 -0.120 -0.008 0.993 48 44 33
-16.7389 36.0259 -42.6509 0.043 -0.014 0.999 98 93 73
-42.1906 47.3710 -42.5152 0.161 -0.336 0.928 94 101 83
-41.9926 47.3537 -42.5559 0.161 -0.336 0.928 90 97 79
-41.7653 47.4021 -42.6391 0.186 -0.349 0.918 87 94 76
-41.5921 47.3276 -42.6429 0.168 -0.337 0.926 74 81 63
-41.3352 47.4403 -42.7681 0.513 -0.478 0.713 63 71 50
-41.0349 47.6470 -42.9547 0.512 -0.478 0.713 63 71 50
-41.0667 47.1187 -42.6633 0.520 -0.498 0.694 65 69 52
-40.4113 48.1002 -43.3550 0.355 -0.436 0.827 63 67 54
-36.6156 44.0347 -42.1316 0.016 -0.001 1.000 95 84 90
-34.5116 46.3191 -43.8874 -0.213 0.035 0.976 108 97 103
-31.5359 45.4774 -44.1863 -0.199 -0.219 0.955 126 108 120
-31.3829 45.3711 -44.1679 -0.197 -0.220 0.955 123 105 117
-25.5524 41.4143 -43.5159 -0.244 -0.556 0.795 104 91 101
-25.3889 41.3404 -43.5175 -0.244 -0.556 0.795 101 88 98
-22.2976 42.1738 -44.7440 -0.594 -0.316 0.740 67 57 65
-22.1684 42.0516 -44.7110 -0.453 -0.341 0.824 67 57 65
-12.6808 36.4580 -44.1033 0.016 0.007 1.000 66 72 46
-42.4291 47.3265 -42.6390 -0.541 -0.112 0.834 81 88 70
-42.3313 47.0798 -42.5308 -0.581 -0.110 0.806 83 90 72
-42.2058 46.8990 -42.4651 -0.581 -0.110 0.806 84 91 73
-42.0291 46.3757 -42.2277 -0.404 -0.170 0.899 74 81 63
-41.7990 46.4347 -42.3177 0.502 -0.502 0.704 60 67 47
-36.6212 43.6671 -42.1355 -0.047 0.017 0.999 84 73 79
-32.1974 45.4792 -44.2315 0.213 -0.477 0.852 146 131 138
-31.9359 45.5522 -44.3370 0.215 -0.472 0.855 140 124 134
-31.6621 45.6440 -44.4558 0.010 -0.366 0.930 135 119 130
-25.7208 41.4892 -43.7188 -0.910 -0.244 0.334 101 88 98
-22.4448 41.9931 -44.8192 -0.591 -0.309 0.745 74 64 72
-15.4527 34.6496 -42.6290 0.013 -0.031 0.999 89 89 65
-42.5246 47.1381 -42.7208 -0.519 -0.116 0.847 78 85 67
-42.4328 46.8786 -42.6034 -0.573 -0.109 0.812 83 90 72
-42.3069 46.6999 -42.5386 -0.573 -0.109 0.812 83 90 72
-42.1826 46.5192 -42.4722 -0.520 -0.115 0.846 84 91 71
-41.9963 46.0240 -42.2512 0.507 -0.498 0.704 63 70 52
-41.8141 45.9780 -42.2725 0.517 -0.499 0.696 63 71 50
-36.7531 43.4459 -42.1848 -0.058 0.021 0.998 85 74 80
-35.2297 44.6938 -43.2476 0.126 -0.061 0.990 113 102 108
-34.8170 45.0516 -43.5462 -0.050 0.010 0.999 118 107 113
-34.2226 44.9765 -43.6563 0.702 -0.697 -0.145 138 123 130
-32.9306 44.9914 -43.9923 0.422 -0.528 0.737 140 125 132
-32.4497 45.4362 -44.3553 -0.098 -0.372 0.923 141 124 132
-32.3218 45.2879 -44.3074 0.213 -0.477 0.852 142 125 133
-32.0685 45.3484 -44.4045 0.220 -0.476 0.851 136 120 130
-31.8699 45.3174 -44.4381 0.207 -0.493 0.845 131 118 128
-31.6609 45.3033 -44.4835 0.201 -0.495 0.846 125 112 122
-31.2958 44.4877 -44.1342 -0.535 -0.731 0.423 110 97 107
-31.2674 44.1877 -43.9788 0.001 -0.979 0.204 110 97 107
-30.7474 44.6695 -44.3719 -0.083 -0.317 0.945 111 98 108
-24.5669 40.9924 -43.9479 -0.197 -0.393 0.898 110 99 107
-23.3979 41.3580 -44.4426 0.632 -0.772 0.066 90 80 88
-17.3824 35.8178 -42.9671 -0.556 0.112 0.824 35 32 27
-16.9651 34.4585 -42.3365 0.138 -0.070 0.988 101 95 71
-16.8070 34.3982 -42.3439 0.244 -0.097 0.965 107 103 78
-44.0089 43.7345 -40.6969 -0.085 -0.202 0.976 70 77 59
-44.3426 42.0846 -39.7134 -0.700 -0.064 0.711 75 83 62
-44.3668 41.5991 -39.4429 -0.646 -0.203 0.736 74 82 61
-44.2835 41.3616 -39.3347 -0.675 -0.192 0.712 70 77 60
-44.1508 41.2370 -39.3007 -0.678 -0.196 0.708 63 70 52
-36.8133 43.3553 -42.3222 -0.010 0.009 1.000 89 78 84
-35.1813 44.4245 -43.3200 -0.039 0.007 0.999 117 106 112
-33.2668 45.9055 -44.6139 -0.105 0.027 0.994 139 122 130
-32.6284 45.1533 -44.3668 -0.061 -0.395 0.917 136 119 127
-32.5265 44.9630 -44.2891 -0.040 -0.409 0.912 137 120 128
-32.2926 44.6367 -44.1710 0.326 -0.922 0.210 125 112 122
-32.1260 44.5566 -44.1698 0.263 -0.961 0.084 119 107 117
-31.7122 44.5280 -44.2595 -0.292 -0.841 -0.456 110 98 108
-31.5523 44.4374 -44.2509 -0.389 -0.761 0.519 104 92 101
-31.4681 44.2258 -44.1571 -0.366 -0.762 0.534 104 92 102
-31.3203 44.1172 -44.1356 0.019 -0.974 0.226 105 92 102
-31.0439 44.2132 -44.2582 0.224 -0.765 0.604 105 92 102
-30.6074 44.5602 -44.5583 -0.094 -0.302 0.949 110 97 107
-25.2931 40.6221 -43.7664 -0.585 -0.376 0.718 112 99 109
-17.3925 36.0351 -43.2796 -0.506 0.104 0.856 29 27 27
-17.0462 35.2588 -42.9450 -0.509 0.108 0.854 52 46 31
-17.1381 34.0676 -42.2729 0.113 -0.097 0.989 110 106 83
-44.6513 43.6219 -40.6686 -0.099 -0.186 0.978 66 70 54
-44.4464 43.6494 -40.7360 -0.112 -0.186 0.976 65 69 53
-34.8313 44.3184 -43.5576 -0.057 0.016 0.998 131 120 128
-34.6365 44.2907 -43.5922 -0.062 0.013 0.998 133 120 127
-34.4615 43.1483 -43.0116 -0.127 0.048 0.991 135 119 129
-32.4239 44.4358 -44.2366 0.375 -0.918 -0.131 121 108 118
-32.1695 44.5005 -44.3370 0.308 -0.943 -0.127 116 103 113
-32.1189 44.2319 -44.2029 0.087 -0.924 -0.373 111 98 108
-31.6778 44.2494 -44.3251 0.054 -0.913 -0.404 102 86 97
-31.6528 43.9437 -44.1642 -0.090 -0.842 0.531 100 87 97
-31.3552 44.0755 -44.3124 0.019 -0.974 0.226 100 87 97
-31.1287 44.0924 -44.3795 0.224 -0.765 0.604 100 87 97
-30.7896 43.9453 -44.3855 0.032 -0.771 0.636 116 100 111
-25.7791 41.4327 -44.2898 -0.909 -0.224 0.352 87 74 82
-25.3783 40.5169 -43.8909 -0.585 -0.376 0.718 101 88 97
-24.9693 40.4821 -43.9763 -0.028 -0.412 0.911 103 92 100
-24.7788 40.4461 -44.0052 -0.023 -0.423 0.906 105 94 102
-24.5974 40.3983 -44.0254 -0.074 -0.418 0.906 102 92 100
-16.1981 34.3466 -42.8579 -0.075 0.010 0.997 111 105 89
-44.7892 43.3276 -40.6680 -0.098 -0.183 0.978 67 71 57
-44.5872 43.3501 -40.7321 -0.136 -0.158 0.978 66 70 56
-35.3547 43.7844 -43.3362 -0.045 0.008 0.999 118 107 112
-34.5043 43.0918 -43.1730 -0.076 0.023 0.997 132 115 125
-32.7537 44.2601 -44.2642 0.355 -0.930 0.094 117 101 111
-32.4999 44.3257 -44.3653 0.335 -0.932 0.135 107 94 104
-32.2344 44.4092 -44.4793 0.322 -0.939 0.122 108 95 105
-32.0642 44.3357 -44.4824 0.139 -0.950 -0.280 106 93 103
-31.8329 44.0138 -44.3646 -0.486 -0.597 0.638 100 84 95
-31.6980 43.8854 -44.3285 -0.112 -0.835 0.538 97 84 94
-31.4137 43.9960 -44.4622 0.215 -0.780 0.588 96 83 93
-31.2294 43.9464 -44.4822 0.232 -0.769 0.596 97 84 94
-30.9038 43.7793 -44.4736 0.031 -0.755 0.655 116 100 111
-30.7821 43.6322 -44.4239 0.076 -0.438 0.896 116 100 111
-25.8489 41.3462 -44.4301 -0.905 -0.217 0.367 85 72 79
-25.4554 40.4222 -44.0226 -0.619 -0.342 0.707 97 84 93
-25.1013 40.3167 -44.0553 -0.028 -0.412 0.911 95 84 92
-24.9103 40.2820 -44.0851 -0.023 -0.423 0.906 103 92 100
-24.7403 40.2202 -44.0947 -0.079 -0.419 0.905 104 93 101
-24.5504 40.1839 -44.1233 -0.118 -0.412 0.903 98 88 96
-24.5840 39.8625 -43.9379 -0.667 -0.168 0.725 93 83 91
-24.5653 38.5248 -43.2068 -0.256 -0.187 0.948 80 70 78
-24.5756 38.2458 -43.0507 -0.183 -0.204 0.962 80 70 78
-49.9140 87.1496 -63.7744 -0.151 -0.411 0.899 48 57 40
-43.6484 42.4456 -40.6695 -0.747 -0.126 0.653 66 72 62
-34.3605 43.7114 -43.7561 -0.042 0.015 0.999 124 107 117
-31.8188 44.0508 -44.5969 -0.452 -0.608 0.653 101 88 98
-31.4950 43.8803 -44.5858 0.215 -0.780 0.588 100 87 97
-31.3165 43.8219 -44.5994 0.223 -0.774 0.593 100 87 97
-31.1775 43.7011 -44.5684 0.422 -0.732 0.535 100 87 97
-30.9838 43.6670 -44.5993 0.031 -0.755 0.655 111 95 106
-30.7470 43.3641 -44.4927 -0.090 0.040 0.995 117 101 112
-25.8219 41.0969 -44.5049 -0.905 -0.218 0.366 86 74 78
-25.5411 40.3162 -44.1454 -0.649 -0.292 0.703 95 82 89
-25.3482 40.2846 -44.1775 -0.513 -0.212 0.832 95 82 89
-25.1796 40.2211 -44.1858 -0.303 -0.197 0.933 96 83 90
-25.0590 40.0957 -44.1474 -0.023 -0.422 0.906 104 93 99
-24.8670 40.0629 -44.1786 -0.079 -0.419 0.905 108 97 103
-24.6749 40.0300 -44.2098 -0.118 -0.412 0.903 108 97 103
-24.3993 39.0057 -43.7143 -0.361 -0.189 0.913 84 73 81
-22.2691 39.2118 -44.3757 0.112 -0.194 0.975 73 67 71
-22.1256 39.1199 -44.3617 0.106 -0.191 0.976 72 66 70
-21.9101 39.1141 -44.4139 0.069 -0.175 0.982 72 66 70
-21.6356 39.1779 -44.5198 0.052 -0.169 0.984 72 66 70
-45.0609 42.7474 -40.6676 -0.136 -0.151 0.979 56 59 52
-43.6126 42.1258 -40.6955 -0.743 -0.123 0.658 69 76 70
-39.2596 42.2546 -41.8893 -0.030 -0.000 1.000 79 72 78
-36.1491 42.7810 -42.9836 0.050 -0.007 0.999 88 77 84
-35.3488 43.1015 -43.3680 -0.071 0.018 0.997 105 92 99
-34.7694 43.3853 -43.6750 -0.145 0.033 0.989 115 95 106
-32.0364 43.7142 -44.5623 -0.169 0.050 0.984 104 92 102
-31.4189 43.3335 -44.5099 0.011 0.021 1.000 103 90 100
-31.2533 43.2571 -44.5102 0.011 0.021 1.000 106 93 103
-30.5811 42.9688 -44.5233 -0.092 0.039 0.995 122 106 117
-25.8425 40.4975 -44.3718 -0.598 -0.404 0.692 88 76 80
-25.6264 40.2107 -44.2681 -0.649 -0.292 0.703 91 78 85
-25.4560 40.1501 -44.2784 -0.513 -0.212 0.832 90 77 84
-25.3114 40.0560 -44.2633 -0.303 -0.197 0.933 92 79 86
-25.1985 39.9213 -44.2176 -0.102 -0.453 0.885 98 85 92
-24.9980 39.9001 -44.2575 -0.116 -0.442 0.889 105 94 100
-24.8838 39.7681 -44.2136 -0.404 -0.275 0.873 106 95 101
-24.6395 39.8027 -44.2958 -0.116 -0.417 0.902 106 95 101
-24.5069 39.4197 -44.1172 -0.312 -0.231 0.922 103 92 98
-24.4227 39.2528 -44.0462 -0.319 -0.242 0.916 94 83 89
-24.4434 38.9554 -43.8756 -0.332 -0.185 0.925 90 79 85
-24.3553 38.7959 -43.8097 -0.327 -0.490 0.808 85 74 80
-22.0485 38.6914 -44.3463 -0.008 -0.150 0.989 74 65 70
-16.8461 35.6830 -44.0159 -0.417 0.098 0.903 33 29 28
-16.9001 33.0170 -42.5207 -0.032 0.006 0.999 93 90 75
-44.8044 44.3123 -41.8022 -0.417 -0.148 0.897 66 69 62
-45.1726 42.5143 -40.7030 -0.139 -0.152 0.979 79 82 75
-43.6832 41.9969 -40.7992 -0.743 -0.123 0.658 69 75 73
-41.3482 44.0984 -42.5765 0.064 -0.457 0.887 57 70 61
-41.1128 44.1731 -42.6790 -0.354 -0.302 0.885 60 71 63
-40.9538 44.0861 -42.6716 -0.358 -0.304 0.883 56 68 59
-40.7756 44.0397 -42.6918 -0.333 -0.336 0.881 52 63 55
-40.6246 43.9367 -42.6733 -0.332 -0.327 0.885 49 58 50
-39.9778 43.2156 -42.4379 -0.309 0.063 0.949 52 52 48
-36.3114 42.5110 -42.9926 0.026 -0.001 1.000 81 72 72
-35.8726 42.5630 -43.1351 0.038 -0.018 0.999 80 72 69
-31.4989 43.5596 -44.8226 -0.107 0.037 0.994 109 96 106
-31.6614 42.6292 -44.2610 -0.000 0.026 1.000 108 92 103
-31.4995 42.5504 -44.2589 -0.000 0.026 1.000 112 96 107
-25.7945 39.9967 -44.3082 -0.562 -0.298 0.772 85 73 77
-25.5687 40.0092 -44.3736 -0.511 -0.207 0.834 85 73 77
-25.4524 39.8789 -44.3309 -0.339 -0.268 0.902 87 75 79
-25.3174 39.7734 -44.3069 -0.102 -0.453 0.885 91 79 83
-25.1470 39.7140 -44.3178 -0.102 -0.453 0.885 101 88 95
-25.0489 39.5621 -44.2584 -0.394 -0.267 0.879 101 90 96
-24.8785 39.5034 -44.2697 -0.375 -0.298 0.878 101 90 96
-24.7177 39.4324 -44.2716 -0.312 -0.241 0.919 103 92 98
-24.6179 39.2847 -44.2149 -0.317 -0.237 0.918 101 90 96
-24.5930 39.0435 -44.0867 -0.333 -0.240 0.912 94 83 89
-24.5738 38.7970 -43.9541 -0.332 -0.185 0.925 91 80 86
-22.2807 38.4192 -44.3360 -0.008 -0.150 0.989 98 89 92
-21.9630 38.5360 -44.4834 -0.011 -0.144 0.990 91 82 86
-44.9086 44.0948 -41.8522 -0.415 -0.144 0.898 65 68 61
-45.0049 42.4926 -40.9282 -0.136 -0.158 0.978 82 85 78
-44.8508 42.4077 -40.9205 -0.136 -0.158 0.978 68 73 66
-44.3340 42.2808 -40.9834 -0.111 -0.184 0.977 84 90 88
-41.3626 44.0943 -42.7718 -0.356 -0.287 0.889 49 62 53
-41.1825 44.0523 -42.7949 -0.360 -0.301 0.883 48 61 52
-41.0417 43.9279 -42.7617 -0.358 -0.304 0.883 49 62 53
-40.8733 43.8617 -42.7682 -0.335 -0.325 0.884 48 61 52
-40.7230 43.7583 -42.7492 -0.335 -0.325 0.884 50 60 52
-40.1062 42.9818 -42.4734 -0.300 0.061 0.952 52 53 47
-39.2145 41.6233 -41.9424 -0.017 -0.005 1.000 66 62 61
-35.9023 41.8159 -42.9096 0.030 -0.003 1.000 95 80 85
-35.2122 42.6553 -43.5597 -0.227 0.039 0.973 96 79 87
-34.7752 41.9951 -43.3026 -0.114 0.045 0.992 100 83 91
-34.5392 41.3609 -43.0079 -0.085 0.008 0.996 104 88 98
107.8984 256.0049 -200.3998 -0.831 -0.508 0.228 125 109 120
-29.9711 41.0276 -44.0059 0.266 -0.448 0.853 96 82 97
-25.6644 39.6094 -44.3272 -0.342 -0.262 0.902 82 70 74
-25.4763 39.5738 -44.3561 -0.106 -0.453 0.885 85 73 77
-25.2947 39.5297 -44.3784 -0.394 -0.267 0.879 96 83 90
-25.1628 39.4218 -44.3521 -0.394 -0.267 0.879 96 85 91
-25.0297 39.3160 -44.3272 -0.390 -0.272 0.880 96 85 91
-24.9439 39.1507 -44.2567 -0.382 -0.267 0.885 96 85 91
-24.8581 38.9863 -44.1867 -0.332 -0.242 0.912 97 86 92
-24.7523 38.8481 -44.1366 -0.341 -0.243 0.908 94 83 89
-24.7126 38.6281 -44.0235 -0.532 -0.282 0.798 92 81 87
-22.4635 38.2056 -44.3698 -0.008 -0.150 0.989 108 97 101
-22.1475 38.3213 -44.5167 -0.011 -0.144 0.990 104 93 97
-21.8137 38.4565 -44.6792 0.040 -0.174 0.984 97 86 92
-17.2238 34.4090 -43.5986 -0.451 0.105 0.886 33 27 27
-17.5111 33.0481 -42.7604 -0.485 0.115 0.867 49 44 42
-45.3673 41.6700 -40.5642 -0.457 -0.126 0.881 63 66 59
-44.4371 42.0741 -41.0341 -0.111 -0.184 0.977 75 81 79
-44.2645 42.0337 -41.0563 -0.252 -0.132 0.959 69 75 73
-44.2931 41.1139 -40.5301 -0.741 -0.202 0.640 69 75 73
-43.8236 41.7403 -41.0055 -0.743 -0.123 0.658 70 76 76
-41.8859 43.8541 -42.7017 -0.323 -0.241 0.915 60 73 64
-41.5103 43.8071 -42.7729 -0.103 -0.280 0.954 41 54 45
-41.3074 43.8150 -42.8302 -0.097 -0.281 0.955 35 48 39
-41.1800 43.6637 -42.7780 -0.282 -0.239 0.929 41 54 45
-41.0252 43.5710 -42.7660 -0.049 -0.279 0.959 45 58 49
-40.8493 43.5222 -42.7843 -0.334 -0.334 0.881 51 62 54
-40.2819 42.6530 -42.4418 -0.931 -0.137 0.339 53 54 48
-40.2867 42.2482 -42.2122 -0.956 -0.126 0.264 42 43 37
-38.3824 40.6216 -41.7905 -0.310 0.037 0.950 85 84 63
-35.0406 41.2201 -42.9976 -0.037 0.009 0.999 98 83 87
-26.0246 39.1473 -44.1747 -0.483 -0.236 0.843 79 67 71
-25.9032 39.0274 -44.1387 -0.483 -0.236 0.843 80 69 73
-25.2763 39.2820 -44.4454 -0.394 -0.267 0.879 93 82 88
-25.1432 39.1767 -44.4206 -0.390 -0.272 0.880 93 82 88
-24.9199 38.1063 -43.8751 -0.421 -0.191 0.887 88 77 83
-22.7020 37.9258 -44.3504 -0.016 -0.147 0.989 102 91 95
-22.3307 38.1080 -44.5498 -0.011 -0.144 0.990 99 88 92
-17.1678 34.2451 -43.7149 -0.463 0.105 0.880 32 27 24
-17.5723 33.1981 -43.0192 -0.475 0.101 0.874 37 32 28
-45.1184 43.6559 -41.9463 -0.431 -0.081 0.899 41 44 36
-44.9074 41.8944 -41.0032 -0.554 -0.084 0.828 51 56 52
-44.6493 42.0531 -41.1605 -0.075 -0.193 0.978 58 64 60
-44.5302 41.8905 -41.0994 -0.081 -0.190 0.978 59 65 63
-44.2972 41.9886 -41.2158 -0.372 -0.085 0.924 61 70 67
-43.9906 41.8209 -41.2008 -0.377 -0.100 0.921 66 72 68
-43.8559 41.6962 -41.1653 -0.381 -0.094 0.920 67 71 70
-42.0927 43.8634 -42.8536 -0.043 -0.307 0.951 70 81 73
-41.9081 43.8334 -42.8848 -0.555 -0.109 0.825 58 71 62
-41.7707 43.7024 -42.8464 -0.619 -0.094 0.780 47 58 50
-41.6539 43.5283 -42.7782 -0.555 -0.112 0.825 39 50 42
-41.4099 43.6247 -42.8966 -0.097 -0.281 0.955 32 45 36
-41.2839 43.4716 -42.8427 -0.087 -0.282 0.956 37 50 41
-41.1419 43.3531 -42.8126 -0.111 -0.274 0.955 43 56 47
-40.9356 43.3687 -42.8753 -0.334 -0.334 0.881 51 61 53
-40.7263 43.3896 -42.9418 -0.849 -0.162 0.503 55 59 53
-40.4626 43.1138 -42.8543 -0.932 -0.141 0.334 75 76 71
-40.3839 42.8705 -42.7370 -0.932 -0.141 0.334 68 69 64
-40.3265 42.5867 -42.5911 -0.931 -0.137 0.339 54 55 50
-40.3238 42.1970 -42.3710 -0.956 -0.126 0.264 42 43 38
-39.2595 41.2040 -42.0861 -0.299 0.036 0.954 68 64 63
110.3996 258.4982 -204.2810 -0.751 -0.526 0.400 128 112 123
-26.2065 38.9168 -44.1970 -0.460 -0.250 0.852 78 67 71
-26.0825 38.8013 -44.1639 -0.460 -0.250 0.852 78 67 71
-23.6116 37.1034 -43.8467 0.176 -0.209 0.962 92 81 85
-23.3810 37.1235 -43.9183 0.173 -0.208 0.963 97 86 90
-22.0842 37.8884 -44.6902 0.044 -0.178 0.983 77 66 70
-17.2205 33.9738 -43.7414 -0.425 0.085 0.901 34 25 26
-17.4060 33.5742 -43.4666 -0.418 0.085 0.904 37 29 26
-17.6736 33.0965 -43.1260 -0.462 0.102 0.881 37 32 28
-42.2109 44.0659 -43.1386 -0.395 -0.180 0.901 61 71 65
-42.0939 43.8883 -43.0681 -0.400 -0.168 0.901 58 70 62
-41.8880 43.9041 -43.1311 -0.913 -0.188 0.362 52 65 56
-41.8102 43.6447 -43.0037 -0.895 -0.194 0.401 44 57 48
-41.7002 43.4564 -42.9253 -0.800 -0.196 0.567 41 54 45
-41.4682 43.5277 -43.0266 -0.287 -0.239 0.928 55 68 59
-41.3407 43.3782 -42.9748 -0.274 -0.240 0.931 53 69 59
-41.2036 43.2500 -42.9377 -0.086 -0.284 0.955 52 68 57
-41.0257 43.2071 -42.9599 -0.135 -0.262 0.956 55 66 56
-40.6333 43.1962 -43.0564 -0.834 -0.175 0.523 60 61 55
-40.5062 43.0494 -43.0062 -0.902 -0.134 0.410 60 61 56
-40.4218 42.8178 -42.8963 -0.902 -0.134 0.410 66 67 62
-40.3595 42.5440 -42.7567 -0.922 -0.138 0.361 67 68 63
-40.3609 42.1460 -42.5297 -0.956 -0.126 0.264 53 55 50
-39.8440 40.4841 -41.7187 -0.785 0.006 0.619 67 63 62
-37.1540 40.3824 -42.3651 -0.154 0.047 0.987 87 87 63
-30.2951 40.8926 -44.4514 -0.018 -0.547 0.837 116 102 116
-30.1116 40.8522 -44.4765 0.245 -0.662 0.708 113 99 113
-26.2595 38.5782 -44.1901 -0.568 -0.298 0.767 79 67 71
-23.5777 36.8932 -43.9328 0.173 -0.208 0.963 94 83 87
-17.9405 31.9972 -42.6208 -0.069 0.014 0.998 37 32 26
-15.6360 31.5460 -42.9672 -0.195 0.050 0.979 95 96 66
-15.6219 31.3606 -42.8653 -0.233 0.060 0.971 88 91 64
-15.5545 31.2252 -42.8059 -0.234 0.066 0.970 82 86 61
-15.4520 31.1223 -42.7741 -0.234 0.066 0.970 82 88 62
-11.8362 31.9992 -44.2201 -0.329 0.073 0.942 81 90 63
-43.7891 43.2041 -42.4324 -0.972 -0.227 -0.065 49 55 55
-43.4809 43.4616 -42.6606 -0.308 -0.868 0.390 49 55 53
-42.3487 43.7929 -43.1476 -0.414 -0.173 0.894 53 63 57
-41.9329 43.8346 -43.2806 -0.913 -0.188 0.362 51 64 55
-41.8663 43.5513 -43.1360 -0.903 -0.198 0.381 48 61 54
-41.7771 43.3193 -43.0267 -0.905 -0.201 0.375 45 58 51
-41.5910 43.2944 -43.0613 -0.531 -0.148 0.834 66 79 70
-41.4755 43.1209 -42.9923 -0.523 -0.147 0.840 64 80 70
-41.3060 43.0617 -43.0029 -0.086 -0.284 0.955 64 79 69
-41.0995 43.0792 -43.0672 -0.111 -0.263 0.958 66 77 69
-30.4105 40.7327 -44.5318 0.003 -0.588 0.809 121 105 116
-30.1718 40.7741 -44.6181 0.247 -0.668 0.702 122 106 117
-30.0511 40.6420 -44.5743 0.253 -0.663 0.705 121 105 116
43.2818 135.0755 -117.8683 0.604 -0.786 -0.135 83 71 75
-26.4162 38.3813 -44.2353 -0.607 -0.282 0.742 79 67 71
-26.2664 38.3012 -44.2288 -0.573 -0.295 0.765 86 75 79
-26.1353 38.1976 -44.2040 -0.566 -0.295 0.770 90 79 83
-19.7219 34.9662 -44.0393 -0.115 -0.839 0.531 57 52 55
-19.3538 35.1270 -44.2280 -0.707 -0.069 0.704 53 49 50
-19.4138 34.8355 -44.0454 -0.779 -0.134 0.613 47 43 44
-19.3311 34.6956 -43.9871 -0.786 -0.149 0.600 42 38 39
-16.4446 31.3905 -42.8539 -0.045 0.024 0.999 103 102 72
-15.7929 31.3982 -43.0295 -0.190 0.049 0.980 103 104 74
-15.5104 31.0657 -42.9135 -0.210 0.052 0.976 88 93 70
-43.7864 43.6860 -42.9079 -0.974 -0.227 -0.015 44 49 46
-43.7471 43.3298 -42.7135 -0.975 -0.222 -0.023 43 49 47
-43.7228 42.5079 -42.2473 -0.974 -0.227 0.001 41 47 45
-42.2805 43.5385 -43.2198 -0.548 -0.833 -0.081 49 60 53
-42.0384 43.6343 -43.3387 -0.898 -0.279 0.339 50 63 54
-41.9331 43.4351 -43.2519 -0.915 -0.264 0.304 51 64 57
-41.8357 43.2209 -43.1544 -0.918 -0.260 0.300 52 65 58
-41.7306 43.0253 -43.0697 -0.917 -0.251 0.309 69 82 75
-41.5913 42.9034 -43.0362 -0.533 -0.143 0.834 72 85 78
-41.4080 42.8743 -43.0678 -0.086 -0.284 0.955 72 85 78
-41.0680 42.7603 -43.0918 -0.135 -0.285 0.949 73 79 75
-40.9067 42.6856 -43.0913 -0.135 -0.285 0.949 65 68 64
-40.7357 42.6310 -43.1050 -0.141 -0.279 0.950 60 60 58
-40.4448 42.4193 -43.0600 -0.812 -0.079 0.578 85 86 81
-40.2862 41.1758 -42.3867 -0.793 0.010 0.609 61 60 56
-40.0522 40.4978 -42.0585 -0.795 0.005 0.606 59 55 56
-39.6405 40.9134 -42.4059 -0.274 0.047 0.961 59 55 56
-39.4968 40.8147 -42.3871 -0.273 0.047 0.961 59 55 56
-39.2288 39.8572 -41.9071 -0.035 0.009 0.999 78 74 73
-32.8127 38.9973 -43.1029 -0.307 -0.856 -0.417 122 109 118
-32.6250 38.9747 -43.1394 -0.310 -0.857 -0.411 121 108 117
-30.4453 40.3824 -44.5230 0.315 -0.684 0.658 121 105 115
-30.2041 40.4284 -44.6130 0.283 -0.662 0.694 121 105 115
43.7800 135.7674 -118.9204 0.591 -0.799 -0.110 84 72 76
-20.2720 36.0063 -44.6869 0.635 -0.630 0.446 79 69 77
-20.0498 36.0115 -44.7484 0.674 -0.651 0.350 81 71 79
-19.7517 36.0984 -44.8769 0.625 -0.730 0.278 81 71 79
-19.5004 35.2014 -44.4273 -0.767 -0.119 0.630 75 69 72
-19.4524 35.0228 -44.3373 -0.707 -0.069 0.704 70 64 66
-19.4283 34.8201 -44.2271 -0.791 -0.136 0.597 62 56 58
-19.3269 34.6998 -44.1846 -0.794 -0.138 0.592 54 48 50
-19.2524 34.5519 -44.1192 -0.794 -0.138 0.592 45 41 42
-17.9664 31.9681 -42.9724 -0.475 0.094 0.875 38 33 28
-16.4479 31.1855 -42.9224 -0.044 0.025 0.999 100 99 69
-16.3146 31.1111 -42.9147 -0.044 0.025 0.999 101 100 69
-16.2114 31.0091 -42.8833 0.182 -0.049 0.982 101 100 71
-43.6666 43.1004 -42.8006 -0.972 -0.233 0.015 38 48 41
-42.4165 43.2706 -43.2293 -0.085 -0.987 0.134 43 55 45
-42.2471 43.2111 -43.2397 -0.041 -0.985 0.168 48 61 51
-42.0099 43.2973 -43.3521 -0.910 -0.306 0.279 54 67 57
-41.9105 43.0880 -43.2575 -0.910 -0.306 0.279 59 72 62
-41.8117 42.8798 -43.1634 -0.910 -0.306 0.279 62 74 65
-41.7133 42.6727 -43.0697 -0.910 -0.306 0.279 65 78 68
-40.9728 42.9810 -43.4435 -0.732 -0.489 0.474 71 79 71
-40.8446 42.8370 -43.3941 -0.732 -0.489 0.474 70 74 68
-40.7912 42.5421 -43.2379 -0.500 -0.163 0.850 66 67 62
-40.5164 42.2988 -43.1700 -0.929 -0.018 0.369 89 90 85
-40.4887 41.9597 -42.9813 -0.815 -0.085 0.573 82 83 78
-40.3458 41.0808 -42.5113 -0.699 0.031 0.714 66 65 61
-40.2712 40.8464 -42.3956 -0.703 0.029 0.710 61 60 58
-39.8539 40.5262 -42.3209 -0.186 0.028 0.982 59 55 54
-32.8358 39.2831 -43.4572 -0.129 -0.876 -0.465 113 100 109
-32.6242 39.2958 -43.5205 -0.128 -0.880 -0.458 116 103 112
-32.5656 39.0759 -43.4089 -0.312 -0.865 -0.392 116 103 112
-32.4144 38.9974 -43.4035 -0.316 -0.864 -0.391 117 104 113
-30.2620 38.8509 -43.8876 0.220 -0.473 0.853 104 88 98
-30.2989 38.5054 -43.6782 0.150 -0.489 0.859 101 86 93
-24.7287 37.5733 -44.6116 -0.513 -0.049 0.857 89 78 84
-17.0084 31.0570 -42.8869 -0.047 0.031 0.998 93 92 61
-16.8000 31.0533 -42.9398 -0.044 0.025 0.999 96 92 63
-16.5146 30.7264 -42.8263 0.229 -0.053 0.972 96 96 63
-42.7340 43.0339 -43.2072 0.620 -0.784 -0.015 40 52 39
-42.5282 43.0554 -43.2742 -0.175 -0.973 0.151 47 60 45
-42.3240 43.0724 -43.3382 -0.053 -0.983 0.178 50 62 49
-42.1619 42.9982 -43.3381 -0.075 -0.974 0.214 54 68 53
-42.0002 42.9234 -43.3376 -0.922 -0.222 0.319 59 73 58
-41.9095 42.6989 -43.2313 -0.922 -0.222 0.319 57 69 55
-41.6762 42.7762 -43.3380 -0.919 -0.308 0.248 54 68 54
-40.8906 42.7673 -43.5411 -0.735 -0.482 0.476 73 79 71
-40.8292 42.4888 -43.3957 -0.684 -0.467 0.561 69 72 64
-40.5463 41.8676 -43.1100 -0.785 -0.094 0.613 87 90 83
-38.4816 39.1389 -42.0732 -0.097 0.027 0.995 91 91 67
-38.2754 39.1613 -42.1408 -0.372 0.099 0.923 91 91 67
-38.2606 38.8445 -41.9609 -0.389 0.103 0.916 93 93 69
-34.4844 40.8793 -44.1430 0.010 0.010 1.000 111 93 105
-32.7164 39.4775 -43.7978 -0.039 -0.897 -0.440 112 99 108
-32.5104 39.1708 -43.6744 -0.339 -0.856 -0.391 113 100 109
-32.1578 39.0882 -43.7199 -0.021 -0.130 0.991 114 101 110
-31.9972 39.0235 -43.7249 -0.021 -0.130 0.991 118 102 112
-30.5577 38.4381 -43.7666 0.035 -0.463 0.886 109 93 103
-30.4302 38.3278 -43.7364 0.162 -0.493 0.855 103 88 95
