ply
format ascii 1.0
element vertex 850
property float x
property float y
property float z
property float nx
property float ny
property float nz
property uchar diffuse_red
property uchar diffuse_green
property uchar diffuse_blue
end_header
-59.1618 -35.9743 -44.8031 -0.167 -0.405 0.899 185 181 194
-58.2033 -34.7649 -44.1743 -0.146 -0.331 0.932 187 184 195
-58.6510 -33.8519 -44.1342 0.804 -0.061 0.592 171 167 179
-71.1812 -37.4535 -49.5970 0.027 0.767 0.641 180 177 189
-72.9751 -37.8131 -50.3438 -0.222 0.635 0.740 179 175 187
-75.4010 -20.4468 -47.3220 0.475 0.880 0.026 139 129 137
-75.6470 -16.8646 -46.6043 0.087 -0.069 0.994 151 147 148
-75.5296 -16.5692 -46.4940 0.118 -0.043 0.992 147 143 144
-75.8192 -16.0668 -46.4880 0.112 -0.031 0.993 130 124 126
-78.8192 -7.7771 -45.7290 0.576 0.087 0.813 76 99 73
-78.4796 3.7345 -43.0033 0.763 -0.308 0.569 58 75 41
-78.1102 3.9720 -42.8126 0.709 -0.407 0.576 57 74 40
-78.6403 4.2277 -42.9515 0.818 -0.425 0.387 57 74 40
-78.4190 4.4667 -42.8154 0.905 -0.339 0.257 58 75 41
-78.4072 4.7100 -42.7561 0.833 -0.399 0.384 56 73 41
-78.2836 4.9496 -42.6561 0.905 -0.339 0.257 55 70 41
-85.5383 9.9905 -44.2096 0.538 0.766 -0.353 121 121 129
-86.1244 10.2824 -44.3611 0.567 0.731 -0.380 130 128 141
-89.5634 11.0442 -45.4652 0.890 -0.443 -0.107 109 107 120
-90.0612 11.3401 -45.5831 0.809 -0.471 0.353 98 96 109
-10.7315 6.8856 -17.1535 0.231 0.970 -0.074 85 88 104
-11.7116 7.0917 -17.4707 0.218 0.972 -0.085 95 99 112
-12.7891 7.3133 -17.8204 0.217 0.973 -0.077 109 112 119
-14.0527 7.5619 -18.2331 0.261 0.949 -0.175 120 123 126
-17.6808 8.3164 -19.4089 0.264 0.943 -0.204 71 74 63
-42.5434 -102.6606 -53.9980 0.902 0.222 -0.370 83 89 103
-42.8538 -102.6837 -54.1192 0.892 0.232 -0.388 83 89 103
-40.7522 -97.8723 -52.2425 0.916 -0.399 0.036 61 67 81
-48.8091 -99.9362 -55.7209 0.830 -0.165 0.533 21 26 43
-48.4934 -98.7432 -55.3324 0.693 -0.454 0.560 22 27 45
-49.6698 -96.1705 -55.1883 0.256 0.964 0.065 62 64 86
-48.9144 -36.8339 -41.4457 0.874 -0.173 -0.453 118 99 103
-48.7916 -36.5202 -41.3286 0.874 -0.173 -0.453 139 128 135
-51.0628 -34.1978 -41.6504 0.568 0.597 0.566 184 181 190
-58.2018 -33.6609 -44.1959 0.798 -0.193 0.571 167 164 173
-58.8891 -33.6533 -44.4509 0.827 -0.118 0.550 168 165 174
-70.0213 -34.5932 -48.8233 0.140 0.520 0.843 131 125 135
-70.4047 -32.6466 -48.5250 0.150 -0.199 0.968 160 153 160
-70.4690 -32.3728 -48.4869 0.148 -0.192 0.970 160 153 160
-75.2281 -31.4845 -50.0635 0.807 -0.589 -0.032 138 127 133
-61.2892 -23.5784 -43.0621 0.076 0.305 0.949 142 136 140
-75.4114 -17.0513 -46.8578 -0.071 -0.086 0.994 149 145 146
-75.2063 -15.9173 -46.5239 0.109 -0.045 0.993 144 140 141
-75.9053 -9.5649 -45.3441 0.779 0.625 -0.052 74 89 56
-76.6286 -9.3743 -45.5711 0.867 0.481 -0.129 74 89 58
-77.4101 -8.9205 -45.7602 -0.042 -0.154 0.987 66 85 55
-77.8692 -8.1663 -45.7606 0.611 0.023 0.792 71 97 70
-78.6144 -7.9655 -45.9934 0.921 -0.070 0.382 75 99 73
-78.6614 -6.9064 -45.7708 0.933 -0.069 0.353 63 84 61
-79.6446 -4.5970 -45.6142 0.075 -0.104 0.992 62 75 57
-77.7856 3.7933 -43.0163 0.744 -0.376 0.552 57 74 40
-77.7119 4.0354 -42.9339 0.712 -0.423 0.560 56 73 39
-77.8868 4.2826 -42.9431 0.712 -0.167 0.682 55 72 38
-78.3262 4.5368 -43.0497 0.905 -0.339 0.257 53 70 36
-78.2585 4.7786 -42.9695 0.905 -0.339 0.257 52 69 37
-78.1910 5.0196 -42.8896 0.905 -0.339 0.257 54 69 40
-82.3696 5.3951 -44.3656 0.956 0.117 0.270 54 67 41
-82.4121 5.6476 -44.3242 0.956 0.117 0.270 56 69 44
-88.3430 11.2908 -45.2600 0.755 -0.654 -0.042 82 80 93
-13.4539 7.4280 -18.1562 0.221 0.973 -0.072 117 120 126
-17.1207 8.1800 -19.3556 0.247 0.959 -0.137 68 74 64
-18.2263 8.4250 -19.7131 0.260 0.955 -0.141 60 63 51
-41.7615 -102.1029 -53.8786 0.710 0.695 0.115 78 84 98
-42.3937 -100.5785 -53.7691 0.904 -0.428 -0.016 58 64 78
-47.2645 -100.9399 -55.6838 -0.052 0.024 0.998 25 28 47
-47.3688 -100.6673 -55.6610 -0.057 0.027 0.998 19 24 43
-47.5820 -100.5321 -55.7104 -0.052 0.024 0.998 15 20 39
-52.2856 -90.1962 -55.1247 0.676 0.689 0.262 140 143 150
-48.9918 -36.8631 -41.7330 0.882 -0.179 -0.436 111 93 97
-51.1921 -33.9838 -41.9046 0.718 0.431 -0.546 172 169 178
-51.0261 -33.6582 -41.7680 0.733 0.523 -0.435 175 172 181
-58.0019 -35.7469 -44.8682 0.102 -0.379 0.920 179 176 185
-57.8791 -35.4226 -44.7481 0.102 -0.379 0.920 180 177 186
-77.6436 -40.4755 -53.3348 0.612 -0.489 0.621 174 171 178
-67.0328 -34.9794 -48.0907 0.838 0.365 0.405 151 148 155
-69.4454 -34.3668 -48.8587 0.152 0.523 0.839 126 120 130
-70.2206 -32.8537 -48.8056 0.116 0.193 0.974 158 148 157
-70.2823 -32.5788 -48.7661 0.176 -0.289 0.941 158 148 156
-70.7965 -31.2723 -48.6618 -0.178 0.204 0.963 145 135 143
-73.4592 -21.0787 -47.3408 0.160 -0.216 0.963 135 126 131
-73.4740 -20.5230 -47.2197 0.044 -0.095 0.995 143 134 139
-74.2920 -20.4121 -47.5022 0.113 -0.026 0.993 143 134 139
-74.5440 -16.3058 -46.6613 -0.035 -0.182 0.983 113 109 110
-74.1618 -15.1568 -46.2557 -0.133 -0.151 0.980 139 137 143
-76.1451 -9.5321 -45.7202 0.650 0.741 -0.168 74 89 56
-76.4519 -9.2987 -45.7824 0.868 0.475 -0.143 74 89 57
-78.3894 -7.6194 -46.1287 0.905 -0.108 0.412 75 99 73
-78.3800 -7.3531 -46.0644 0.899 -0.099 0.426 83 108 80
-78.3396 -7.0847 -45.9881 0.893 -0.097 0.440 78 102 75
-77.4665 -4.1546 -44.9920 -0.129 -0.139 0.982 61 74 54
-77.6026 3.8612 -43.2166 0.744 -0.376 0.552 71 88 54
-79.5213 5.1328 -43.6487 -0.177 0.127 0.976 46 60 34
-80.4290 5.4079 -43.9275 -0.164 0.430 0.888 62 75 49
-89.8435 10.9780 -46.2000 0.751 -0.660 -0.012 110 108 121
-14.0614 7.5368 -18.4752 0.225 0.972 -0.069 119 123 123
-17.8852 8.3155 -19.7363 0.231 0.969 -0.086 53 59 45
-18.5084 8.5000 -19.9287 0.300 0.941 -0.159 55 60 40
-94.2329 42.4534 -40.6792 0.157 0.792 0.590 64 90 51
-94.9134 42.8889 -40.8359 0.154 0.817 0.556 60 88 48
-47.6586 -113.8433 -59.0996 0.020 -0.404 0.915 62 70 93
-48.7248 -114.0255 -59.5452 0.133 -0.416 0.900 46 54 77
-48.4549 -113.2050 -59.2551 0.140 -0.428 0.893 43 51 75
-43.2643 -103.4792 -55.0630 0.918 0.188 -0.349 31 37 51
-46.3823 -104.8192 -56.5507 0.940 0.149 -0.308 23 29 43
-43.8047 -99.3934 -54.3326 0.462 0.885 0.051 28 31 50
-46.7593 -100.4043 -55.6831 -0.015 0.449 0.893 25 28 47
-46.9189 -100.2037 -55.6976 -0.018 0.413 0.911 28 33 52
-47.1441 -100.0852 -55.7558 -0.018 0.413 0.911 32 37 56
-48.7243 -99.6313 -56.2504 -0.050 0.096 0.994 22 27 46
-37.4732 -85.4289 -48.7381 -0.218 0.311 0.925 21 26 45
-52.5750 -91.7540 -55.9060 0.723 0.682 -0.116 128 131 138
-52.8071 -86.6084 -54.8162 0.870 -0.462 0.173 125 128 133
-51.1702 -34.4766 -42.2643 0.718 0.431 -0.546 166 163 172
-51.2931 -34.2711 -42.2638 0.718 0.431 -0.546 183 180 189
-65.8264 -34.8075 -47.8915 0.378 0.403 0.833 153 148 155
-66.7370 -34.8493 -48.2460 0.808 0.428 0.405 154 149 156
-67.1516 -34.7070 -48.3705 0.791 0.499 0.353 153 148 155
-68.8441 -34.7241 -49.0154 -0.112 0.588 0.801 149 143 153
-68.7794 -34.4048 -48.9178 0.171 0.621 0.765 140 134 144
-69.0590 -34.2069 -48.9785 0.203 0.535 0.820 128 122 132
-69.8215 -33.8781 -49.1920 0.480 0.416 0.773 144 138 148
-70.0979 -33.6754 -49.2503 0.484 0.378 0.789 148 142 152
-69.7993 -30.3465 -48.3753 -0.222 0.236 0.946 138 127 133
-73.2077 -14.9576 -46.1441 -0.134 -0.152 0.979 142 141 147
-70.6244 -14.2930 -45.0135 0.279 0.092 0.956 145 144 148
-72.8321 -14.0994 -45.8054 -0.027 -0.053 0.998 146 146 136
-72.9203 -13.5814 -45.7203 -0.065 -0.112 0.992 91 95 77
-72.9447 -13.3201 -45.6697 -0.061 -0.113 0.992 83 87 61
-74.4528 -12.7300 -46.1059 0.008 0.515 0.857 78 90 62
-78.7001 -7.0514 -46.4150 0.156 -0.102 0.983 91 115 89
-78.7610 -6.7903 -46.3783 0.156 -0.102 0.983 61 80 58
-78.8219 -6.5295 -46.3416 0.156 -0.102 0.983 70 84 66
-79.1615 -6.2885 -46.4152 0.054 -0.332 0.942 74 85 71
-77.5192 -5.3891 -45.5872 -0.132 -0.181 0.975 69 80 66
-77.4787 -5.1266 -45.5118 -0.045 -0.526 0.849 60 71 57
-78.8560 0.2082 -44.8125 0.968 0.102 -0.228 58 74 47
-78.8599 0.4613 -44.7560 0.969 0.094 -0.229 57 72 43
-78.9209 0.9657 -44.6637 0.973 0.055 -0.222 57 72 43
-77.3742 3.9282 -43.3997 0.748 -0.378 0.545 77 94 60
-79.1157 5.4391 -43.7136 -0.167 0.427 0.889 94 107 81
-14.2158 7.5908 -18.6384 0.205 0.978 -0.035 112 117 113
-17.5686 8.2098 -19.7667 0.185 0.982 -0.024 56 64 49
-46.7611 -110.9616 -58.4231 0.137 -0.415 0.899 27 34 59
-46.6154 -102.3581 -56.3896 0.500 0.835 -0.230 23 26 45
-46.5356 -100.2261 -55.8690 -0.012 -0.153 0.988 31 34 53
-46.6005 -99.9059 -55.8201 -0.012 -0.153 0.988 33 38 57
-52.1465 -90.2043 -55.7048 0.001 -0.030 1.000 128 131 138
-51.2977 -34.5191 -42.5791 0.752 0.389 -0.532 168 163 170
-51.4902 -34.3425 -42.6119 0.718 0.432 -0.546 186 181 188
-50.0568 -31.9681 -41.5194 0.257 -0.470 0.844 177 172 179
-50.0735 -31.7244 -41.4697 0.268 -0.484 0.833 175 170 177
-49.9150 -31.4116 -41.3374 0.038 0.186 0.982 177 172 179
-50.1718 -31.2637 -41.4013 0.032 0.233 0.972 175 170 177
-67.0452 -34.6459 -48.6138 0.810 0.433 0.395 154 149 156
-68.3660 -34.5303 -49.0910 -0.112 0.588 0.801 124 118 128
-70.3409 -33.4340 -49.5921 0.156 -0.295 0.943 154 148 158
-71.6920 -21.7251 -47.4155 -0.029 -0.112 0.993 144 137 144
-75.8082 -21.2036 -48.8654 0.822 -0.537 -0.190 151 142 147
-73.3183 -17.0912 -46.9704 -0.040 -0.381 0.924 139 133 135
-72.5183 -15.6029 -46.3231 -0.004 -0.404 0.915 150 145 147
-72.3530 -15.3083 -46.1924 -0.004 -0.404 0.915 155 153 152
-72.2099 -14.7523 -46.0100 -0.137 -0.147 0.980 143 143 149
-71.8857 -14.1725 -45.7530 0.033 0.048 0.998 140 140 140
-72.1183 -13.9430 -45.7890 0.037 0.001 0.999 118 118 110
-72.2168 -13.6933 -45.7691 0.037 0.009 0.999 82 84 69
-72.2448 -13.4335 -45.7201 0.017 0.015 1.000 80 83 63
-72.3898 -12.9272 -45.6590 -0.041 -0.032 0.999 78 84 56
-77.2722 -6.3544 -46.0099 -0.170 -0.039 0.985 72 85 68
-76.2220 -5.5020 -45.4134 -0.160 -0.121 0.980 75 86 72
-75.5588 -4.6913 -44.9741 -0.103 -0.479 0.872 54 64 52
-72.7296 3.2014 -42.0806 0.951 -0.305 -0.055 60 77 43
-77.1937 3.9961 -43.6004 0.748 -0.378 0.545 72 89 55
-77.7304 5.4663 -43.4670 -0.167 0.427 0.889 110 123 97
-80.3669 5.8029 -44.3952 -0.198 0.527 0.826 58 71 45
-79.8822 6.0314 -44.1578 -0.170 0.449 0.877 44 57 29
-14.6026 7.6738 -18.8846 0.160 0.982 0.097 109 114 107
-18.1525 8.3223 -20.0894 0.173 0.985 0.002 48 55 37
-39.0157 -97.8871 -52.7538 0.700 -0.546 0.460 41 47 61
-41.4294 -98.8305 -53.8985 0.869 0.477 -0.129 27 33 45
-46.2434 -101.9858 -56.4755 -0.008 -0.300 0.954 24 27 46
-46.0690 -99.3373 -55.7969 -0.035 0.007 0.999 46 49 68
-48.9764 -96.5218 -56.2631 0.701 0.092 0.707 41 43 68
-39.5287 -78.7430 -48.5300 0.949 0.310 -0.063 100 102 112
-49.6661 -87.9987 -54.5598 0.519 -0.566 0.641 130 133 140
-51.4816 -89.5698 -55.6197 -0.237 -0.064 0.969 112 115 122
-52.3079 -89.6812 -55.9626 -0.064 -0.250 0.966 68 71 78
-47.0033 -76.9578 -50.9878 0.950 -0.304 -0.076 118 121 128
-42.9923 -37.9450 -40.4387 0.289 0.920 0.266 157 157 170
-49.7159 -37.1799 -42.8437 0.816 0.018 -0.578 104 86 90
-49.7349 -32.0743 -41.6720 0.261 -0.468 0.844 161 158 167
-49.5213 -31.7381 -41.5123 0.267 -0.441 0.857 176 171 178
-49.3307 -31.4129 -41.3640 0.045 0.182 0.982 183 178 185
-49.5002 -31.2320 -41.3873 0.038 0.186 0.982 169 164 171
-49.7668 -31.0889 -41.4567 0.032 0.233 0.972 137 132 139
-66.8645 -34.5579 -48.8227 0.452 0.407 0.794 152 147 154
-67.8519 -34.3238 -49.1478 -0.179 0.662 0.728 123 117 127
-68.2723 -34.1776 -49.2754 -0.166 0.647 0.744 135 129 139
-71.8741 -15.9840 -46.4571 -0.007 -0.396 0.918 115 111 112
-71.3218 -14.8292 -45.9783 -0.036 -0.195 0.980 145 144 147
-71.7224 -13.3079 -45.7808 -0.000 0.013 1.000 80 83 64
-71.6902 -13.0410 -45.7068 0.008 0.022 1.000 79 83 57
-74.6983 -7.9107 -45.6772 0.269 -0.081 0.960 60 86 59
-75.9724 -6.9782 -45.9510 -0.149 -0.031 0.988 81 105 79
-76.2305 -6.4774 -45.9345 -0.135 -0.094 0.986 74 93 71
-75.8465 -5.4157 -45.5419 -0.085 -0.169 0.982 76 87 73
-73.3890 -1.7778 -43.7582 -0.166 0.456 0.874 71 87 61
-79.0188 0.5984 -45.3711 0.969 0.094 -0.229 68 83 54
-79.0679 1.1046 -45.2731 0.973 0.055 -0.222 67 82 51
-78.2321 1.3599 -44.8932 0.652 -0.595 0.470 68 83 52
-77.0135 4.0639 -43.8009 0.748 -0.378 0.545 68 85 51
-78.3604 5.8047 -43.9161 -0.198 0.527 0.826 56 69 43
-11.8784 4.6385 -18.6586 0.492 0.669 -0.557 81 82 87
-84.8118 23.9189 -42.2102 0.786 -0.322 0.528 61 79 41
-91.2197 39.8930 -40.9819 0.420 0.866 0.270 60 85 46
-90.1410 39.7767 -40.5945 0.268 0.847 0.459 59 84 45
-75.7693 36.1069 -35.9237 0.821 -0.537 0.193 64 89 50
-92.5493 42.2493 -40.9483 0.179 0.817 0.548 63 88 49
-92.0508 42.3031 -40.7444 0.167 0.828 0.535 58 83 44
-43.9396 -103.5311 -56.2576 0.281 -0.262 0.923 27 33 47
-43.6296 -99.8880 -55.2928 0.825 0.547 -0.144 21 24 43
-44.6753 -98.8603 -55.4586 0.178 -0.458 0.871 48 51 70
-45.4382 -98.6415 -55.7028 -0.064 0.015 0.998 44 47 66
-45.5928 -98.4394 -55.7157 -0.064 0.015 0.998 27 32 51
-45.7475 -98.2371 -55.7286 -0.064 0.015 0.998 28 33 52
-48.7340 -96.3287 -56.4404 0.672 0.211 0.710 32 34 59
-41.9369 -86.0608 -51.4313 0.985 -0.110 -0.132 100 102 126
-50.4775 -88.5698 -55.3147 -0.219 -0.086 0.972 98 101 108
-51.2249 -88.6056 -55.6120 -0.064 -0.250 0.966 65 68 75
-51.2267 -86.3294 -55.0847 -0.113 -0.150 0.982 117 117 125
-46.9499 -81.5321 -52.3187 0.823 0.264 -0.503 120 120 128
-47.2048 -81.4379 -52.3954 0.825 0.263 -0.500 112 112 120
-46.6216 -80.1302 -51.8666 0.886 0.134 -0.444 111 111 119
-46.7821 -70.3947 -49.6705 0.615 -0.061 0.786 130 128 133
-43.9357 -37.6801 -40.9821 0.612 0.783 0.111 176 174 190
-50.0385 -37.5860 -43.3194 0.815 0.020 -0.578 111 85 85
-49.9826 -37.2973 -43.2309 0.815 0.020 -0.578 104 85 89
-49.3234 -31.8934 -41.7226 0.251 -0.481 0.840 159 156 166
-48.8004 -31.1864 -41.3564 0.018 0.198 0.980 147 142 149
-49.9210 -29.8937 -41.4898 0.068 -0.095 0.993 126 123 130
-68.8535 -32.2910 -49.3646 0.166 -0.522 0.837 143 133 141
-68.3669 -31.8380 -49.0714 0.153 -0.527 0.836 141 131 139
-67.3243 -30.3465 -48.3224 0.153 -0.527 0.836 130 120 128
-67.3001 -30.0532 -48.2450 -0.096 -0.102 0.990 130 120 128
-70.5633 -15.1877 -46.0585 -0.116 -0.161 0.980 162 158 159
-70.5639 -14.9242 -45.9976 -0.104 -0.135 0.985 162 157 161
-70.7491 -14.6901 -46.0149 -0.073 0.143 0.987 152 150 154
-71.4946 -12.4397 -45.7811 0.255 0.499 0.828 78 88 59
-71.1583 -12.1347 -45.5803 0.235 0.618 0.750 78 89 59
-74.4503 -5.5184 -45.3183 -0.081 -0.182 0.980 74 87 70
-73.3441 -1.7125 -44.0079 -0.079 0.586 0.807 64 80 54
-74.7528 -1.5091 -44.5053 0.230 0.626 0.745 64 78 52
-77.6351 2.1777 -44.7643 0.551 -0.748 0.369 75 90 59
-77.7441 2.4264 -44.7488 0.565 -0.754 0.335 75 90 59
-76.4106 3.3943 -44.0088 0.869 0.467 0.162 70 85 52
-76.8334 4.1316 -44.0012 0.748 -0.378 0.545 59 74 41
-16.4508 4.7550 -20.5145 0.308 0.893 -0.328 64 62 73
-17.0144 4.8972 -20.6994 0.276 0.928 -0.249 79 78 86
-12.0153 4.6787 -18.8176 0.390 0.761 -0.518 82 81 89
-17.9266 8.2658 -20.2707 0.114 0.984 0.136 39 47 33
-88.5658 38.3394 -40.6022 0.890 -0.448 0.088 57 82 43
-74.6289 36.0288 -35.7505 0.365 -0.483 0.796 62 84 46
-44.2310 -99.5880 -55.7631 0.038 -0.361 0.932 51 54 73
-44.1998 -98.3549 -55.4637 0.092 -0.283 0.955 50 53 72
-48.9506 -98.2893 -57.2974 0.437 0.151 0.886 42 44 65
-48.2316 -95.8254 -56.4435 0.095 -0.270 0.958 27 29 54
-48.1864 -95.3760 -56.3212 0.095 -0.270 0.958 43 45 70
-48.2791 -95.0913 -56.2910 0.102 -0.273 0.956 77 79 104
-42.0014 -86.2190 -51.7807 0.985 -0.110 -0.132 102 104 128
-50.1654 -87.5534 -55.2689 -0.064 -0.250 0.966 101 104 111
-50.7963 -82.9790 -54.4487 0.867 -0.452 0.210 106 109 116
-49.6081 -72.6384 -51.5772 0.574 -0.043 0.817 125 123 126
-49.6686 -72.3518 -51.5339 0.906 0.153 0.394 125 123 126
-43.7967 -38.6110 -41.3879 0.926 0.338 -0.169 153 151 163
-43.9868 -37.9546 -41.3089 0.802 0.539 -0.257 182 182 193
-44.1350 -37.7792 -41.3258 0.564 0.824 -0.053 176 174 188
-50.9937 -38.2944 -44.1151 0.929 -0.224 -0.295 117 89 85
-48.3958 -32.9955 -41.8695 -0.169 -0.191 0.967 152 149 158
-48.5640 -31.5717 -41.6032 0.435 0.042 0.899 160 157 166
-48.5247 -31.3086 -41.5266 0.339 -0.050 0.939 156 151 158
-48.5550 -31.0739 -41.4838 0.317 0.109 0.942 108 103 110
-49.0827 -30.5422 -41.5653 -0.008 0.222 0.975 97 92 99
-49.1885 -30.3368 -41.5586 -0.002 0.228 0.974 99 94 101
-65.9394 -33.5978 -48.8375 0.536 0.566 0.626 148 142 152
-67.6725 -32.4539 -49.2454 0.058 -0.372 0.927 149 143 153
-67.7118 -31.5953 -49.0607 0.170 -0.524 0.835 132 122 130
-66.8913 -30.1806 -48.4118 0.216 -0.563 0.797 124 114 122
-66.8904 -29.6113 -48.2788 -0.091 0.172 0.981 124 114 122
-67.0829 -29.3870 -48.3015 -0.089 0.171 0.981 118 107 113
-70.4101 -16.4399 -46.5800 0.020 -0.074 0.997 123 118 122
-69.8639 -15.5521 -46.1606 -0.017 -0.446 0.895 137 135 136
-69.4035 -14.9518 -45.8416 -0.134 -0.023 0.991 143 138 142
-69.6177 -14.7249 -45.8721 -0.130 -0.002 0.992 143 138 143
-70.0265 -14.5279 -45.9852 -0.073 0.143 0.987 147 145 146
-71.8444 -12.9598 -46.3274 0.571 -0.225 0.790 76 85 59
-71.4111 -12.3767 -46.0229 0.237 0.503 0.831 78 89 59
-70.6616 -12.0173 -45.6475 0.357 0.876 0.325 76 90 57
-73.9744 -5.1722 -45.3421 -0.105 -0.159 0.982 58 75 53
-76.3136 3.2201 -44.2972 0.856 0.493 0.157 75 90 57
-76.3937 3.7081 -44.2147 0.857 0.496 0.136 65 80 47
-76.8571 4.2039 -44.2795 0.730 -0.341 0.592 59 74 41
-77.4110 6.1583 -44.0398 -0.188 0.555 0.810 51 66 37
-12.2355 4.6271 -19.0313 0.366 0.744 -0.559 79 78 86
-12.6528 4.7521 -19.1646 0.367 0.742 -0.561 81 80 88
-18.9368 8.4334 -20.7526 0.120 0.986 0.117 42 50 36
-75.9727 16.6247 -41.0416 0.773 -0.415 0.480 63 77 43
-88.3176 39.2179 -40.5823 0.230 0.838 0.495 51 76 37
-88.1281 39.3702 -40.4731 0.222 0.864 0.452 52 74 36
-43.4370 -113.6396 -59.0486 0.409 -0.475 0.779 82 88 100
-44.1471 -113.8234 -59.3698 0.273 -0.529 0.804 82 88 100
-44.1758 -108.6872 -58.1792 0.354 -0.484 0.800 40 46 62
-44.0829 -101.5138 -56.4641 0.176 -0.448 0.877 31 33 54
-42.7772 -97.8021 -55.0840 0.024 -0.346 0.938 53 58 78
-43.4983 -97.9513 -55.4014 0.043 -0.228 0.973 25 30 50
-43.6646 -97.7719 -55.4246 0.035 -0.247 0.968 29 34 54
-44.6380 -97.4380 -55.7278 -0.040 0.178 0.983 29 31 52
-47.9405 -96.3665 -56.7711 0.092 -0.305 0.948 41 43 68
-47.6772 -95.6539 -56.5011 0.107 -0.283 0.953 52 54 79
-47.6191 -95.1898 -56.3698 0.107 -0.283 0.953 70 72 97
-47.5613 -94.7277 -56.2390 0.107 -0.283 0.953 91 93 118
-47.5723 -94.3486 -56.1546 0.102 -0.273 0.956 111 113 138
-47.6072 -93.9984 -56.0863 0.115 -0.278 0.954 119 121 146
-47.9183 -93.9734 -56.2023 0.074 -0.051 0.996 116 118 143
-41.4511 -86.0207 -51.8075 0.543 -0.150 0.826 111 113 138
-41.8964 -86.1805 -52.0193 0.979 -0.166 -0.121 108 110 134
-44.6732 -87.5567 -53.4293 0.697 0.705 0.134 99 101 116
-50.9165 -83.5367 -54.9347 0.693 0.681 -0.236 110 113 120
-47.1450 -78.3231 -52.2370 0.890 0.299 -0.346 107 110 117
-48.1406 -78.2497 -52.6099 0.900 -0.436 -0.021 99 104 110
-48.2157 -31.4167 -41.6800 0.436 0.015 0.900 167 161 168
-48.2272 -31.1747 -41.6279 0.326 0.102 0.940 142 135 143
-48.3234 -30.9669 -41.6170 0.326 0.102 0.940 60 53 61
-48.5615 -30.8152 -41.6748 0.329 0.103 0.939 89 82 90
-49.0177 -30.2546 -41.7223 -0.022 0.242 0.970 96 89 97
-65.9572 -32.4243 -48.8670 0.066 -0.437 0.897 151 143 154
-67.6938 -31.2725 -49.2779 0.981 -0.054 -0.185 138 128 137
-66.9458 -30.1695 -48.7267 0.984 -0.101 -0.148 119 109 118
-65.6689 -29.4829 -48.0657 0.727 0.129 0.675 119 109 118
-65.9035 -29.2748 -48.1089 0.731 0.141 0.668 119 109 118
-66.9805 -29.0422 -48.4765 -0.208 0.441 0.873 116 105 113
-68.3260 -28.0245 -48.7655 0.325 0.365 0.872 121 110 118
-69.7746 -16.2824 -46.5853 -0.024 -0.392 0.920 117 115 118
-69.1465 -15.6474 -46.1906 -0.014 -0.449 0.893 133 131 134
-70.0487 -13.6983 -46.0880 -0.007 0.238 0.971 61 73 53
-70.0104 -13.4322 -46.0107 0.137 0.115 0.984 72 83 63
-72.1995 -12.9574 -46.7573 0.591 -0.196 0.782 68 82 54
-73.1278 -6.8307 -45.6873 0.142 -0.237 0.961 70 91 56
-73.8316 -5.8643 -45.7369 0.981 0.106 0.164 70 89 61
-73.7354 -5.6032 -45.6381 0.979 0.116 0.169 66 84 57
-73.4230 -5.3288 -45.4515 0.969 0.231 0.088 60 78 52
-73.1385 -1.3328 -44.4049 -0.126 0.589 0.798 57 71 45
-13.6599 4.4474 -19.7485 0.289 0.873 -0.393 64 61 71
-16.7129 8.0840 -20.0936 0.120 0.979 0.165 77 83 74
-76.1289 16.5076 -41.4018 0.800 -0.439 0.409 62 72 44
-75.8180 16.6857 -41.2383 0.769 -0.412 0.488 63 77 42
-80.6647 35.7696 -38.6715 0.504 0.671 -0.544 48 74 35
-92.9090 41.1794 -42.2028 0.152 0.776 0.612 50 72 34
-92.8954 41.6114 -42.0964 0.365 0.299 0.882 52 74 36
-74.2044 36.0843 -36.0666 0.553 -0.531 0.642 52 74 36
-43.4684 -114.7078 -59.6338 0.300 -0.389 0.871 87 93 105
-42.8556 -100.7948 -56.1219 0.028 -0.291 0.956 32 37 56
-42.4468 -99.0537 -55.5514 0.080 -0.451 0.889 61 63 86
-48.2447 -99.6550 -57.9796 0.094 -0.315 0.944 35 39 60
-47.9178 -98.4408 -57.5653 0.093 -0.311 0.946 31 35 55
-47.5381 -96.3759 -56.9302 0.137 -0.345 0.928 43 45 67
-47.0849 -95.4332 -56.5299 0.087 -0.302 0.950 76 78 101
-46.8512 -93.9770 -56.0954 0.107 -0.283 0.953 118 120 143
-46.9040 -93.6501 -56.0394 0.113 -0.284 0.952 114 116 140
-43.8430 -87.7939 -53.4556 0.254 0.331 0.909 112 115 132
-50.1341 -84.2928 -55.1141 0.744 0.564 -0.358 132 132 140
-49.7569 -80.9768 -54.1859 0.788 0.149 -0.598 113 116 123
-51.1485 -80.8907 -54.7146 -0.118 -0.242 0.963 93 96 103
-51.0400 -80.0578 -54.4760 -0.118 -0.242 0.963 99 100 105
-51.1886 -79.8386 -54.4830 -0.134 -0.226 0.965 102 101 106
-47.6245 -47.1366 -45.3909 0.737 0.650 0.185 140 140 148
-49.5783 -47.7409 -46.3036 0.982 0.126 -0.139 151 151 159
-52.1629 -38.0228 -45.0388 0.914 0.095 -0.394 99 88 95
-47.3770 -33.0372 -41.9793 0.200 -0.783 0.589 140 133 140
-47.5598 -31.6288 -41.7204 0.827 -0.136 0.546 173 164 170
-47.9732 -31.3046 -41.8072 0.450 0.024 0.893 169 160 167
-48.0375 -31.0842 -41.7808 0.450 0.024 0.893 149 142 150
-48.2025 -30.9041 -41.8035 0.444 0.014 0.896 48 41 49
-48.2647 -30.6827 -41.7760 0.444 0.014 0.896 71 64 72
-48.3269 -30.4615 -41.7486 0.444 0.014 0.896 65 58 66
-66.7373 -29.2214 -48.7187 0.649 0.743 0.162 115 104 112
-67.1671 -28.5017 -48.7191 0.646 0.641 0.416 113 102 110
-58.9456 -24.2285 -44.4719 0.775 -0.466 0.426 132 126 130
-70.1839 -18.9954 -47.6746 -0.070 -0.288 0.955 150 143 150
-69.9288 -18.6740 -47.4984 -0.066 -0.288 0.955 139 132 139
-69.2435 -16.6723 -46.7576 0.004 -0.439 0.899 105 100 106
-68.3866 -15.2119 -46.0764 0.034 -0.441 0.897 136 134 137
-68.8530 -14.2475 -46.0337 0.098 0.284 0.954 110 117 106
-69.0608 -14.0202 -46.0622 0.105 0.267 0.958 104 118 97
-69.4821 -13.5646 -46.1213 -0.013 0.224 0.975 56 74 47
-69.7505 -13.3443 -46.1754 -0.013 0.224 0.975 69 86 59
-64.9816 -5.6541 -42.4868 0.681 0.716 -0.153 61 86 47
-74.3383 -5.8393 -46.2210 0.962 0.177 0.208 61 82 49
-74.1715 -5.5721 -46.0923 0.836 0.530 0.140 61 82 51
-73.9149 -5.3003 -45.9272 0.791 0.585 0.183 61 82 51
-74.1048 -0.8012 -44.9447 -0.156 0.298 0.942 53 63 38
-75.5698 -0.0875 -45.3547 -0.085 0.544 0.835 58 71 45
-70.1228 1.6452 -42.7990 0.556 -0.446 0.701 70 85 52
-70.0926 1.8783 -42.7323 0.395 -0.483 0.782 73 88 55
-13.4907 4.7720 -19.7267 0.369 0.803 -0.468 83 82 90
-83.4836 37.7325 -39.5869 0.864 -0.488 -0.121 44 66 28
-89.7113 39.8632 -41.5424 0.140 0.705 0.695 42 67 27
-73.9923 36.1119 -36.2241 0.779 -0.462 0.423 48 70 32
-73.8028 36.2356 -36.1203 0.784 -0.459 0.418 47 69 31
-42.9540 -97.4594 -55.6813 0.518 0.747 0.417 25 30 52
-44.6188 -96.8310 -56.1940 0.671 0.595 0.442 37 37 64
-46.6673 -96.6063 -56.9543 0.471 -0.227 0.852 28 28 55
-33.5532 -79.8768 -47.7977 -0.304 -0.139 0.943 59 59 81
-33.8081 -79.8551 -47.8937 -0.303 -0.142 0.942 100 102 117
-46.1594 -92.4738 -55.7770 0.113 -0.284 0.952 108 112 126
-48.8450 -89.7834 -56.2083 0.053 -0.262 0.964 99 101 113
-51.8897 -86.1682 -56.5637 0.660 0.708 -0.252 132 132 140
-50.8818 -82.1582 -55.2168 0.790 0.121 -0.601 117 120 127
-50.0011 -79.8341 -54.3185 -0.105 -0.238 0.966 104 104 112
-49.9732 -76.2454 -53.4602 0.654 -0.265 0.708 104 103 108
-49.8955 -75.8219 -53.3293 0.712 -0.135 0.689 105 105 107
-46.3542 -67.5862 -49.9789 0.829 0.514 0.220 108 108 110
-48.0170 -67.7114 -50.6687 0.624 -0.129 0.771 127 127 129
-47.5463 -62.8268 -49.3286 0.981 -0.068 -0.180 127 128 130
-45.8623 -56.9385 -47.2699 0.516 -0.797 0.314 135 135 143
-47.6041 -47.6939 -45.7790 0.276 0.942 0.192 137 137 145
-44.0848 -38.7588 -42.2722 0.539 0.415 0.733 154 153 159
-47.6760 -31.1704 -41.9067 0.216 -0.118 0.969 173 163 168
-47.6574 -30.9173 -41.8395 -0.147 0.500 0.853 166 156 165
-67.7951 -33.5927 -50.4671 0.841 -0.315 0.441 149 139 148
-64.4358 -31.5693 -48.6556 0.001 0.939 0.344 138 128 137
-66.8183 -29.2167 -49.0462 0.656 0.730 0.190 115 103 113
-66.7037 -28.8978 -48.9254 0.639 0.746 0.189 118 106 116
-60.6218 -26.7759 -46.0095 0.234 0.624 0.745 119 107 117
-59.1652 -25.8134 -45.2039 0.526 0.662 0.534 122 110 120
-58.4907 -25.0971 -44.7670 0.953 -0.303 0.031 123 111 121
-71.8945 -20.9588 -49.1122 0.785 0.453 -0.423 152 143 148
-71.3810 -20.5707 -48.8167 0.724 0.593 -0.351 153 144 149
-69.5990 -19.9199 -47.9555 0.690 0.639 -0.340 153 144 149
-68.9681 -18.7094 -47.4192 -0.230 -0.246 0.941 150 144 148
-68.0098 -15.3623 -46.2485 0.037 -0.447 0.894 140 139 144
-68.7060 -13.6585 -46.1227 -0.090 0.356 0.930 62 82 52
-69.1597 -13.4674 -46.2577 -0.122 0.324 0.938 61 82 51
-69.0099 -13.1868 -46.1320 -0.052 0.100 0.994 68 87 56
-68.9184 -12.9158 -46.0317 -0.045 0.035 0.998 66 82 51
-71.2896 5.4362 -42.6407 0.312 0.761 0.569 51 65 39
-17.1712 8.1146 -20.5198 0.215 0.973 -0.088 89 94 90
-19.2872 8.5965 -21.2463 0.224 0.973 -0.051 74 83 67
-81.0702 27.1561 -41.3965 -0.074 0.304 0.950 48 70 32
-88.5055 39.5974 -41.4117 0.133 0.752 0.646 38 60 22
-41.5116 -100.0106 -56.0152 0.046 -0.037 0.998 64 69 88
-42.5141 -96.9952 -55.7009 0.601 0.694 0.397 31 36 58
-42.8458 -96.6407 -55.7494 0.643 0.629 0.436 30 35 57
-45.0142 -87.0826 -54.3497 0.328 0.064 0.943 75 78 87
-44.8950 -86.5789 -54.1826 0.273 0.024 0.962 83 86 95
-45.7658 -85.3400 -54.2369 0.240 -0.498 0.833 144 145 150
-46.0768 -85.3133 -54.3549 0.134 0.145 0.980 145 146 151
-45.7924 -84.6368 -54.0808 0.149 0.198 0.969 134 137 144
-49.8802 -78.3421 -54.2221 0.433 -0.258 0.864 110 110 112
-49.7270 -76.0711 -53.6224 0.654 -0.265 0.708 77 76 81
-49.6893 -75.6851 -53.5157 0.712 -0.135 0.689 73 72 77
-49.2611 -68.8127 -51.7150 0.762 0.040 0.646 110 110 112
-26.9479 -49.0904 -38.1196 0.621 -0.565 0.543 115 115 117
-47.5863 -65.4427 -50.2464 0.993 -0.076 -0.095 125 125 127
-47.4678 -65.0238 -50.0998 0.997 -0.015 -0.080 125 125 127
-47.8023 -63.6993 -49.9194 0.817 0.572 0.069 125 127 126
-45.7344 -56.8699 -47.4735 0.528 -0.789 0.313 127 127 135
-44.9636 -55.4182 -46.8211 0.845 0.534 -0.025 134 134 142
-66.8495 -69.8437 -58.9897 0.719 0.695 -0.002 131 131 141
-43.6154 -38.7666 -42.3338 0.896 0.411 0.170 143 142 148
-43.9986 -38.7131 -42.4742 0.769 0.545 0.335 139 138 144
-44.0802 -38.5016 -42.4567 0.528 0.561 0.638 130 129 135
-44.1943 -38.3067 -42.4561 0.421 0.450 0.788 154 153 159
-44.2467 -38.0801 -42.4233 0.408 0.443 0.798 180 179 185
-44.3904 -37.9001 -42.4381 0.740 0.649 0.177 188 185 194
-58.4473 -43.2587 -49.3274 0.825 0.340 -0.452 178 174 181
-58.7524 -42.8169 -49.3446 0.820 0.356 -0.448 104 99 107
-45.2852 -33.5848 -41.7725 0.926 -0.248 0.283 144 135 140
-47.0747 -31.1580 -41.9123 0.235 -0.014 0.972 167 156 160
-48.1521 -30.6083 -42.2126 -0.185 0.491 0.851 45 35 46
-48.5508 -30.5188 -42.3508 -0.185 0.491 0.851 64 54 65
-50.3174 -29.7080 -42.8646 0.857 -0.227 0.463 92 78 95
-50.2746 -29.4433 -42.7847 0.979 0.203 -0.019 98 84 101
-66.1514 -31.5494 -49.6302 0.087 -0.166 0.982 138 128 137
-66.9329 -30.0797 -49.5941 0.021 0.298 0.954 121 111 120
-66.8277 -29.1899 -49.3411 0.357 0.707 0.610 113 101 111
-69.0267 -25.5677 -49.3611 0.649 0.731 -0.211 151 145 149
-70.6037 -25.7005 -50.0229 0.767 0.529 -0.362 150 145 149
-68.9738 -21.1078 -48.2824 0.337 0.620 0.708 162 153 158
-69.4216 -18.7559 -47.9037 -0.115 -0.236 0.965 151 145 149
-69.0588 -17.8788 -47.5507 -0.037 -0.291 0.956 123 118 124
-67.0831 -15.1603 -46.1164 0.199 -0.266 0.943 139 140 142
-67.0912 -14.9039 -46.0589 0.190 -0.203 0.960 142 143 145
-67.0320 -14.6371 -45.9719 0.167 -0.139 0.976 133 133 135
-67.9091 -13.4902 -46.0505 -0.064 0.113 0.992 63 83 55
-68.4325 -13.3108 -46.2172 -0.122 0.324 0.938 69 90 59
-68.4174 -13.0514 -46.1497 -0.055 0.044 0.998 70 89 57
-67.6088 -11.6656 -45.4979 -0.171 0.330 0.929 60 80 45
-75.7453 1.5336 -45.6203 0.263 -0.177 0.948 62 77 44
-16.8180 5.1664 -21.2052 0.580 0.745 -0.329 87 86 94
-75.8944 16.9436 -42.0258 0.724 -0.424 0.544 64 80 43
-45.5659 -95.8475 -56.9601 0.014 0.331 0.944 102 103 125
-44.0275 -85.3186 -53.8335 0.305 -0.175 0.936 97 101 106
-49.3535 -77.5408 -54.1241 0.426 -0.228 0.875 128 128 129
-49.4668 -76.5872 -53.9425 0.699 -0.158 0.698 107 107 108
-49.4698 -76.2377 -53.8605 0.699 -0.158 0.698 94 94 95
-49.4728 -75.8891 -53.7787 0.699 -0.158 0.698 82 82 84
-49.4414 -75.5093 -53.6756 0.742 -0.014 0.670 75 75 77
-49.5834 -75.2912 -53.6808 0.778 0.062 0.625 82 82 84
-49.5689 -74.9286 -53.5886 0.787 0.060 0.614 86 84 87
-49.4087 -74.4331 -53.4061 0.811 -0.157 0.564 85 83 86
-47.0406 -68.2693 -50.9853 0.371 -0.298 0.880 77 77 79
-48.1963 -68.6089 -51.5312 0.380 -0.535 0.755 81 81 83
-48.0649 -66.5275 -50.9826 0.941 -0.171 0.293 105 105 107
-47.6618 -65.8669 -50.6631 0.986 -0.158 -0.048 106 106 108
-47.5305 -65.1135 -50.4308 0.992 0.042 -0.117 108 108 110
-47.4831 -64.7537 -50.3260 0.994 -0.029 -0.106 109 109 111
-47.3655 -64.3378 -50.1797 0.994 -0.033 -0.109 110 110 112
-47.5043 -64.1316 -50.1864 0.984 0.173 -0.035 109 109 109
-47.5986 -63.8893 -50.1666 0.830 0.552 0.077 110 112 109
-47.7362 -63.6817 -50.1726 0.830 0.552 0.077 114 116 114
-47.4065 -63.0999 -49.9013 0.766 -0.250 0.593 118 119 120
-47.0890 -62.5310 -49.6381 0.778 -0.364 0.512 120 121 123
-19.9373 -40.2859 -33.4154 0.380 0.475 0.794 118 120 119
-41.3427 -53.9332 -45.2783 0.385 0.782 0.490 120 119 125
-67.2337 -69.7730 -59.4683 0.704 0.709 0.045 129 129 137
-51.7711 -48.7768 -48.2462 0.788 -0.368 0.494 153 153 161
-43.5360 -38.7246 -42.5386 0.903 0.396 0.165 137 136 142
-43.9315 -38.6774 -42.6865 0.769 0.545 0.335 130 129 135
-44.1763 -38.2959 -42.6942 0.749 0.557 0.360 147 146 152
-44.2024 -38.0556 -42.6474 0.735 0.574 0.360 176 175 181
-44.3540 -37.8793 -42.6665 0.740 0.649 0.177 189 186 195
-47.6799 -36.4374 -43.6612 0.728 0.450 -0.517 111 89 86
-46.2095 -35.4945 -42.8451 0.830 0.300 -0.471 100 84 85
-53.1689 -36.2923 -45.8352 0.794 0.059 -0.605 131 122 127
-51.8638 -30.0152 -43.8151 0.860 0.465 0.212 93 79 96
-50.6694 -29.0729 -43.1101 0.950 0.301 0.083 110 96 113
-50.5494 -26.5680 -42.4653 0.983 -0.015 0.185 138 128 137
-65.3544 -30.4023 -49.3354 0.098 -0.532 0.841 160 150 159
-65.5182 -28.7576 -49.0096 -0.063 0.669 0.741 111 99 109
-61.9030 -26.8357 -47.0972 -0.122 0.983 0.136 145 133 143
-66.7069 -25.1928 -48.6388 0.859 0.394 -0.328 151 145 149
-66.1303 -24.7632 -48.3045 0.865 0.387 -0.320 156 150 154
-65.9718 -22.5439 -47.7122 0.574 0.519 0.633 153 148 152
-66.1067 -22.3066 -47.7099 0.633 0.463 0.620 154 148 152
-66.1088 -20.4307 -47.2640 0.396 -0.031 0.918 170 161 166
-66.6979 -20.2940 -47.4685 0.175 0.230 0.957 173 164 169
-71.1107 -19.8735 -49.1439 0.724 -0.682 0.107 151 142 147
-68.1174 -18.4534 -47.6013 0.072 -0.446 0.892 150 144 148
-68.1918 -17.9350 -47.5077 -0.022 -0.534 0.845 129 124 130
-67.9040 -17.3497 -47.2525 -0.078 -0.466 0.881 107 102 108
-66.7799 -14.8060 -46.1944 0.184 -0.213 0.960 149 150 152
-67.5011 -13.3805 -46.1451 -0.104 0.382 0.918 59 79 51
-67.8666 -13.1784 -46.2440 -0.098 0.471 0.877 66 87 57
-68.6068 -6.7337 -45.0069 0.878 0.395 -0.271 52 74 36
-72.0838 6.5291 -43.2472 -0.047 0.729 0.683 64 78 52
-16.1771 4.5158 -21.2322 0.438 0.773 -0.459 65 67 69
-62.7988 11.0394 -38.4371 -0.133 0.340 0.931 97 94 103
-18.3090 8.5467 -21.1299 0.267 0.962 -0.062 76 89 61
-75.9715 17.2579 -42.2562 0.931 -0.333 0.146 68 90 45
-82.1002 36.1957 -40.2118 0.473 0.682 -0.558 45 71 32
-42.2653 -107.4501 -58.7113 0.130 -0.423 0.897 12 18 32
-44.7435 -94.1521 -56.5339 0.440 -0.288 0.851 115 116 134
-44.3095 -88.6760 -55.0482 0.940 -0.069 -0.334 101 105 108
-44.8244 -88.8975 -55.3097 0.942 -0.084 -0.325 92 96 99
-44.8892 -88.2228 -55.1746 0.442 0.861 0.251 94 98 101
-45.7048 -86.9086 -55.1906 0.184 -0.261 0.948 122 126 127
-38.1083 -77.7470 -49.9223 0.933 -0.164 -0.320 134 138 141
-52.6095 -84.0750 -57.3093 0.969 0.221 0.107 129 129 141
-47.5210 -77.5958 -53.6984 -0.131 -0.142 0.981 126 126 136
-48.8002 -76.7178 -54.0065 0.036 0.165 0.986 127 129 126
-48.9964 -76.5520 -54.0463 0.077 0.142 0.987 127 128 125
-49.2634 -75.3985 -53.8785 0.712 -0.065 0.699 111 111 110
-49.4092 -74.8349 -53.8027 0.787 0.060 0.614 88 86 89
-49.2436 -74.3344 -53.6159 0.811 -0.157 0.564 86 84 86
-49.3287 -73.7190 -53.5031 0.765 -0.228 0.603 83 81 82
-49.3127 -73.3590 -53.4106 0.755 -0.227 0.615 70 68 69
-49.1609 -72.8775 -53.2339 0.442 -0.335 0.832 70 68 69
-49.0967 -72.4767 -53.1120 0.445 -0.263 0.856 69 67 68
-49.0700 -72.1108 -53.0137 0.445 -0.263 0.856 69 67 68
-48.4790 -70.2330 -52.3251 0.506 -0.456 0.733 70 70 72
-47.4905 -68.0454 -51.4015 0.380 -0.552 0.742 81 81 83
-47.8058 -66.0262 -51.0462 0.988 -0.156 -0.014 93 93 95
-47.7634 -65.6670 -50.9431 0.987 0.017 -0.160 90 90 92
-47.7557 -65.3374 -50.8611 0.987 0.017 -0.160 91 91 93
-47.6364 -64.9171 -50.7122 0.987 -0.070 -0.147 91 91 93
-47.7530 -64.3703 -50.6286 0.988 -0.010 -0.156 90 90 89
-47.9657 -64.2221 -50.6794 0.874 0.485 0.028 91 93 90
-48.0885 -64.0007 -50.6762 0.874 0.485 0.028 100 102 99
-19.3306 -39.8312 -33.2471 0.490 0.527 0.694 112 114 111
-45.5340 -60.0967 -48.7076 0.962 -0.255 -0.097 112 114 113
-48.0451 -47.7082 -46.7612 0.611 -0.551 0.568 130 130 138
-43.9039 -38.9171 -42.9810 0.732 0.629 -0.261 135 134 140
-46.4447 -30.8744 -42.0862 0.229 0.036 0.973 110 99 103
-46.5732 -30.4396 -42.0342 -0.182 0.481 0.858 155 145 153
-51.8261 -29.9828 -44.0524 0.861 0.462 0.213 89 75 92
-51.6453 -29.6628 -43.9026 0.969 0.223 0.109 97 83 100
-50.6556 -29.0490 -43.3549 0.950 0.301 0.083 106 92 109
-50.1346 -28.6113 -43.0392 0.860 0.436 0.267 113 99 116
-50.5483 -28.5130 -43.1833 0.861 0.456 0.226 116 102 119
-50.2900 -28.1733 -42.9974 0.704 0.491 0.513 139 126 142
-50.3967 -27.9646 -42.9907 0.703 0.499 0.507 174 163 173
-50.5227 -27.7625 -42.9934 0.702 0.509 0.498 172 162 171
-50.6522 -27.5614 -42.9977 0.709 0.521 0.475 169 159 168
-64.9031 -30.2287 -49.4076 0.153 -0.511 0.846 148 138 147
-64.6494 -29.5825 -49.1503 0.026 -0.188 0.982 127 117 126
-64.6202 -28.7317 -48.9349 0.117 0.342 0.932 119 109 118
-65.0648 -22.8228 -47.7015 0.247 0.718 0.651 141 136 140
-65.9545 -22.2323 -47.9206 0.633 0.463 0.620 142 136 140
-66.2897 -22.0425 -48.0110 0.622 0.609 0.492 142 133 138
-65.8229 -20.3275 -47.4116 0.410 0.022 0.912 153 144 149
-65.9425 -20.0882 -47.4029 0.337 0.322 0.884 155 146 151
-66.5492 -19.9541 -47.6165 0.244 0.440 0.864 159 150 155
-71.9396 -20.5591 -49.9444 0.712 -0.565 0.417 159 150 155
-66.5052 -14.7142 -46.3452 -0.028 -0.119 0.993 156 155 160
-66.3064 -13.9156 -46.0737 0.173 -0.089 0.981 53 55 55
-66.6911 -13.7205 -46.1828 0.084 -0.003 0.996 57 65 52
-66.5832 -13.4493 -46.0742 0.119 0.041 0.992 50 66 40
-67.1060 -12.5096 -46.0612 0.272 -0.208 0.940 65 84 52
-65.6321 -7.1525 -44.1827 0.857 0.499 -0.128 53 75 36
-61.8689 10.8185 -38.3597 -0.076 0.539 0.839 94 91 102
-74.0296 16.1940 -41.9991 -0.055 0.560 0.827 76 90 55
-74.7595 16.5118 -42.2187 -0.001 0.599 0.801 76 91 53
-91.6687 40.0377 -43.4395 0.527 0.672 -0.520 38 60 22
-38.1795 -109.0669 -57.7508 0.921 -0.305 -0.242 58 64 78
-36.2561 -103.2633 -55.5723 0.772 0.618 -0.151 38 44 56
-42.7705 -97.6487 -56.8791 0.672 0.624 0.398 28 33 55
-44.3332 -94.5246 -56.7656 -0.082 0.401 0.913 110 112 123
-43.2667 -89.7870 -55.1925 0.414 0.878 0.240 114 117 122
-44.6917 -88.0810 -55.3636 0.554 0.657 0.511 105 109 112
-44.8677 -87.9089 -55.3940 0.554 0.657 0.511 107 111 114
-45.5459 -87.1845 -55.4965 0.269 0.058 0.961 131 135 138
-48.3233 -76.6726 -54.1031 0.035 0.175 0.984 125 128 118
-48.5098 -76.4989 -54.1374 -0.022 -0.044 0.999 125 128 120
-48.5714 -76.2062 -54.0922 0.167 -0.215 0.962 105 108 100
-48.5813 -75.8649 -54.0142 0.167 -0.215 0.962 98 101 93
-48.5912 -75.5244 -53.9365 0.167 -0.215 0.962 103 106 98
-48.6010 -75.1846 -53.8588 0.167 -0.215 0.962 110 112 106
-48.9494 -73.7709 -53.6612 0.331 -0.081 0.940 104 104 102
-49.0294 -73.4983 -53.6283 0.402 -0.094 0.911 98 98 96
-48.9992 -72.7821 -53.4439 0.449 -0.352 0.821 86 86 86
-48.2409 -70.4064 -52.5640 0.675 -0.500 0.542 69 67 68
-46.5645 -68.2716 -51.3677 0.673 -0.201 0.712 69 67 68
-48.1364 -64.7187 -51.1548 0.990 0.143 0.014 78 78 76
-48.2632 -64.4991 -51.1538 0.859 0.502 -0.102 80 81 77
-48.5855 -64.4366 -51.2702 0.928 0.372 0.006 91 93 88
-46.2835 -58.5659 -48.9212 -0.226 0.913 0.339 112 114 114
-52.6052 -49.2864 -49.2689 0.897 -0.106 0.430 148 148 156
-44.7288 -38.8339 -43.5465 0.624 0.725 -0.293 124 123 129
-44.8979 -38.6641 -43.5746 0.640 0.711 -0.291 165 164 170
-44.8854 -38.4009 -43.5063 0.656 0.706 -0.264 185 184 190
-46.5963 -34.9000 -43.3626 0.767 0.465 -0.442 140 137 147
-46.3407 -31.7974 -42.5130 0.513 -0.083 0.855 106 95 99
-45.9327 -30.6525 -42.0716 0.137 0.211 0.968 108 97 103
-49.2041 -28.5004 -42.8882 -0.050 0.183 0.982 105 91 108
-50.1292 -28.5903 -43.2870 0.724 0.546 0.421 110 96 113
-50.3819 -28.4337 -43.3524 -0.088 -0.111 0.990 117 103 120
-51.6763 -27.3982 -43.6313 -0.280 0.300 0.912 153 143 152
-64.5990 -28.6963 -49.2115 -0.052 0.667 0.743 133 123 132
-64.9264 -28.5171 -49.3019 -0.062 0.675 0.735 136 124 134
-65.0720 -22.5192 -47.9202 0.253 0.719 0.648 139 134 138
-65.4678 -22.3468 -48.0402 0.345 0.300 0.890 139 134 138
-66.1659 -21.1669 -48.0413 0.263 -0.040 0.964 128 119 124
-65.5148 -20.2195 -47.5482 0.394 0.051 0.918 136 127 132
-66.2450 -19.8476 -47.7565 0.244 0.440 0.864 150 141 146
-70.7518 -20.5427 -49.7609 0.464 -0.757 0.460 151 142 147
-70.9452 -20.3061 -49.7829 0.549 -0.727 0.413 149 140 145
-66.9789 -13.2055 -46.4599 0.122 0.022 0.992 49 68 40
-66.1034 -11.0675 -45.5893 0.598 0.516 0.614 64 84 47
-66.1251 -10.8213 -45.5390 0.601 0.532 0.597 64 85 46
-71.1868 -10.1565 -47.4428 0.982 0.103 -0.157 71 92 53
-68.4044 -9.0874 -46.0516 -0.013 -0.177 0.984 70 91 50
-68.6914 -8.8667 -46.1156 -0.093 -0.115 0.989 70 91 50
-65.0991 -7.0510 -44.2148 0.296 0.716 0.632 53 75 36
-97.8584 12.6880 -52.8277 0.654 0.430 0.622 97 94 105
-61.6526 10.8666 -38.5048 -0.009 0.716 0.698 98 95 104
-16.2097 8.1420 -20.6332 0.683 0.534 -0.499 74 85 66
-74.0484 16.4961 -42.2058 -0.001 0.599 0.801 76 91 52
-76.0271 17.4327 -42.7874 -0.041 0.211 0.977 67 89 43
-93.0560 41.0167 -44.0635 0.400 -0.103 0.911 38 60 22
-92.7046 41.3476 -43.8407 0.472 -0.111 0.875 37 62 23
-38.6217 -96.1523 -55.1242 0.047 0.044 0.998 27 32 51
-43.1088 -89.6890 -55.4058 0.364 0.903 0.229 110 114 116
-44.9491 -87.7122 -55.6840 0.249 0.098 0.963 129 133 136
-45.0142 -87.4128 -55.6385 0.254 0.027 0.967 137 141 144
-45.1397 -87.1819 -55.6343 0.248 0.029 0.968 139 143 146
-45.1902 -86.8665 -55.5789 0.249 0.024 0.968 141 145 148
-39.1789 -79.4215 -51.3155 0.959 0.030 -0.282 148 152 155
-39.1474 -79.0451 -51.2117 0.965 0.000 -0.260 142 146 149
-39.7035 -79.3196 -51.5062 0.527 0.591 0.611 133 136 141
-47.4043 -77.9567 -54.3373 0.099 -0.198 0.975 126 125 134
-47.4306 -77.6293 -54.2692 0.093 -0.196 0.976 126 124 132
-47.4975 -76.6393 -54.0577 0.028 0.205 0.978 121 122 115
-47.8216 -76.2504 -54.0968 0.022 0.163 0.986 119 123 109
-47.8852 -69.8046 -52.5675 0.636 -0.456 0.622 79 75 76
-46.6363 -68.0509 -51.6318 0.433 -0.322 0.842 75 71 72
-46.1766 -60.0449 -49.5112 0.951 -0.104 -0.292 93 95 89
-44.3991 -44.9775 -45.1458 0.729 0.488 0.480 136 136 144
-44.4493 -44.7376 -45.1085 0.747 0.445 0.495 142 142 150
-44.3679 -44.4200 -44.9984 0.792 0.174 0.586 147 147 155
-45.0442 -38.7378 -43.9047 0.594 0.794 -0.127 155 154 160
-45.2552 -38.5881 -43.9552 0.594 0.794 -0.127 190 189 195
-45.4670 -38.4378 -44.0059 0.594 0.794 -0.127 182 179 186
-59.9479 -43.0689 -51.0657 0.810 0.397 -0.431 114 94 93
-46.8019 -34.9858 -43.7206 0.764 0.467 -0.444 140 136 146
-54.6830 -37.1973 -47.4883 0.907 -0.420 0.018 120 111 116
-45.4817 -30.9394 -42.2024 0.741 -0.145 0.656 108 97 101
-48.7703 -29.0588 -43.0981 -0.277 0.232 0.933 67 53 70
-49.2182 -28.2416 -43.0847 -0.140 0.279 0.950 109 95 112
-63.1062 -28.7586 -48.9085 0.212 0.153 0.965 130 120 129
-64.2217 -28.5506 -49.3160 -0.052 0.667 0.743 143 133 142
-65.0260 -28.2375 -49.5705 0.520 -0.383 0.764 137 125 135
-64.6017 -23.1727 -48.1742 0.111 0.397 0.911 149 144 148
-64.9647 -22.7250 -48.2151 0.153 0.494 0.856 139 134 138
-65.1114 -22.4920 -48.2191 0.215 0.203 0.955 139 134 138
-65.3376 -22.2779 -48.2602 0.244 0.204 0.948 139 134 138
-66.1381 -21.6600 -48.4396 -0.141 0.527 0.838 143 134 139
-65.4763 -20.9699 -48.0015 0.532 -0.333 0.779 137 128 133
-66.0451 -19.7638 -47.9438 0.242 0.413 0.878 138 129 134
-66.3753 -19.5684 -48.0322 0.410 0.265 0.873 137 128 133
-65.4936 -12.9372 -46.0702 -0.200 0.090 0.976 44 63 35
-65.0073 -12.3655 -45.7327 0.057 0.175 0.983 41 57 28
-65.1082 -11.8814 -45.6573 0.377 0.490 0.786 55 74 45
-65.8342 -11.4810 -45.8585 0.573 0.453 0.683 67 84 52
-65.9826 -10.7527 -45.7437 0.601 0.532 0.597 64 84 47
-69.8249 -9.9483 -47.1263 0.870 0.421 -0.257 71 91 54
-68.4372 -9.5398 -46.4583 0.962 -0.078 -0.262 71 91 53
-95.5264 12.5852 -52.2354 0.253 0.607 0.753 102 99 110
-61.7592 11.1458 -38.7262 -0.095 0.564 0.820 108 105 114
-74.0031 16.3531 -42.4939 -0.036 0.217 0.976 76 90 54
-92.6295 40.9963 -44.1906 0.407 -0.097 0.908 46 71 32
-92.7135 41.2428 -44.1655 0.402 -0.080 0.912 44 69 30
-92.4536 41.3810 -44.0255 0.455 -0.119 0.883 41 66 27
-42.3364 -93.0163 -56.1954 0.086 0.511 0.855 112 117 116
-42.6759 -92.6713 -56.2520 0.120 0.482 0.868 109 113 111
-42.3618 -91.9015 -55.9357 0.853 0.169 0.493 109 113 113
-42.1442 -90.1230 -55.4148 0.848 0.256 0.465 114 118 119
-42.1956 -89.8100 -55.3601 0.811 0.093 0.578 106 110 111
-42.4908 -89.7907 -55.4774 0.458 0.870 0.186 98 102 103
-42.7011 -89.6679 -55.5345 0.458 0.870 0.186 91 95 96
-42.9089 -89.5409 -55.5895 0.413 0.884 0.219 88 92 94
-44.3579 -89.3697 -56.1465 0.996 0.084 0.038 96 100 103
-45.2358 -90.0143 -56.6654 0.757 -0.473 0.451 108 112 115
-44.8556 -89.1934 -56.3094 0.555 -0.379 0.740 133 137 140
-44.7293 -88.6702 -56.1304 0.553 -0.371 0.746 137 141 144
-44.4825 -87.6370 -55.7781 0.560 -0.345 0.754 149 153 156
-44.6958 -87.1346 -55.7444 0.138 -0.002 0.990 140 144 147
-44.6283 -86.6864 -55.6078 0.199 -0.069 0.978 137 141 144
-44.6587 -86.3502 -55.5389 0.113 -0.019 0.993 138 142 145
-46.4624 -78.4989 -54.3810 -0.035 -0.146 0.989 130 130 128
-47.3235 -75.4830 -54.0057 -0.027 -0.178 0.984 112 118 108
-48.2211 -72.1805 -53.5760 0.058 -0.176 0.983 125 125 123
-48.2456 -71.1814 -53.3439 0.039 -0.175 0.984 112 111 109
-48.1859 -70.7896 -53.2243 0.509 -0.473 0.719 97 96 94
-44.2576 -64.7565 -50.1396 0.473 -0.399 0.786 71 67 68
-47.9296 -63.6596 -51.3904 -0.032 0.063 0.997 70 72 61
-46.4520 -61.5336 -50.2648 0.885 -0.438 -0.158 80 82 72
-46.3974 -60.5567 -50.0055 0.950 -0.153 -0.271 81 83 73
-52.7380 -64.8251 -53.6589 0.714 -0.696 -0.073 88 92 81
-56.6564 -61.7046 -54.5211 0.519 0.839 -0.162 134 136 136
-56.6113 -61.3394 -54.4139 0.515 0.841 -0.167 134 135 137
-44.3119 -44.1256 -45.1616 0.792 0.174 0.586 150 148 159
-45.7856 -38.3380 -44.3676 0.591 0.797 -0.122 174 171 179
-59.9029 -43.0407 -51.3384 0.569 -0.327 0.754 114 94 92
-50.4383 -26.6873 -43.4655 -0.150 0.215 0.965 158 148 159
-62.5528 -28.8326 -48.9892 0.269 -0.088 0.959 101 91 100
-63.5030 -28.2995 -49.2525 0.111 0.791 0.602 134 124 133
-64.4506 -22.5612 -48.2531 0.275 0.750 0.602 139 134 138
-65.1819 -20.5973 -48.0792 0.364 -0.130 0.922 133 124 129
-65.4416 -20.1236 -48.0716 0.352 -0.142 0.925 134 125 130
-65.5723 -19.8866 -48.0681 0.251 0.406 0.879 132 123 128
-66.0683 -19.7280 -48.2345 0.187 0.461 0.868 128 119 124
-64.7678 -17.3616 -47.1238 -0.101 -0.374 0.922 102 96 100
-63.4612 -15.5848 -46.1535 0.172 -0.197 0.965 137 132 137
-64.9463 -12.3084 -45.9728 0.032 0.233 0.972 43 58 30
-65.0418 -12.0724 -45.9551 0.040 0.219 0.975 53 69 40
-65.0202 -11.8203 -45.8851 0.435 0.483 0.760 62 78 52
-65.9806 -10.7016 -46.0106 0.599 0.539 0.591 64 84 50
-66.1732 -10.4765 -46.0356 0.293 0.146 0.945 63 83 49
-66.6292 -9.7841 -46.0561 0.311 0.187 0.932 65 84 51
-66.6905 -9.5426 -46.0229 0.314 0.181 0.932 64 84 50
-67.6826 -8.1574 -46.0969 -0.244 0.163 0.956 56 71 38
-89.3601 38.7927 -43.6712 0.044 0.310 0.950 65 87 49
-88.4179 38.7235 -43.2988 -0.084 0.214 0.973 64 86 50
-88.3334 38.9124 -43.2181 -0.071 0.391 0.918 60 84 48
-92.8598 40.9593 -44.5916 0.451 0.617 0.644 53 77 41
-92.2498 40.9899 -44.3322 0.402 -0.087 0.911 49 73 37
-92.4539 41.2737 -44.3477 0.406 -0.096 0.909 46 70 34
-92.1375 41.3935 -44.1880 0.439 -0.087 0.894 45 69 33
-35.5707 -99.8523 -55.3513 0.977 -0.207 -0.042 9 14 35
-42.2395 -91.4663 -56.0823 0.811 0.049 0.584 103 107 106
-42.0750 -90.1316 -55.6890 0.895 0.081 0.439 106 110 111
-42.0832 -89.7660 -55.6034 0.892 0.103 0.441 97 101 104
-42.4054 -89.7795 -55.7406 0.458 0.870 0.186 86 90 93
-42.6859 -89.7406 -55.8478 0.360 0.904 0.232 75 79 83
-44.4943 -88.8615 -56.3856 0.447 -0.378 0.810 116 120 123
-44.3757 -88.3480 -56.2112 0.447 -0.378 0.810 118 122 125
-44.2610 -87.8411 -56.0402 0.554 -0.362 0.750 118 122 125
-44.1596 -87.3516 -55.8789 0.554 -0.362 0.750 119 123 126
-44.0588 -86.8646 -55.7184 0.554 -0.362 0.750 120 124 127
-44.3045 -86.7732 -55.7983 0.138 -0.002 0.990 120 124 127
-44.3279 -86.4290 -55.7243 0.159 -0.024 0.987 121 125 128
-44.2605 -85.9832 -55.5877 0.179 -0.034 0.983 122 126 129
-45.4552 -83.6297 -55.5114 -0.050 -0.303 0.952 146 147 151
-44.8957 -77.6882 -53.8325 0.539 0.837 0.095 123 124 119
-45.9789 -76.6763 -54.0365 -0.062 -0.299 0.952 118 119 115
-46.0013 -76.0025 -53.8818 -0.054 -0.292 0.955 110 111 106
-46.0938 -75.7458 -53.8577 -0.136 -0.128 0.982 105 106 100
-47.5534 -72.3076 -53.6276 -0.082 -0.061 0.995 120 120 118
-47.7134 -70.7555 -53.3162 0.116 -0.288 0.950 126 125 123
-47.0950 -67.8789 -52.3589 0.543 -0.218 0.811 101 95 97
-47.2176 -66.9986 -52.1956 0.342 -0.273 0.899 87 81 83
-48.6085 -63.9164 -52.0235 0.838 0.337 0.430 64 66 53
-45.7946 -58.2817 -49.4821 0.928 -0.296 -0.225 83 87 72
-46.0801 -57.2825 -49.3575 0.359 0.910 0.206 80 83 73
-45.7249 -56.1197 -48.9268 0.966 0.123 -0.228 110 113 105
-45.6526 -55.7686 -48.8112 0.965 0.119 -0.232 107 110 102
-45.5850 -45.9796 -46.4002 0.629 0.399 0.668 129 127 138
-45.1001 -45.4139 -46.0609 0.743 0.532 0.405 132 130 141
-45.6576 -39.3112 -44.8071 0.507 0.857 -0.094 133 132 137
-46.5028 -38.9592 -45.0728 0.611 0.783 -0.119 184 181 188
-59.9642 -43.9681 -51.8884 0.075 -0.366 0.928 168 163 170
-48.4995 -27.4577 -43.1031 0.113 -0.042 0.993 129 117 133
-48.9857 -26.4163 -43.0517 0.879 0.265 0.397 154 144 156
-63.4806 -27.9862 -49.4597 0.111 0.777 0.620 134 122 132
-65.5669 -26.9356 -50.0713 0.325 0.124 0.938 156 144 154
-64.9446 -20.2391 -48.1825 0.541 0.142 0.829 133 124 127
-65.0874 -20.0056 -48.1850 0.344 -0.138 0.929 132 123 126
-65.1712 -19.7590 -48.1598 0.153 0.108 0.982 128 119 122
-65.2523 -19.5119 -48.1334 0.149 0.114 0.982 121 112 115
-64.5176 -18.3083 -47.5349 -0.097 -0.213 0.972 119 110 113
-63.9274 -17.1563 -47.0091 -0.030 -0.453 0.891 90 84 88
-62.9739 -15.7060 -46.2597 0.088 -0.318 0.944 150 145 151
-63.4180 -14.5265 -46.1572 -0.048 -0.079 0.996 124 132 119
-65.6706 -13.3731 -46.8129 0.108 0.209 0.972 57 68 47
-64.1192 -11.8951 -45.8081 0.291 0.923 0.253 62 77 49
-64.7888 -11.7395 -46.0487 0.285 0.924 0.256 74 90 64
-68.0648 -3.4870 -45.4017 0.531 0.579 0.618 61 80 48
-68.6331 -3.2743 -45.5861 0.561 0.591 0.580 63 80 48
-69.2550 -3.0618 -45.7929 0.648 0.271 0.712 57 74 42
-15.7567 5.9329 -21.3627 0.758 -0.141 -0.637 105 102 113
-58.6742 10.7809 -38.0245 -0.077 0.659 0.748 111 108 119
-65.1660 12.2470 -40.3664 -0.028 0.805 0.593 124 121 128
-67.6037 12.9290 -41.2138 -0.001 0.877 0.480 130 127 134
-84.0549 33.2911 -43.0962 0.722 -0.565 0.399 43 63 26
-87.8160 38.6483 -43.3557 -0.131 0.054 0.990 64 86 50
-88.2413 39.2064 -43.3967 -0.078 0.327 0.942 63 87 51
-90.7436 40.6304 -44.0903 0.850 0.089 0.519 54 78 42
-95.6854 42.6290 -45.6582 -0.176 0.341 0.923 49 73 37
-42.0660 -101.1701 -58.6856 -0.059 -0.043 0.997 40 43 62
-40.3548 -98.0505 -57.2069 0.278 -0.534 0.799 48 51 68
-42.7269 -100.0332 -58.6842 0.341 -0.585 0.735 29 31 52
