ply
format ascii 1.0
element vertex 876
property float x
property float y
property float z
property float nx
property float ny
property float nz
property uchar diffuse_red
property uchar diffuse_green
property uchar diffuse_blue
end_header
43.0968 12.6594 -42.1953 -0.675 -0.544 0.498 111 109 114
43.0256 12.4642 -42.2030 -0.685 -0.532 0.497 111 109 114
43.1306 11.6408 -42.4966 -0.678 -0.241 0.695 71 70 75
42.0228 9.9138 -42.2567 0.059 -0.561 0.826 59 61 58
42.5282 9.7239 -42.6344 -0.133 0.185 0.974 59 61 56
42.4980 9.5417 -42.6649 -0.126 0.193 0.973 58 60 55
42.0952 8.2092 -42.7710 -0.181 0.208 0.961 52 52 50
41.9607 7.9974 -42.7425 -0.139 0.252 0.958 51 49 49
42.4398 0.4105 -45.1330 -0.454 -0.096 0.886 40 38 41
42.3025 0.0172 -45.1525 -0.928 0.372 0.033 42 40 42
41.5975 -1.2064 -45.0340 -0.685 0.061 0.726 42 42 43
41.6990 -1.3751 -45.1456 -0.698 0.241 0.674 42 42 43
40.3546 -6.7564 -45.7560 -0.977 0.053 0.207 44 47 40
33.2607 -30.8342 -47.7919 -0.258 0.715 0.650 42 61 29
27.5777 -57.1870 -51.3612 0.122 0.645 0.755 77 78 80
27.0976 -57.0513 -51.0146 0.177 0.563 0.808 77 78 81
26.7932 -57.0453 -50.8168 0.172 0.575 0.800 76 77 79
26.3819 -56.9560 -50.5273 0.179 0.544 0.820 76 77 79
30.3278 -62.8386 -54.6839 -0.019 0.682 0.731 96 96 98
28.7044 -61.9995 -53.4077 -0.434 0.360 0.826 96 96 98
24.6065 -59.7639 -50.1538 0.283 -0.378 0.882 94 93 97
35.1610 -70.1724 -59.8104 -0.097 -0.692 0.715 79 80 84
53.8597 37.9764 -42.4345 -0.416 0.771 0.483 122 118 119
53.6816 37.7006 -42.3950 -0.337 0.547 0.767 135 131 132
53.4102 37.3702 -42.3101 -0.356 0.541 0.762 148 144 145
52.9106 36.7375 -42.1607 -0.254 0.196 0.947 158 154 155
52.6390 36.4096 -42.0750 -0.278 0.200 0.939 155 151 152
52.4605 36.1367 -42.0345 -0.344 0.322 0.882 154 150 151
54.2995 35.8212 -43.3126 -0.346 0.823 0.450 143 141 144
53.4605 34.1355 -43.2330 -0.689 -0.725 0.015 137 135 138
54.5172 34.3662 -43.8541 -0.727 0.654 -0.209 137 135 138
53.8765 33.8404 -43.5837 -0.709 0.676 -0.201 138 136 139
53.0249 33.0288 -43.2555 -0.681 0.684 -0.262 123 123 125
47.5240 25.4259 -41.7847 -0.536 -0.460 0.708 110 111 115
47.4836 25.2385 -41.8101 -0.593 -0.438 0.675 110 111 115
49.3453 25.9613 -42.8172 -0.637 0.544 0.546 110 111 115
48.9159 25.4128 -42.6899 -0.624 0.634 0.457 110 111 115
49.8738 25.6933 -43.2332 -0.873 0.482 0.067 115 116 120
49.1881 24.6781 -43.0685 -0.943 0.324 0.081 115 116 120
49.0613 24.4462 -43.0502 -0.911 0.411 -0.031 115 116 120
48.8587 24.0067 -43.0399 -0.931 0.363 -0.035 106 105 111
43.6875 14.8320 -42.2154 -0.994 0.111 0.006 121 120 126
43.5810 14.6228 -42.2039 -0.993 0.121 -0.008 116 115 121
43.5594 14.4447 -42.2390 -0.993 0.121 -0.008 112 111 117
43.3128 14.1855 -42.1506 -0.785 0.478 0.393 108 105 112
43.2094 13.9784 -42.1407 -0.841 0.415 0.347 100 98 103
43.2117 13.8091 -42.1887 -0.828 0.392 0.400 101 99 104
43.0630 13.5863 -42.1538 -0.860 0.343 0.379 103 101 106
42.8647 13.3465 -42.0913 -0.985 0.116 0.131 105 103 108
42.8219 13.1616 -42.1144 -0.979 0.116 0.170 105 103 108
42.7929 12.8113 -42.1920 -0.831 -0.278 0.482 91 89 94
43.0561 12.7309 -42.3847 -0.677 -0.549 0.490 92 90 95
42.9227 12.5144 -42.3579 -0.684 -0.538 0.492 93 91 96
42.9725 12.3600 -42.4326 -0.684 -0.535 0.496 94 92 97
43.1907 12.0895 -42.6484 -0.573 -0.084 0.816 58 59 61
42.9834 11.6766 -42.6278 -0.678 -0.241 0.695 50 51 53
42.1026 10.8763 -42.2775 -0.148 0.599 0.787 45 46 48
40.9220 -2.1652 -45.1022 -0.438 0.228 0.870 48 46 48
40.7390 -2.3757 -45.0416 -0.963 0.259 -0.081 49 47 49
40.2722 -6.7063 -45.9311 -0.983 0.080 0.168 49 52 45
39.8455 -8.8147 -46.2350 -0.030 -0.712 0.701 38 47 30
27.7886 -57.3878 -51.7939 0.051 0.374 0.926 80 81 85
26.8688 -57.1455 -51.1314 0.153 0.638 0.755 80 81 85
23.6309 -59.2180 -49.6045 0.365 -0.223 0.904 103 104 108
55.2046 39.0727 -43.2596 -0.390 0.805 0.447 123 119 120
53.7099 38.0099 -42.5797 -0.408 0.768 0.494 127 123 124
53.1818 37.5263 -42.3693 -0.198 0.510 0.837 134 130 131
52.8336 37.1510 -42.2462 -0.256 0.484 0.837 141 137 138
52.4683 36.7667 -42.1144 -0.229 0.186 0.956 142 138 139
52.3395 36.5226 -42.0979 -0.229 0.186 0.956 143 139 140
52.2855 36.3227 -42.1179 -0.274 0.201 0.940 144 140 141
52.0637 36.0249 -42.0557 -0.269 0.264 0.926 143 139 140
50.7022 34.0686 -41.7091 -0.829 0.560 0.007 146 144 147
49.8777 33.4342 -41.3474 -0.513 0.766 0.387 139 137 140
49.9163 33.2907 -41.4121 -0.419 0.741 0.525 132 130 133
48.1483 31.4798 -40.7607 -0.921 -0.322 0.221 133 131 134
46.9471 25.5840 -41.6062 -0.940 -0.331 0.087 106 105 110
47.9937 25.7573 -42.2399 -0.829 -0.057 0.556 116 117 121
48.1554 25.6661 -42.3704 -0.672 -0.340 0.658 116 117 121
49.6723 26.2242 -43.2041 -0.758 0.548 0.354 116 117 121
48.3394 25.2437 -42.6068 -0.590 -0.460 0.663 116 117 121
48.4045 25.1038 -42.6879 -0.587 -0.463 0.664 120 121 125
49.5600 24.9553 -43.4813 -0.870 0.484 -0.094 119 120 124
49.4425 24.7266 -43.4679 -0.868 0.489 -0.089 119 120 124
44.7669 18.9030 -42.0309 0.173 0.093 0.980 120 118 123
44.6712 18.5261 -42.0726 -0.002 0.235 0.972 117 115 120
43.5739 16.5706 -41.8979 -0.939 -0.071 0.338 114 111 118
43.3428 16.3127 -41.8186 -0.957 -0.111 0.268 114 111 118
43.5311 14.6929 -42.3884 -0.944 0.080 0.320 103 102 110
43.4588 14.4962 -42.3957 -0.953 0.061 0.297 99 96 103
43.2631 14.2551 -42.3348 -0.785 0.478 0.393 97 94 101
43.1983 14.0616 -42.3460 -0.832 0.424 0.358 85 83 88
43.1850 13.8866 -42.3857 -0.833 0.387 0.396 84 82 87
43.0865 13.6812 -42.3782 -0.857 0.354 0.374 84 79 83
42.8474 13.4266 -42.2928 -0.985 0.116 0.131 80 75 79
42.8218 13.2475 -42.3256 -0.985 0.116 0.131 79 74 78
42.7184 12.8711 -42.3621 -0.831 -0.318 0.456 69 64 68
42.9234 12.7709 -42.5233 -0.677 -0.549 0.490 69 64 68
42.8679 12.5809 -42.5396 -0.711 -0.532 0.460 70 65 69
42.5743 11.6261 -42.6120 -0.752 -0.412 0.514 37 38 40
40.9789 -2.2771 -45.4115 -0.860 -0.111 0.498 40 40 36
40.2287 -5.9014 -45.9235 -0.593 -0.550 0.589 53 54 49
40.3004 -6.0822 -46.0201 -0.593 -0.550 0.589 53 54 49
33.6285 -30.9092 -48.5294 -0.266 0.831 0.488 41 60 28
25.7155 -53.2603 -49.5471 -0.792 0.121 0.599 58 64 50
24.8152 -58.7025 -50.4633 -0.925 -0.353 0.140 106 107 112
55.2144 39.2037 -43.4865 -0.383 0.807 0.450 131 127 128
52.1560 36.7027 -42.1768 -0.229 0.186 0.956 124 120 121
52.0277 36.4592 -42.1603 -0.229 0.186 0.956 113 109 110
51.8766 36.2026 -42.1324 -0.278 0.221 0.935 119 115 116
51.7435 35.9570 -42.1133 -0.272 0.278 0.921 126 122 123
51.8061 35.8258 -42.1906 -0.873 0.432 0.227 133 129 130
51.3244 35.2107 -42.0455 -0.936 0.351 0.027 142 140 141
50.8749 34.2833 -42.0081 -0.831 0.557 0.011 141 139 144
50.5400 33.9256 -41.8879 -0.505 0.724 0.469 134 132 135
50.2553 33.5974 -41.7924 -0.515 0.725 0.457 127 125 128
50.1545 33.3741 -41.7883 -0.524 0.691 0.497 120 118 121
48.0723 31.3859 -40.9756 -0.931 -0.296 0.214 127 125 128
48.0605 31.2163 -41.0149 -0.933 -0.298 0.202 127 125 128
46.9011 25.6655 -41.7931 -0.940 -0.331 0.087 101 101 103
48.0957 26.0812 -42.4600 -0.693 -0.100 0.714 116 117 119
44.2221 18.6031 -41.9949 -0.036 0.146 0.989 109 107 112
43.8313 17.0997 -42.1554 -0.841 -0.082 0.534 107 104 111
43.2850 16.3805 -41.9969 -0.957 -0.111 0.268 111 110 116
43.4906 15.4466 -42.3902 0.164 -0.055 0.985 106 105 111
43.3071 15.2084 -42.3360 0.212 -0.189 0.959 97 96 102
43.0975 14.6223 -42.3611 -0.988 -0.141 0.062 81 80 86
43.1429 14.1291 -42.5274 -0.789 0.460 0.406 67 65 70
43.1301 13.9541 -42.5674 -0.833 0.387 0.396 64 62 67
43.0428 13.7526 -42.5661 -0.859 0.360 0.365 58 56 61
42.7907 12.8109 -42.6618 -0.677 -0.549 0.490 51 49 54
42.8041 12.6445 -42.7167 -0.685 -0.558 0.468 51 49 54
43.2043 11.5714 -43.2759 -0.679 -0.502 0.535 33 34 36
24.6333 -58.6028 -50.5509 -0.515 -0.239 0.823 112 111 116
24.2373 -58.7215 -50.3246 0.339 -0.259 0.904 110 111 115
52.8728 37.7552 -42.6053 -0.210 0.550 0.809 133 131 132
51.8160 36.6217 -42.2246 -0.231 0.182 0.956 116 114 115
51.6901 36.3800 -42.2089 -0.231 0.182 0.956 99 97 98
51.6177 36.1700 -42.2196 -0.287 0.215 0.933 104 102 103
51.4514 35.9051 -42.1837 -0.272 0.278 0.921 114 112 113
51.8097 35.9470 -42.4079 -0.873 0.432 0.227 125 123 124
51.3720 35.3565 -42.2838 -0.936 0.351 0.027 148 146 147
51.2283 35.1057 -42.2589 -0.942 0.330 -0.069 154 152 155
50.0393 33.4242 -41.9435 -0.240 0.618 0.749 118 116 120
49.7975 33.1215 -41.8685 -0.207 0.468 0.859 113 111 116
47.9386 31.7486 -41.0263 -0.961 -0.248 0.122 123 121 126
47.2867 31.0608 -40.7884 -0.887 0.407 -0.220 123 121 126
44.3231 18.9071 -42.2139 -0.068 0.296 0.953 108 106 111
44.3151 18.7357 -42.2563 -0.080 0.264 0.961 103 101 106
43.8296 17.0220 -42.4127 -0.669 -0.349 0.656 120 117 124
43.7989 16.8409 -42.4428 -0.707 -0.317 0.633 115 112 119
43.6134 16.5993 -42.3878 -0.120 0.225 0.967 110 109 115
42.8885 15.4775 -42.2224 0.169 -0.054 0.984 70 69 75
42.7955 15.2741 -42.2177 0.169 -0.054 0.984 63 62 68
42.3239 14.0895 -42.2363 -0.128 0.366 0.922 52 49 56
43.0578 13.6742 -42.8347 -0.875 0.288 0.389 51 49 54
42.9895 13.4792 -42.8439 -0.875 0.288 0.389 51 49 54
42.7588 12.5431 -42.9521 -0.703 0.187 0.686 52 50 55
42.6957 12.3502 -42.9642 -0.703 0.187 0.686 46 46 48
42.8704 12.0649 -43.1584 -0.966 0.228 0.122 40 41 43
43.1913 11.8253 -43.4361 -0.795 -0.548 0.259 38 39 41
51.5077 36.5590 -42.2870 -0.231 0.182 0.956 121 121 123
51.3825 36.3179 -42.2713 -0.231 0.182 0.956 112 112 114
51.2102 36.0494 -42.2322 -0.269 0.219 0.938 114 114 116
51.0782 35.8050 -42.2130 -0.269 0.219 0.938 117 117 119
51.0759 35.6369 -42.2583 -0.459 0.443 0.770 122 122 124
51.5691 35.7578 -42.5509 -0.882 0.361 0.302 125 125 127
51.4992 35.5490 -42.5628 -0.944 0.328 0.036 130 128 131
51.3795 35.3115 -42.5498 -0.934 0.350 -0.069 133 131 134
51.2882 35.0906 -42.5509 -0.961 0.237 -0.139 118 116 121
49.9719 33.6676 -42.0765 -0.321 0.677 0.662 114 112 118
49.3685 33.1591 -41.8190 -0.250 0.660 0.708 114 112 117
47.8230 31.4703 -41.2670 -0.995 -0.077 -0.060 114 111 118
47.7768 31.2816 -41.2890 -0.965 0.258 0.042 114 111 118
47.5921 30.8535 -41.2860 -0.965 0.260 0.038 115 112 118
47.7241 30.5993 -41.4442 -0.979 0.198 0.041 116 115 120
46.6604 25.2553 -42.2294 -0.392 -0.263 0.882 116 117 121
44.1323 19.0894 -42.2747 0.030 -0.065 0.997 107 105 110
43.9029 18.8258 -42.1964 -0.083 0.146 0.986 103 101 106
44.0442 18.7172 -42.3201 -0.088 0.270 0.959 98 96 101
43.3191 18.0826 -42.0172 -0.992 -0.062 -0.107 114 111 118
43.3312 17.9209 -42.0703 -0.979 -0.129 -0.156 116 113 120
43.6437 17.5455 -42.3817 -0.484 -0.428 0.763 115 112 119
43.6775 17.3908 -42.4471 -0.484 -0.428 0.763 115 112 119
43.6362 17.2059 -42.4713 -0.142 -0.159 0.977 114 111 118
43.6105 17.0271 -42.5041 -0.142 -0.159 0.977 107 104 111
41.4930 13.2052 -42.1680 0.271 0.047 0.961 51 49 54
42.9726 12.7018 -43.2872 -0.919 0.028 0.394 53 51 56
42.7533 12.4550 -43.2109 -0.840 0.167 0.516 46 46 48
43.2563 12.4526 -43.5444 -0.913 0.100 0.395 39 39 41
50.3522 36.8131 -41.6962 -0.964 -0.244 0.110 139 139 141
50.5103 36.4155 -41.9125 -0.880 -0.300 0.367 130 130 132
50.7706 36.4061 -42.0883 -0.795 -0.337 0.505 128 128 130
51.3262 35.9027 -42.5985 -0.697 -0.527 0.487 121 121 123
51.3197 35.7312 -42.6421 -0.734 -0.441 0.517 124 124 126
51.0527 34.7369 -42.7425 -0.608 0.488 0.626 113 110 119
50.2226 34.0932 -42.3702 -0.261 0.532 0.805 113 110 119
49.7308 33.6458 -42.1681 -0.327 0.684 0.653 113 110 117
49.2773 33.2220 -41.9849 -0.253 0.671 0.697 113 110 117
49.0927 32.9522 -41.9376 -0.250 0.631 0.734 113 110 119
47.9967 31.1878 -41.7017 -0.923 -0.273 0.270 110 107 116
48.0234 31.0385 -41.7612 -0.923 -0.273 0.270 110 107 114
47.9635 30.8413 -41.7765 -0.939 -0.253 0.231 107 104 111
44.6233 20.9029 -42.3325 0.054 0.109 0.993 118 117 123
44.4729 20.6696 -42.2976 0.072 0.134 0.988 116 115 121
44.3476 20.4478 -42.2762 0.045 0.175 0.984 115 114 120
44.2367 20.2326 -42.2627 0.043 0.160 0.986 114 113 119
42.9565 18.6880 -41.8428 -0.994 -0.008 0.113 102 100 105
43.2830 18.3273 -42.1608 -0.995 -0.045 -0.086 91 89 94
43.2960 18.1660 -42.2145 -0.995 -0.049 -0.082 93 90 97
43.3319 18.0140 -42.2809 -0.964 -0.223 -0.142 94 91 98
43.4349 17.8890 -42.3844 -0.828 -0.544 -0.136 96 93 100
43.4367 17.7222 -42.4322 -0.829 -0.541 -0.142 97 94 101
43.4743 17.5696 -42.4998 -0.916 -0.273 -0.294 98 95 102
43.4908 17.4082 -42.5559 -0.484 -0.428 0.763 93 90 97
43.3280 17.1748 -42.5128 -0.163 -0.119 0.979 79 76 83
39.9165 13.0565 -41.3947 0.336 0.140 0.931 50 49 54
26.3801 -55.2018 -51.4686 -0.988 0.065 0.142 54 58 43
29.6226 -58.0426 -54.4194 -0.631 -0.483 0.607 63 66 57
50.2049 37.1705 -41.7430 -0.422 0.313 0.851 143 143 143
50.0024 36.8839 -41.6880 -0.678 0.081 0.730 142 142 144
49.8134 36.6060 -41.6395 -0.658 0.065 0.750 139 140 142
49.7723 36.2550 -41.7104 -0.948 -0.181 0.260 132 133 137
50.0529 36.2602 -41.8966 -0.858 -0.270 0.437 129 130 132
51.1884 35.7736 -42.7922 -0.734 -0.441 0.517 120 121 123
47.7326 31.1534 -41.7768 -0.771 -0.514 0.376 110 107 116
47.6199 30.9275 -41.7647 -0.768 -0.519 0.376 110 107 116
44.4421 21.4197 -42.3055 0.075 -0.220 0.973 112 113 118
42.9336 18.7719 -42.0391 -0.994 -0.008 0.113 84 83 89
43.2939 18.2584 -42.4240 -0.992 -0.020 -0.121 50 49 54
43.2919 18.0905 -42.4696 -0.910 -0.276 -0.309 47 46 51
43.3629 17.9524 -42.5559 -0.910 -0.276 -0.309 52 51 56
43.5170 17.6796 -42.7354 -0.916 -0.273 -0.294 58 57 62
43.5041 17.5060 -42.7754 -0.971 -0.178 -0.159 61 60 65
42.2166 15.9902 -42.3395 -0.053 0.288 0.956 64 63 68
41.9920 15.4030 -42.3539 -0.263 0.683 0.681 65 64 69
41.6761 15.1158 -42.2232 -0.220 0.731 0.646 66 65 70
29.9043 -58.0572 -54.8661 -0.824 -0.269 0.498 51 57 45
34.4964 -65.0344 -59.8927 0.257 0.611 0.749 86 85 91
22.9535 -56.5592 -49.7984 -0.523 0.691 0.499 80 79 84
23.1009 -56.8938 -49.9907 -0.206 0.230 0.951 84 83 88
49.9844 37.1557 -41.8445 -0.507 0.282 0.814 144 144 144
49.7876 36.8725 -41.7918 -0.854 0.205 0.478 142 142 144
49.7305 36.6749 -41.8091 -0.854 0.205 0.478 140 140 142
49.7160 36.5031 -41.8476 -0.972 -0.078 0.222 136 137 139
49.6429 36.2957 -41.8568 -0.967 -0.093 0.238 132 133 137
49.4943 36.0431 -41.8280 -0.977 -0.045 0.211 130 130 132
46.8273 26.1529 -42.8165 -0.919 -0.233 0.319 107 106 114
46.6072 25.5420 -42.8404 -0.685 -0.084 0.724 121 121 129
43.5052 20.2709 -42.2375 0.182 0.109 0.977 86 87 92
42.9107 18.8561 -42.2358 -0.994 -0.008 0.113 51 50 56
43.2405 18.3297 -42.6055 -0.993 -0.031 -0.116 40 39 44
43.2689 18.1744 -42.6683 -0.920 -0.278 -0.277 42 41 46
43.3366 18.0348 -42.7530 -0.920 -0.278 -0.277 51 50 55
43.4044 17.8948 -42.8380 -0.920 -0.278 -0.277 61 60 65
43.4724 17.7544 -42.9232 -0.920 -0.278 -0.277 70 69 74
43.5162 17.6037 -42.9950 -0.921 -0.271 -0.281 72 71 76
42.7773 16.6353 -42.7707 -0.067 0.194 0.979 70 69 73
42.6395 16.4132 -42.7405 -0.031 0.209 0.977 70 70 72
37.7741 -7.4475 -46.1800 0.069 0.777 0.626 55 63 50
26.6696 -55.2695 -52.1641 -0.843 -0.534 0.065 36 44 28
33.9773 -64.9364 -59.7947 0.257 0.611 0.749 86 85 90
22.5897 -56.0987 -49.6548 -0.536 0.637 0.553 83 82 87
22.6653 -56.3739 -49.7830 -0.531 0.655 0.537 87 86 91
49.5892 36.3822 -42.0414 -0.967 -0.093 0.238 130 130 132
49.3388 36.0678 -41.9608 -0.773 -0.199 0.603 129 129 131
48.9528 35.6728 -41.8115 -0.543 0.516 0.662 128 128 130
48.7556 35.3922 -41.7574 -0.401 0.581 0.708 127 127 129
47.8903 34.2306 -41.5003 -0.261 0.544 0.797 119 119 121
47.5635 33.8769 -41.3793 -0.261 0.552 0.792 115 115 117
48.6368 34.3465 -41.9720 -0.848 0.018 0.530 111 111 113
48.6430 34.1870 -42.0212 -0.828 0.018 0.560 109 108 113
48.6747 34.0423 -42.0835 -0.795 0.039 0.606 111 110 116
46.9407 26.3150 -43.0915 -0.952 0.251 0.176 112 111 119
43.1052 21.9902 -41.7197 -0.971 0.166 -0.173 108 109 113
42.8877 18.9404 -42.4330 -0.994 -0.008 0.113 55 55 63
42.8990 18.7795 -42.4860 -0.993 0.019 0.113 50 50 58
42.8294 18.5842 -42.4941 -0.937 0.050 0.346 45 45 53
42.8410 18.4231 -42.5474 -0.937 0.049 0.345 41 42 48
43.4424 18.5077 -42.9299 -0.998 0.044 -0.038 53 54 57
43.6298 18.4176 -43.0820 -0.939 -0.052 -0.339 58 59 61
43.6620 18.2625 -43.1475 -0.939 -0.052 -0.339 64 65 67
43.7239 18.1193 -43.2297 -0.945 -0.010 -0.326 70 71 73
43.7465 17.9595 -43.2900 -0.945 -0.010 -0.326 77 78 80
43.6292 17.7426 -43.2719 -0.941 0.119 -0.318 75 76 78
38.6709 -6.9483 -46.8864 0.252 0.688 0.681 48 59 43
33.6080 -64.4391 -59.6825 0.248 0.607 0.755 101 100 106
33.5573 -65.4319 -59.9283 -0.297 0.312 0.903 105 104 109
50.1580 37.1753 -42.4492 -0.849 0.336 -0.409 126 126 128
49.3686 36.2046 -42.1877 -0.807 -0.113 0.580 126 126 128
48.8830 35.7486 -41.9868 -0.427 0.639 0.639 126 126 128
48.3621 34.9500 -41.8590 -0.559 0.698 0.448 118 118 120
48.0001 34.5727 -41.7199 -0.545 0.707 0.450 115 115 117
47.3189 33.8474 -41.4624 -0.552 0.686 0.474 108 108 110
48.5361 34.4036 -42.1318 -0.840 0.027 0.542 106 106 108
43.7140 23.6784 -41.8910 -0.930 0.280 0.239 120 120 128
43.6609 23.4902 -41.9081 -0.912 0.328 0.247 119 119 127
43.5882 23.2927 -41.9146 -0.912 0.328 0.247 119 119 127
30.4359 -60.2688 -56.6246 -0.790 -0.134 0.598 85 97 79
50.8037 38.0224 -42.8979 -0.816 0.407 -0.411 122 120 123
50.7038 37.7957 -42.8941 -0.815 0.414 -0.406 121 121 123
50.5360 37.5276 -42.8556 -0.821 0.403 -0.405 121 121 123
47.1514 33.8631 -41.5845 -0.539 0.715 0.444 109 109 111
43.6542 25.6863 -41.5172 -0.832 0.524 0.180 111 110 118
43.5176 25.4565 -41.4891 -0.839 0.530 0.123 111 110 118
43.4047 25.2391 -41.4738 -0.938 0.325 -0.122 114 113 121
43.4292 25.0913 -41.5325 -0.941 0.319 -0.116 115 114 122
43.3653 24.8988 -41.5435 -0.941 0.319 -0.116 118 117 125
43.5624 24.8370 -41.6956 -0.990 0.118 0.072 117 116 124
43.5558 24.6727 -41.7377 -0.986 0.139 0.091 105 105 115
43.6224 24.5445 -41.8196 -0.943 0.250 0.220 105 105 115
43.7126 24.4275 -41.9144 -0.952 -0.204 0.227 108 108 118
43.6997 24.2592 -41.9534 -0.944 -0.226 0.240 111 111 120
43.6638 24.0795 -41.9799 -0.958 -0.199 0.208 116 116 123
43.6527 23.9118 -42.0199 -0.962 -0.195 0.189 119 120 126
43.5931 23.7205 -42.0334 -0.971 0.182 0.157 114 115 121
43.5947 23.5588 -42.0804 -0.928 0.288 0.237 109 110 115
43.5375 23.3686 -42.0954 -0.932 0.278 0.234 105 106 112
42.1578 15.4888 -43.3897 -0.456 0.382 0.804 47 47 45
30.4552 -60.3311 -56.9185 -0.793 -0.092 0.603 79 90 73
30.3623 -60.5032 -56.9039 -0.755 -0.105 0.647 79 90 75
30.0217 -60.4834 -56.6657 -0.968 -0.125 0.216 78 90 72
20.3985 -53.4484 -48.0977 -0.252 0.767 0.590 81 89 75
20.4399 -53.6864 -48.1935 -0.488 0.736 0.469 96 100 97
20.4361 -53.8894 -48.2485 -0.447 0.732 0.514 101 102 105
20.4963 -54.7654 -48.5383 -0.789 -0.356 0.501 105 102 109
20.5143 -54.9879 -48.6138 -0.875 -0.391 0.285 105 102 109
49.1699 36.3224 -42.5111 -0.630 -0.136 0.765 116 116 118
47.9798 35.1163 -42.0376 -0.336 0.637 0.694 119 119 121
47.9073 34.7501 -42.0921 -0.541 0.703 0.462 115 115 117
47.5418 34.3709 -41.9492 -0.536 0.714 0.450 113 113 115
47.1708 33.9897 -41.8031 -0.534 0.719 0.445 109 109 111
43.7945 27.4587 -41.3449 -0.981 0.047 0.190 115 109 119
44.4085 26.4997 -42.0394 -0.777 0.599 0.196 103 102 110
43.7477 25.8375 -41.7743 -0.815 0.573 0.085 106 105 113
43.5974 25.6001 -41.7387 -0.837 0.536 0.110 108 107 115
43.4876 25.3838 -41.7249 -0.938 0.325 -0.122 111 110 118
43.5899 25.2750 -41.8261 -0.991 0.114 0.065 114 113 121
43.5680 25.1031 -41.8600 -0.991 0.114 0.065 117 116 124
43.5014 24.9086 -41.8697 -0.991 0.116 0.065 119 118 126
43.5241 24.7588 -41.9279 -0.991 0.114 0.065 105 105 113
43.5794 24.6250 -42.0040 -0.934 0.264 0.241 103 104 109
43.6547 24.5006 -42.0911 -0.952 -0.204 0.227 99 100 105
43.6383 24.3305 -42.1282 -0.944 -0.226 0.240 95 96 102
43.6024 24.1507 -42.1548 -0.960 -0.196 0.201 91 91 100
43.6018 23.9881 -42.2006 -0.962 -0.195 0.189 89 89 99
43.5839 23.8169 -42.2371 -0.964 0.201 0.173 71 71 80
41.7500 16.4247 -43.0829 -0.685 0.652 0.325 43 44 46
41.9797 16.3490 -43.2621 -0.663 -0.303 0.684 42 44 43
42.1314 15.3999 -43.6364 -0.453 0.208 0.867 37 37 35
38.7155 0.5443 -45.5211 -0.952 -0.054 -0.302 50 59 42
30.5126 -60.1787 -57.1786 -0.803 -0.205 0.560 63 74 57
19.9172 -53.9319 -48.1270 -0.105 0.647 0.755 84 84 86
50.9048 37.8321 -43.5244 -0.862 0.311 -0.401 112 112 115
44.0472 26.4175 -42.0524 -0.851 0.522 0.055 101 100 108
43.9407 26.2014 -42.0405 -0.826 0.557 0.083 104 103 111
43.8212 25.9789 -42.0216 -0.815 0.573 0.085 112 111 119
43.6466 25.7286 -41.9727 -0.837 0.543 0.072 106 105 113
43.6460 25.5674 -42.0182 -0.955 0.278 0.104 100 98 109
43.5881 25.3770 -42.0327 -0.991 0.114 0.065 91 90 98
43.5662 25.2049 -42.0667 -0.991 0.114 0.065 85 84 92
43.4998 25.0102 -42.0765 -0.991 0.116 0.065 81 80 88
43.5222 24.8601 -42.1348 -0.991 0.114 0.065 57 58 63
43.5457 24.7103 -42.1938 -0.935 0.255 0.246 52 53 58
43.5967 24.5739 -42.2680 -0.952 -0.204 0.227 52 53 58
43.5589 24.3931 -42.2935 -0.943 -0.235 0.238 52 53 58
43.5493 24.2262 -42.3346 -0.960 -0.196 0.201 52 52 60
43.5507 24.0645 -42.3817 -0.962 -0.195 0.189 52 52 62
43.5674 23.9101 -42.4373 -0.964 0.201 0.173 52 52 62
43.5369 23.7325 -42.4670 -0.898 0.316 0.305 54 54 64
42.3960 20.4238 -42.6247 -0.991 -0.125 -0.038 66 67 72
42.3780 20.2520 -42.6613 -0.912 0.406 -0.063 67 67 75
42.0280 19.6056 -42.6044 -0.999 0.039 -0.003 67 67 75
41.9156 19.3927 -42.5877 -0.985 -0.162 0.065 67 67 75
41.9454 19.2419 -42.6513 -0.983 -0.174 0.066 71 71 79
41.9149 16.5816 -43.3900 -0.691 0.664 0.286 37 38 40
42.0216 15.6165 -43.7392 -0.455 0.321 0.831 37 37 35
42.0561 15.4611 -43.8074 -0.634 0.185 0.751 36 36 34
31.1179 -61.1825 -58.1482 -0.356 0.396 0.846 55 66 49
43.5355 27.6897 -41.5715 -0.821 0.284 0.496 113 111 120
43.4257 27.4723 -41.5576 -0.908 0.268 0.323 113 110 119
43.3649 27.2813 -41.5701 -0.908 0.268 0.323 112 111 119
43.3457 27.1126 -41.6051 -0.915 0.237 0.325 111 110 118
43.3247 26.9428 -41.6392 -0.965 0.047 0.257 102 101 109
43.5832 26.9205 -41.8249 -0.475 -0.687 0.549 99 98 106
43.7197 26.8327 -41.9447 -0.443 -0.713 0.543 96 95 103
43.7164 26.5108 -42.0346 -0.530 -0.441 0.724 89 88 96
43.8123 26.4002 -42.1328 -0.877 -0.104 0.469 87 86 94
44.0107 26.3421 -42.2871 -0.826 0.557 0.083 82 81 89
43.8952 26.1211 -42.2703 -0.815 0.573 0.085 73 72 80
43.7253 25.8726 -42.2236 -0.815 0.573 0.085 72 71 79
43.6192 25.6572 -42.2118 -0.921 0.246 0.302 68 67 75
43.5618 25.4669 -42.2265 -0.925 0.209 0.316 64 63 71
43.5127 25.2808 -42.2457 -0.993 0.089 0.078 59 58 66
43.4946 25.1103 -42.2820 -0.993 0.089 0.078 55 55 63
43.4870 24.9451 -42.3241 -0.993 0.087 0.080 59 59 67
43.5189 24.7994 -42.3879 -0.935 0.255 0.246 62 63 71
43.5192 24.6376 -42.4345 -0.943 -0.208 0.260 66 66 74
43.4996 24.1411 -42.5631 -0.962 -0.195 0.189 79 79 86
43.5509 24.0036 -42.6381 -0.964 0.201 0.173 84 84 91
43.5019 23.8167 -42.6576 -0.898 0.316 0.305 87 87 94
41.7388 21.0343 -42.2318 -0.956 -0.232 0.177 43 44 48
41.8640 20.9302 -42.3484 -0.943 -0.268 0.198 48 49 53
41.9619 20.8129 -42.4499 -0.942 -0.269 0.199 53 54 58
41.9912 20.6638 -42.5130 -0.942 -0.269 0.199 60 61 65
42.0205 20.5144 -42.5761 -0.942 -0.269 0.199 65 66 70
42.1721 20.4196 -42.7084 -0.985 0.130 -0.116 66 67 72
42.3997 20.3580 -42.8839 -0.914 0.400 -0.067 61 62 67
42.3558 20.1743 -42.9061 -0.921 0.386 -0.047 61 61 68
42.2474 19.9619 -42.8917 -0.949 0.314 0.024 61 61 69
41.9966 19.6870 -42.7965 -0.989 -0.136 0.055 61 61 69
41.9701 19.5115 -42.8284 -0.989 -0.134 0.065 61 61 69
41.9778 19.3508 -42.8798 -0.987 -0.145 0.066 65 65 73
42.3621 18.3585 -43.4306 -0.865 0.320 0.386 40 41 45
42.4729 18.2383 -43.5419 -0.894 0.268 0.358 41 42 46
42.2048 17.1247 -43.6750 -0.945 0.197 0.259 37 38 42
42.2604 16.9794 -43.7552 -0.927 0.237 0.290 37 38 40
41.9825 16.7001 -43.6424 -0.660 0.690 0.296 38 39 41
16.2264 -51.0665 -45.1901 -0.036 -0.373 0.927 76 75 80
44.2651 28.9877 -41.9436 0.126 0.123 0.984 103 105 110
43.8514 28.6016 -41.7661 0.129 0.188 0.974 105 106 114
43.4585 27.7541 -41.7357 -0.821 0.284 0.496 95 96 102
43.3850 27.5560 -41.7414 -0.908 0.268 0.323 94 95 100
43.3242 27.3649 -41.7538 -0.908 0.268 0.323 93 94 99
43.3022 27.1946 -41.7875 -0.915 0.237 0.325 91 92 97
43.2694 27.0184 -41.8152 -0.969 0.037 0.246 73 74 79
43.5117 26.5085 -42.1307 -0.595 -0.521 0.612 68 67 73
43.6854 26.4388 -42.2718 -0.868 -0.123 0.481 67 66 72
43.7990 26.0146 -42.4729 -0.815 0.573 0.085 40 39 45
43.5200 25.5491 -42.4122 -0.938 0.223 0.266 56 57 62
43.5528 25.4044 -42.4766 -0.986 0.019 -0.167 64 64 72
43.4836 25.2078 -42.4849 -0.985 0.011 -0.170 69 69 79
43.5203 25.0646 -42.5516 -0.956 -0.045 -0.290 79 78 90
43.5456 24.9154 -42.6121 -0.956 -0.045 -0.290 80 80 93
43.5751 24.7681 -42.6751 -0.980 -0.089 -0.177 77 76 91
43.4288 24.3706 -42.6873 -0.962 -0.195 0.189 72 72 83
43.4484 24.2178 -42.7448 -0.962 -0.195 0.189 70 70 80
43.4680 24.0647 -42.8025 -0.962 -0.195 0.189 71 71 82
43.4489 23.8924 -42.8387 -0.933 0.257 0.253 72 72 82
41.9608 22.6851 -42.1480 -0.008 0.172 0.985 67 67 77
42.0297 20.6150 -42.7909 -0.920 -0.320 0.227 66 67 69
42.3096 20.5782 -42.9966 -0.985 0.133 -0.113 66 67 70
42.0137 19.7901 -43.0168 -0.989 0.091 -0.118 56 57 62
42.0031 19.6213 -43.0579 -0.989 0.091 -0.118 57 58 63
41.9151 19.4184 -43.0548 -0.990 -0.108 0.086 53 54 59
42.3682 18.4553 -43.6475 -0.861 0.319 0.397 33 37 38
31.8531 -32.4858 -50.9541 -0.825 0.565 -0.027 53 62 41
21.7533 -54.2552 -50.1676 -0.611 0.576 0.544 46 57 41
43.3308 31.2290 -40.8815 -0.647 -0.635 0.422 119 119 129
43.3945 31.1119 -40.9599 -0.647 -0.635 0.422 118 118 128
44.1569 29.1953 -42.0468 0.023 0.124 0.992 93 98 102
43.9417 28.9175 -41.9760 -0.028 0.217 0.976 97 102 106
44.2836 28.9467 -42.2072 -0.979 -0.060 -0.195 99 104 108
43.3814 27.8185 -41.9001 -0.821 0.284 0.496 83 87 91
43.3020 27.1410 -42.0397 -0.977 -0.001 0.212 54 57 62
43.2785 26.9694 -42.0727 -0.666 -0.536 0.519 50 51 56
43.3177 26.6713 -42.1861 -0.445 -0.710 0.546 50 51 56
43.3606 26.5341 -42.2557 -0.595 -0.521 0.612 50 51 56
43.7349 25.7627 -42.7404 -0.985 0.016 -0.173 66 67 72
43.6075 25.5359 -42.7165 -0.970 0.032 -0.241 70 70 78
43.5890 25.2026 -42.7996 -0.956 -0.045 -0.290 70 69 82
43.5523 24.6970 -42.9196 -0.970 0.001 -0.241 70 68 88
43.4364 24.1511 -42.9957 -1.000 0.022 0.005 68 67 84
42.5154 20.7683 -43.3253 -0.992 0.090 -0.084 45 49 47
42.5285 20.6096 -43.3802 -0.970 0.212 0.120 41 45 43
42.1462 19.9447 -43.3039 -0.993 0.023 -0.116 42 46 46
42.4032 18.3976 -43.9300 -0.919 0.233 0.318 31 36 32
46.1580 -2.9848 -52.7253 -0.556 0.261 0.789 54 56 69
23.7332 -55.8374 -52.2424 -0.997 -0.061 -0.041 40 53 36
23.9612 -56.2360 -52.5172 -0.995 -0.088 -0.045 46 58 39
15.5863 -50.0671 -44.8689 -0.207 -0.243 0.948 61 66 63
43.7727 32.2190 -41.1409 -0.759 -0.394 0.517 112 112 122
43.9719 32.1829 -41.2917 -0.739 -0.362 0.568 113 113 123
44.0137 32.0524 -41.3589 -0.734 -0.378 0.565 115 115 125
44.0782 31.9349 -41.4383 -0.636 -0.585 0.503 116 116 126
44.1331 31.8114 -41.5127 -0.636 -0.585 0.503 116 116 126
43.4745 29.2398 -41.7922 -0.969 -0.154 -0.193 75 80 84
43.9053 29.3226 -42.0718 0.043 0.057 0.997 79 84 88
44.3883 29.1128 -42.4728 -0.977 -0.032 -0.212 87 95 98
44.4137 28.9667 -42.5330 -0.943 0.300 -0.142 86 91 95
42.8308 27.1529 -41.9421 -0.339 0.038 0.940 69 72 77
43.0022 26.7689 -42.1740 0.014 -0.378 0.926 50 51 56
43.5663 25.2947 -42.9976 -0.763 -0.127 0.634 71 71 84
39.2891 20.9676 -41.2352 -0.944 0.331 0.015 41 46 43
43.1737 21.8279 -43.7234 -0.983 0.168 0.078 33 38 32
42.4972 20.8576 -43.5273 -0.991 0.120 -0.058 33 38 32
41.7792 19.5495 -43.3997 -0.990 -0.137 0.043 32 40 31
41.7332 19.3649 -43.4207 -0.920 -0.374 0.114 33 40 31
42.2898 18.9446 -43.9344 -0.943 -0.132 0.304 32 40 31
13.7563 -27.3006 -37.2025 -0.841 -0.122 0.528 50 62 40
13.5784 -27.6882 -37.1892 -0.775 0.297 0.558 41 53 31
13.4351 -27.7892 -37.1175 -0.441 0.794 0.419 41 53 31
16.1490 -51.5122 -45.8889 -0.089 -0.245 0.965 63 68 60
12.8415 -49.1914 -42.8876 -0.093 0.263 0.960 78 84 74
42.9793 33.0753 -40.5666 -0.344 -0.603 0.720 110 110 120
43.6552 32.2605 -41.2817 -0.759 -0.394 0.517 112 112 122
43.7597 32.1682 -41.3824 -0.734 -0.358 0.578 110 110 120
43.9618 32.1333 -41.5357 -0.688 -0.338 0.642 102 102 112
44.0021 32.0015 -41.6024 -0.643 -0.562 0.520 102 102 112
28.0835 22.0810 -33.2059 -0.473 -0.175 0.864 103 103 113
43.5608 29.5540 -41.9998 -0.963 -0.255 -0.092 62 65 72
43.5754 29.4046 -42.0534 -0.962 -0.258 -0.088 64 69 73
43.5962 29.2585 -42.1106 -0.068 -0.360 0.931 67 72 76
42.2445 27.8812 -41.5527 0.066 0.278 0.958 80 84 88
42.7004 27.5036 -41.9851 -0.337 0.027 0.941 68 73 77
42.6443 27.3157 -41.9999 -0.337 0.027 0.941 66 69 74
42.6038 27.1362 -42.0232 -0.339 0.038 0.940 64 67 72
42.6027 26.9778 -42.0684 -0.248 -0.215 0.945 54 55 60
43.4267 25.3277 -43.1306 -0.755 -0.124 0.644 71 71 82
43.1663 25.0338 -43.0315 -0.710 0.444 0.546 70 70 82
41.3565 23.4855 -42.1988 -0.947 0.320 0.019 71 70 84
39.8140 21.7838 -41.5999 -0.708 0.646 0.284 57 56 69
39.3251 21.0803 -41.4577 -0.944 0.331 0.015 41 46 41
39.1850 20.8577 -41.4231 -0.847 0.529 -0.051 41 46 39
42.4009 21.0762 -43.6372 -0.990 0.091 -0.108 33 38 31
36.4501 1.7244 -45.0356 -0.233 -0.778 0.584 41 61 28
36.5087 1.5642 -45.1236 -0.256 -0.763 0.593 46 63 35
36.5417 1.3983 -45.1951 -0.221 -0.773 0.594 47 63 37
37.5255 -0.3417 -46.3965 -0.607 -0.350 0.713 45 53 37
37.6414 -0.4993 -46.5243 -0.564 -0.232 0.793 48 56 39
36.1006 -4.6712 -46.6431 -0.071 -0.143 0.987 62 70 72
13.7048 -27.4265 -37.3819 -0.833 -0.075 0.547 47 59 39
13.6770 -27.7153 -37.4460 -0.630 0.286 0.722 41 53 33
13.5940 -27.8369 -37.4225 -0.580 0.613 0.537 42 54 33
12.7147 -49.1273 -42.9749 -0.091 0.283 0.955 68 79 62
12.6815 -49.2803 -42.9958 -0.075 0.237 0.969 78 88 72
43.3288 33.5553 -40.9089 -0.485 0.066 0.872 103 103 113
43.8416 33.7189 -41.2264 -0.648 -0.059 0.759 102 102 112
43.3219 33.0932 -41.0385 -0.795 -0.433 0.425 98 98 108
43.4194 32.5389 -41.2691 -0.521 -0.731 0.441 108 108 118
43.5445 32.4604 -41.3811 -0.756 -0.445 0.480 111 111 121
43.5814 32.3281 -41.4458 -0.756 -0.445 0.480 114 114 124
43.2346 30.2611 -41.8003 -0.625 -0.266 0.734 60 60 70
43.3495 30.0143 -41.9539 -0.667 -0.139 0.732 54 54 64
43.3229 29.8425 -41.9850 -0.691 0.085 0.718 51 54 61
43.6563 29.5589 -42.3048 -0.611 -0.594 0.523 58 63 67
43.4628 29.1344 -42.2905 -0.130 -0.207 0.970 64 69 73
43.6000 29.0527 -42.4120 -0.127 -0.214 0.969 68 73 77
44.3074 29.2861 -42.8477 -0.937 -0.192 -0.293 70 75 79
44.2842 29.1131 -42.8816 -0.972 -0.083 -0.218 73 78 81
41.7460 27.4018 -41.5725 0.019 0.338 0.941 73 78 82
42.6126 27.4042 -42.1887 -0.262 0.160 0.952 62 65 70
42.5146 27.1935 -42.1802 -0.262 0.160 0.952 60 64 67
42.4773 27.0157 -42.2054 -0.383 -0.281 0.880 51 55 58
42.4652 26.8514 -42.2446 -0.397 -0.314 0.862 50 51 56
42.6522 25.8382 -42.6725 -0.941 -0.332 -0.064 58 59 64
42.7661 25.7374 -42.7829 -0.838 -0.423 0.345 61 62 67
42.9392 25.0221 -43.1143 -0.723 0.447 0.527 70 70 77
40.3989 22.3224 -42.0913 -0.681 0.685 0.259 49 52 61
37.5815 6.6900 -44.6338 0.033 0.572 0.820 44 54 30
36.6549 6.0946 -44.1474 -0.271 0.629 0.729 44 52 28
37.9166 -0.7434 -47.0350 -0.018 -0.050 0.999 30 41 24
37.3151 -1.5634 -46.8454 0.137 0.031 0.990 35 35 46
35.8994 -4.6362 -46.7316 -0.964 -0.152 -0.219 68 79 74
36.0383 -4.7995 -46.8780 -0.968 -0.129 -0.213 67 80 70
13.6507 -27.4030 -37.5165 -0.848 -0.029 0.530 59 72 54
13.6164 -27.6899 -37.5756 -0.669 0.241 0.703 49 62 44
13.5416 -27.8143 -37.5586 -0.730 0.516 0.448 50 62 44
22.2027 -58.0520 -52.5219 -0.926 -0.270 -0.264 90 95 91
43.2873 34.4029 -40.8668 -0.632 0.434 0.642 112 111 117
43.3314 34.2789 -40.9345 -0.640 0.425 0.640 116 116 124
43.2015 34.0457 -40.9096 -0.640 0.425 0.640 114 114 124
42.8337 33.0583 -40.9346 -0.763 0.140 0.631 98 98 108
42.8121 32.8930 -40.9674 -0.816 0.135 0.562 100 100 110
43.1346 32.9382 -41.1850 -0.675 -0.367 0.640 100 100 110
43.0998 32.4577 -41.3004 -0.572 -0.667 0.478 94 94 104
43.3055 32.4284 -41.4561 -0.584 -0.665 0.466 93 93 103
43.5573 32.4257 -41.6370 -0.819 -0.380 0.431 93 93 103
43.2611 29.9165 -42.1574 -0.643 0.055 0.764 64 67 74
43.2474 29.7518 -42.1957 -0.630 0.046 0.776 64 67 74
43.2636 29.6039 -42.2504 -0.376 0.001 0.927 62 67 71
43.6396 29.1833 -42.6422 -0.441 -0.345 0.829 63 68 72
43.6440 29.0270 -42.6910 -0.401 -0.056 0.914 62 67 71
41.0123 27.1040 -41.3690 -0.045 0.192 0.980 66 71 75
42.3249 27.3540 -42.2354 -0.178 -0.147 0.973 65 68 73
42.3402 27.2049 -42.2898 -0.187 -0.102 0.977 65 68 73
42.0601 26.8964 -42.1794 -0.964 -0.186 -0.188 60 63 68
42.0995 26.7604 -42.2473 -0.964 -0.186 -0.188 59 60 65
42.1503 26.6300 -42.3217 -0.953 -0.263 -0.151 59 60 65
42.3299 25.9334 -42.6535 -0.937 -0.322 -0.137 60 61 66
42.3859 25.8035 -42.7315 -0.937 -0.322 -0.137 60 61 66
42.7854 25.8516 -43.0033 -0.698 -0.367 0.614 61 62 67
42.5832 25.5866 -42.9360 -0.385 -0.426 0.818 63 64 69
42.4028 25.3335 -42.8808 -0.443 -0.445 0.778 64 64 71
41.1009 23.5586 -42.4672 -0.821 0.024 0.570 65 66 71
41.1704 23.2757 -42.5995 -0.907 0.019 0.421 49 50 55
40.4235 22.4328 -42.3110 -0.985 -0.026 0.169 50 50 56
34.6213 4.7884 -43.3084 -0.289 0.888 0.357 50 58 34
34.0475 4.4737 -42.9897 -0.289 0.888 0.357 50 59 33
37.5915 -0.7336 -47.0455 -0.007 -0.050 0.999 37 48 31
36.0983 -3.8333 -46.8816 0.143 -0.382 0.913 68 70 83
35.2641 -4.4762 -46.4723 -0.027 -0.434 0.901 66 73 78
35.9862 -4.7466 -47.0679 -0.942 -0.306 -0.140 67 80 71
36.0571 -4.9188 -47.1689 -0.942 -0.306 -0.140 67 82 65
13.5894 -27.3772 -37.6456 -0.873 -0.037 0.487 67 80 62
13.5447 -27.6608 -37.6964 -0.833 0.422 0.357 63 76 58
13.5371 -27.8076 -37.7338 -0.775 0.502 0.384 62 74 57
12.3651 -49.0998 -43.1092 -0.320 0.323 0.891 57 68 51
43.7420 34.8043 -41.3112 -0.858 -0.051 0.511 108 107 113
113.8008 78.1586 -79.0125 -0.839 0.544 0.018 111 111 121
43.7101 34.0190 -41.5182 -0.807 -0.373 0.458 104 104 114
42.9743 32.4936 -41.4356 -0.577 -0.664 0.476 78 78 88
44.7969 31.5432 -43.0248 -0.819 0.487 -0.303 66 66 76
41.7801 27.3195 -42.0913 -0.992 0.041 0.121 62 67 73
42.0486 27.3094 -42.2874 -0.964 0.261 0.057 62 67 73
42.0623 27.1599 -42.3411 -0.961 0.268 0.072 63 66 71
42.0913 27.0184 -42.4034 -0.964 -0.184 -0.191 59 62 67
42.1198 26.8763 -42.4654 -0.964 -0.186 -0.188 60 61 66
42.1430 26.7310 -42.5247 -0.965 -0.191 -0.178 60 61 66
42.3820 25.4263 -43.0785 -0.832 0.432 0.349 58 59 64
42.9261 25.2227 -43.5295 -0.708 0.558 0.434 54 56 54
40.3295 22.3274 -42.5094 -0.807 0.547 -0.222 49 51 50
36.6704 6.5849 -44.4861 0.062 0.491 0.869 55 63 40
34.4829 4.8235 -43.4283 -0.416 0.891 0.183 50 58 34
11.2535 -25.4924 -35.5945 -0.819 -0.499 -0.282 46 61 32
13.3820 -27.3042 -37.6560 -0.240 -0.290 0.927 65 78 60
13.3993 -27.4585 -37.7136 -0.260 -0.134 0.956 59 72 54
13.3775 -27.6002 -37.7394 -0.260 -0.134 0.956 60 73 55
13.4065 -27.7589 -37.8068 -0.418 0.157 0.895 60 72 54
13.3345 -27.8842 -37.7916 -0.578 0.628 0.521 58 60 49
43.5774 34.8155 -41.4261 -0.867 -0.123 0.482 100 99 105
43.5750 34.6615 -41.4697 -0.867 -0.123 0.482 100 100 108
42.9218 32.5739 -41.6104 -0.582 -0.668 0.465 76 76 86
43.5329 32.7911 -41.9885 -0.641 -0.243 0.728 80 80 90
27.4461 22.5479 -33.3654 -0.726 0.123 0.677 72 72 82
44.7184 29.6832 -43.7583 -0.824 -0.038 0.565 59 64 68
41.9982 27.5445 -42.4196 -0.993 0.097 0.062 57 62 68
42.0529 27.4175 -42.4964 -0.967 0.249 0.058 57 62 68
42.0789 27.2745 -42.5573 -0.963 0.258 0.081 59 62 67
42.1130 27.1356 -42.6227 -0.987 0.129 0.095 55 58 63
42.1599 27.0033 -42.6955 -0.959 -0.237 -0.154 55 56 61
42.2098 26.8721 -42.7701 -0.957 -0.245 -0.153 55 56 61
42.3352 26.7810 -42.8875 -0.957 -0.251 -0.144 55 56 61
42.4985 26.7093 -43.0266 -0.960 -0.237 -0.149 55 56 61
42.5431 26.5737 -43.0987 -0.960 -0.237 -0.149 55 56 61
42.3589 25.8383 -43.1815 -0.803 0.081 0.591 54 53 59
43.7401 26.2334 -44.0641 -0.748 0.586 0.312 55 54 61
43.5630 25.9788 -44.0108 -0.748 0.586 0.312 54 54 57
42.8754 25.3009 -43.7127 -0.708 0.558 0.434 51 52 46
41.2203 23.8199 -42.9510 -0.907 0.212 -0.365 51 54 46
41.3279 23.7146 -43.0597 -0.895 0.242 -0.375 49 52 44
41.3124 23.3875 -43.1446 -0.902 0.221 -0.371 45 48 40
40.9159 23.0317 -42.9624 -0.862 0.461 -0.208 45 48 40
40.8446 22.8374 -42.9679 -0.812 0.543 -0.214 45 48 40
38.0597 10.4379 -44.5957 -0.197 0.094 0.976 42 60 38
37.8702 10.2082 -44.5261 -0.179 0.113 0.977 44 59 40
37.1287 9.3016 -44.2562 -0.500 -0.650 0.572 36 49 31
36.5618 6.6300 -44.6309 0.092 0.502 0.860 49 57 34
34.5833 4.9224 -43.7019 -0.418 0.891 0.180 54 62 38
37.2730 -1.1954 -47.4432 -0.755 0.656 -0.023 46 49 57
36.1946 -2.2651 -46.9777 0.204 0.212 0.956 62 62 72
34.3372 -4.1230 -46.1803 -0.380 -0.813 0.441 77 80 90
34.4918 -4.2787 -46.3378 -0.374 -0.799 0.471 74 78 87
25.8853 -18.3402 -44.2446 -0.976 0.182 -0.118 41 55 29
27.5062 -20.4477 -46.0354 -0.042 -0.743 0.668 54 70 43
13.1860 -27.0869 -37.6312 -0.178 -0.308 0.934 75 88 70
13.2106 -27.3912 -37.7384 -0.275 -0.143 0.951 48 61 43
13.2051 -27.5380 -37.7775 -0.260 -0.134 0.956 47 60 42
13.2676 -27.7076 -37.8725 -0.417 0.142 0.898 46 58 41
13.2601 -27.8543 -37.9102 -0.578 0.628 0.521 52 54 43
21.7798 -58.5137 -53.0739 -0.460 -0.433 0.775 104 109 103
43.4351 34.8406 -41.5527 -0.854 -0.101 0.510 89 89 97
43.4104 34.6726 -41.5843 -0.854 -0.100 0.510 82 82 92
43.4041 34.5160 -41.6258 -0.854 -0.100 0.510 80 80 91
42.7720 33.3585 -41.5075 -0.824 -0.410 0.392 68 68 80
41.9445 27.4643 -42.6424 -0.797 0.388 0.462 52 57 61
41.8218 27.2403 -42.6192 -0.840 0.273 0.469 53 56 61
42.2157 26.9809 -42.9819 -0.957 -0.245 -0.153 49 50 55
42.2830 26.2223 -43.2543 -0.817 0.069 0.573 48 49 54
42.0661 25.6301 -43.2711 -0.850 0.177 0.496 48 49 54
43.9422 26.2805 -44.4430 -0.420 0.546 0.725 48 49 52
41.6324 24.2890 -43.3510 -0.894 0.276 -0.353 44 47 36
41.6170 23.9609 -43.4365 -0.909 0.268 -0.319 43 46 35
41.6784 23.8312 -43.5193 -0.898 0.297 -0.324 39 42 31
41.6207 23.6417 -43.5332 -0.898 0.297 -0.324 39 42 31
36.8386 6.9537 -44.9738 -0.272 0.773 0.574 49 59 35
36.5098 6.6913 -44.8121 -0.289 0.775 0.562 50 60 36
36.5794 6.5432 -44.9063 -0.749 0.307 0.587 54 64 39
34.7543 5.0407 -44.0225 -0.396 0.896 0.203 58 68 43
34.1066 4.7034 -43.6512 -0.213 0.881 0.423 57 68 42
34.1693 -3.9108 -46.2344 -0.321 -0.757 0.569 82 84 96
34.1490 -4.0886 -46.2720 -0.385 -0.813 0.437 76 78 90
34.3026 -4.2441 -46.4294 -0.374 -0.799 0.471 69 73 82
34.3763 -4.4107 -46.5321 -0.356 -0.783 0.511 65 73 76
31.5674 -5.7842 -44.8953 -0.653 0.740 -0.163 57 75 39
27.1170 -20.3690 -45.9573 -0.043 -0.745 0.666 81 97 70
27.3223 -20.5741 -46.1669 -0.083 -0.713 0.696 56 75 46
27.3873 -20.7618 -46.2695 -0.073 -0.691 0.719 52 71 41
27.5494 -20.9635 -46.4468 -0.073 -0.691 0.719 45 64 34
27.0941 -21.0794 -46.1499 -0.267 0.707 0.655 40 59 29
12.7237 -26.2024 -37.2153 -0.848 -0.449 -0.282 57 72 43
13.1235 -27.3571 -37.8460 -0.979 -0.204 0.003 51 64 46
47.2911 -82.7492 -78.9955 -0.212 0.797 0.565 111 112 116
43.3771 34.9194 -41.7250 -0.993 -0.030 0.116 68 68 78
43.3766 34.7665 -41.7697 -0.993 -0.030 0.116 72 71 84
43.3760 34.6135 -41.8145 -0.993 -0.030 0.116 70 69 82
43.2701 34.3939 -41.8020 -0.863 -0.118 0.491 67 66 81
43.0136 34.0801 -41.7074 -0.540 0.062 0.839 65 64 79
43.0671 31.6507 -42.4644 -0.726 0.451 0.519 70 71 76
42.4245 30.6507 -42.2905 -0.573 -0.687 0.447 67 67 75
43.2318 26.5059 -44.1051 -0.890 -0.334 0.312 42 46 47
40.1337 24.5686 -42.4143 -0.716 0.442 0.541 43 47 49
43.9886 26.4112 -44.6859 -0.338 0.557 0.759 43 47 46
43.5572 26.0241 -44.4852 -0.392 0.560 0.730 40 45 39
41.9791 24.5673 -43.7628 -0.954 0.198 -0.224 38 44 31
41.9497 24.3914 -43.7933 -0.954 0.198 -0.224 38 44 30
41.9517 24.2313 -43.8420 -0.936 0.245 -0.255 37 43 29
36.4587 6.7529 -44.9943 -0.348 0.780 0.521 57 66 42
36.2863 6.5360 -44.9324 -0.964 0.113 0.241 62 70 46
36.2580 6.3603 -44.9637 -0.964 0.113 0.241 67 74 51
34.0110 4.5862 -43.8465 -0.366 0.896 0.250 63 81 49
36.7869 -1.6850 -47.7275 0.245 -0.242 0.939 59 62 71
36.2961 -2.1222 -47.4982 0.226 0.169 0.959 71 71 81
33.6446 -4.0965 -46.1446 -0.284 -0.778 0.560 83 85 97
33.8123 -4.2488 -46.3121 -0.289 -0.774 0.563 75 79 91
33.9472 -4.4065 -46.4573 -0.314 -0.777 0.546 71 78 84
32.2959 -5.3035 -45.5160 -0.437 0.879 -0.189 70 85 64
13.0994 -27.3435 -38.0056 -0.876 -0.269 0.401 51 64 46
49.0496 -84.3941 -81.1265 -0.440 0.773 0.458 105 107 107
43.4094 35.0558 -41.9467 -0.792 0.022 0.610 64 66 79
43.4289 34.9155 -42.0026 -0.784 0.041 0.620 68 70 85
43.3994 34.7438 -42.0318 -0.791 0.038 0.610 66 68 83
43.2852 34.5186 -42.0147 -0.827 0.151 0.542 64 65 82
43.2917 33.9096 -42.2000 -0.553 -0.018 0.833 52 54 69
43.3343 32.7005 -42.5897 -0.291 0.009 0.957 77 80 91
43.4449 32.6121 -42.6971 -0.287 0.029 0.958 74 77 85
43.4374 32.2960 -42.7853 -0.578 0.610 0.543 71 72 76
43.2023 31.9992 -42.7007 -0.588 0.579 0.565 68 69 73
42.3303 31.1692 -42.3064 -0.675 -0.737 0.029 61 62 67
42.4800 27.0173 -43.6471 -0.947 -0.103 0.304 30 37 31
42.6693 26.9588 -43.8034 -0.727 -0.493 0.478 28 34 28
42.7874 26.8614 -43.9190 -0.735 -0.499 0.459 27 33 27
41.7389 25.9855 -43.4088 -0.680 0.393 0.618 31 38 32
40.2912 24.7525 -42.7113 -0.756 0.345 0.556 32 39 34
43.9478 26.4969 -44.8791 -0.593 0.669 0.447 33 39 33
37.5948 11.3587 -44.7016 -0.872 0.452 0.189 42 57 32
36.2375 6.7657 -45.0665 -0.469 0.779 0.416 65 70 47
36.3950 6.6432 -45.2184 -0.861 0.488 0.145 69 74 49
36.1446 6.4041 -45.1054 -0.959 0.091 0.268 74 79 54
34.5698 4.4755 -44.5208 -0.941 0.305 0.146 53 77 43
34.4865 -1.1283 -46.1207 0.178 0.208 0.962 46 57 41
35.1582 -1.1846 -46.6306 0.065 -0.430 0.900 55 61 56
35.8943 -1.4108 -47.2382 0.261 -0.389 0.883 64 66 78
36.6108 -1.6489 -47.8349 0.252 0.235 0.939 65 68 77
34.5013 -2.6915 -46.5950 -0.060 0.559 0.827 69 72 81
33.6303 -4.2138 -46.4067 -0.309 -0.776 0.550 100 104 112
33.7372 -4.3747 -46.5329 -0.314 -0.777 0.546 91 99 100
33.7653 -4.5465 -46.6044 0.046 -0.430 0.902 71 83 76
28.3134 -9.3233 -44.0172 -0.157 -0.381 0.911 49 65 38
26.5698 -20.5962 -46.0785 -0.001 -0.597 0.803 52 71 41
26.6874 -20.7898 -46.2222 -0.001 -0.597 0.803 45 64 34
25.8468 -21.0258 -45.6749 0.191 0.471 0.861 36 55 25
13.3419 -26.6706 -38.1661 -0.741 -0.514 0.432 72 85 64
13.0308 -27.4641 -38.1729 -0.887 -0.295 0.357 45 58 40
15.8880 -53.4127 -47.9627 -0.124 0.458 0.880 68 78 66
43.3265 34.8134 -42.1970 -0.670 0.015 0.742 67 68 86
43.4257 34.7232 -42.2970 -0.778 0.148 0.611 64 65 85
42.4710 33.3595 -41.9979 -0.639 -0.714 0.286 52 55 72
42.6567 33.1694 -42.1915 -0.616 -0.664 0.423 57 60 77
42.8508 33.1360 -42.3447 -0.608 -0.646 0.461 60 63 80
42.9900 33.0678 -42.4677 -0.604 -0.656 0.453 64 67 84
43.4103 32.8604 -42.8396 0.051 -0.041 0.998 72 75 85
43.5341 32.7798 -42.9549 0.071 0.003 0.997 70 73 80
43.3187 32.4936 -42.8810 0.076 -0.011 0.997 69 70 75
43.1126 32.2137 -42.8121 -0.564 0.583 0.585 67 68 72
42.3582 31.4513 -42.4820 -0.510 -0.041 0.859 60 61 63
42.7500 30.7517 -42.9792 -0.497 -0.383 0.779 62 63 67
43.7783 30.2405 -43.8902 -0.575 -0.533 0.620 49 55 51
44.1291 30.2802 -44.1373 -0.245 -0.024 0.969 49 55 51
43.8525 29.9627 -44.0275 -0.212 -0.046 0.976 49 55 51
43.0776 27.9282 -44.0606 -0.919 0.341 -0.200 40 50 38
42.9650 27.7065 -44.0434 -0.920 0.335 -0.203 37 48 36
42.4452 27.1052 -43.8386 -0.649 0.367 0.667 29 40 28
42.4957 26.9724 -43.9153 -0.667 0.347 0.660 26 36 25
42.3950 26.7585 -43.9046 -0.667 0.347 0.660 25 35 23
42.0621 26.4212 -43.7592 -0.658 0.371 0.656 28 39 27
37.5139 11.7444 -44.7666 -0.960 0.124 0.250 41 53 27
37.6454 11.6257 -44.8989 -0.968 0.228 0.100 40 52 27
37.8013 8.4900 -45.9464 0.016 -0.526 0.850 44 48 26
37.8448 8.3331 -46.0251 0.046 -0.515 0.856 45 50 28
36.7788 7.1678 -45.5849 -0.764 0.639 0.089 62 65 42
36.6541 6.7940 -45.6040 -0.812 0.555 0.181 80 81 57
36.4798 6.5753 -45.5404 -0.896 0.184 0.404 85 86 62
36.4187 6.3893 -45.5506 -0.895 0.171 0.412 89 90 66
36.3328 6.1964 -45.5445 -0.390 0.501 0.772 89 90 66
34.9561 4.8156 -44.9390 -0.676 0.695 0.244 58 78 46
34.8815 4.6293 -44.9394 -0.900 0.351 0.257 51 74 40
34.8651 -1.1712 -46.6521 0.070 -0.425 0.902 55 65 59
35.6353 -1.3899 -47.2856 0.097 -0.376 0.922 68 71 82
35.8292 -1.5346 -47.4717 0.213 -0.250 0.945 70 74 82
34.1754 -2.6797 -46.5916 -0.057 0.552 0.832 72 75 84
33.1355 -3.1832 -45.9738 0.022 0.707 0.707 70 75 77
33.3953 -4.1859 -46.4637 -0.310 -0.776 0.549 114 122 118
33.5278 -4.3430 -46.6082 -0.314 -0.777 0.546 102 112 103
28.0984 -8.7912 -43.9237 -0.120 -0.359 0.926 43 59 32
28.0969 -8.9568 -43.9718 -0.116 -0.363 0.924 42 58 31
25.5288 -20.9539 -45.6438 0.191 0.471 0.861 36 55 25
13.2715 -26.9394 -38.3769 -0.756 -0.568 0.325 74 87 67
13.2869 -27.0935 -38.4341 -0.732 -0.534 0.423 75 87 67
12.9615 -27.1383 -38.2073 -0.884 -0.305 0.356 61 74 55
13.4297 -27.4392 -38.6423 -0.841 -0.422 0.339 52 64 46
12.9939 -27.4465 -38.3229 -0.889 -0.297 0.349 46 58 39
15.6727 -53.4739 -48.0393 -0.129 0.442 0.888 57 70 47
43.3592 34.6436 -42.5121 -0.877 0.106 0.469 61 62 80
43.1060 33.8698 -42.5551 -0.310 0.049 0.950 50 51 69
42.5132 33.3471 -42.2712 -0.585 -0.679 0.444 50 51 69
42.5957 33.2454 -42.3627 -0.591 -0.675 0.442 52 53 71
42.8965 32.6611 -42.7602 0.022 -0.069 0.997 69 69 80
42.7029 32.2343 -42.7439 -0.307 -0.029 0.951 64 65 70
42.2546 31.5009 -42.6300 -0.519 -0.060 0.853 56 55 59
43.2344 30.3580 -43.6979 -0.620 -0.418 0.664 50 54 53
43.4891 29.8677 -44.0331 -0.672 -0.343 0.656 49 55 51
42.6987 27.5093 -44.1501 -0.898 0.303 0.318 33 43 34
42.3232 27.1462 -43.9799 -0.649 0.367 0.667 29 39 30
36.5689 12.1423 -44.1864 -0.737 -0.532 0.417 43 52 30
36.6243 12.0002 -44.2699 -0.737 -0.532 0.417 47 55 31
36.8439 11.9169 -44.4577 -0.532 0.601 0.596 47 56 29
37.8289 11.9408 -45.1813 -0.654 0.446 0.612 47 56 29
38.4728 11.8347 -45.6906 -0.973 -0.166 0.161 52 61 34
38.2893 10.9301 -45.8243 -0.675 -0.509 0.534 54 68 42
37.4971 9.4895 -45.6663 0.086 0.149 0.985 38 55 29
37.0299 8.5011 -45.6145 0.040 -0.492 0.870 55 58 37
37.1355 8.3654 -45.7334 0.041 -0.488 0.872 54 57 36
36.7234 6.8909 -45.8674 -0.815 0.549 0.185 84 81 57
36.2916 6.4296 -45.6847 -0.629 0.125 0.768 95 92 67
34.8525 4.8612 -45.0850 -0.549 0.763 0.341 58 76 44
35.2510 -1.3907 -47.2454 0.097 -0.376 0.922 66 74 84
35.3634 -1.5481 -47.3758 0.212 -0.246 0.946 72 80 90
33.7819 -2.6787 -46.5398 -0.041 0.530 0.847 76 84 87
32.4467 -4.0814 -45.9676 0.318 -0.163 0.934 110 120 99
32.8084 -4.2051 -46.2728 0.066 -0.388 0.919 97 109 87
27.8228 -8.5969 -43.8842 -0.120 -0.359 0.926 54 70 44
27.8396 -8.7605 -43.9455 -0.120 -0.359 0.926 54 70 44
24.8874 -19.9714 -45.0994 -0.023 0.953 0.303 51 71 37
25.4145 -20.9112 -45.7708 0.056 0.576 0.816 32 51 21
43.6801 34.8088 -42.9434 -0.740 0.123 0.662 57 59 75
43.2366 33.4484 -43.0198 -0.469 0.065 0.881 55 56 73
43.1674 33.2508 -43.0273 -0.462 0.107 0.881 58 59 78
43.1031 33.0562 -43.0376 -0.462 0.107 0.881 61 62 79
43.0388 32.8618 -43.0478 -0.462 0.107 0.881 62 64 77
42.2362 31.6017 -42.8264 -0.618 -0.740 0.265 50 51 56
43.2748 30.3341 -43.9801 -0.625 -0.459 0.632 49 55 51
42.6901 27.7728 -44.3105 -0.871 0.339 0.357 37 47 36
34.3927 13.1447 -42.5003 -0.903 -0.331 -0.273 31 42 25
34.4076 12.9955 -42.5561 -0.902 -0.343 -0.261 37 46 27
37.8316 12.1928 -45.3494 -0.636 0.452 0.626 53 62 33
37.7223 11.9877 -45.3293 -0.654 0.446 0.612 54 63 36
38.4117 12.0663 -45.8199 -0.973 -0.166 0.161 54 62 38
38.4291 11.9046 -45.8813 -0.973 -0.166 0.161 58 67 40
38.3854 11.7211 -45.9036 -0.775 -0.246 0.583 59 68 41
38.4146 11.5630 -45.9726 -0.855 -0.038 0.517 61 67 41
38.3396 11.3686 -45.9749 -0.855 -0.126 0.503 59 68 41
38.6689 11.1433 -46.2878 -0.079 -0.543 0.836 62 74 48
36.3539 8.5370 -45.3414 -0.847 0.269 0.458 72 75 54
36.5210 8.4225 -45.5003 -0.713 -0.383 0.588 72 75 54
36.7818 8.1677 -45.7710 0.030 -0.464 0.885 72 75 54
36.7659 7.9946 -45.8110 -0.055 -0.307 0.950 70 73 52
36.3393 7.6976 -45.5817 -0.163 0.058 0.985 70 73 52
35.8200 6.0361 -45.6917 -0.166 0.375 0.912 93 89 64
34.7568 4.9089 -45.2362 -0.556 0.747 0.364 58 77 47
34.4934 4.5063 -45.1602 -0.537 0.560 0.631 46 67 36
34.8193 -1.4001 -47.1705 0.254 0.202 0.946 66 75 81
34.7228 -1.5917 -47.1559 0.267 0.182 0.946 72 81 88
34.4970 -1.8046 -47.0512 0.267 0.182 0.946 75 85 89
31.7516 -3.4393 -45.4932 -0.333 -0.151 0.931 92 102 75
31.1359 -6.2402 -45.8722 0.364 -0.044 0.930 52 66 40
31.0048 -6.4249 -45.8297 0.364 -0.044 0.930 52 66 41
13.0970 -26.5732 -38.5051 -0.539 -0.583 0.607 58 68 42
29.9406 -65.3532 -62.6685 -0.129 -0.680 0.721 41 57 30
43.6133 33.7967 -43.4406 -0.419 -0.537 0.733 49 50 70
43.2952 33.4444 -43.3079 -0.507 -0.030 0.861 49 52 71
43.2396 33.0991 -43.3699 -0.495 -0.052 0.867 52 54 68
42.1294 31.6495 -42.9729 -0.539 -0.765 0.353 51 52 57
42.2710 31.5801 -43.0999 -0.550 -0.759 0.349 50 51 55
42.4112 31.5092 -43.2263 -0.530 -0.768 0.359 50 51 55
42.3921 31.3424 -43.2620 -0.598 -0.753 0.274 50 51 55
