ply
format ascii 1.0
element vertex 874
property float x
property float y
property float z
property float nx
property float ny
property float nz
property uchar diffuse_red
property uchar diffuse_green
property uchar diffuse_blue
end_header
-24.2729 -0.1685 -45.0162 0.677 -0.696 -0.239 70 73 56
-22.8810 0.4043 -43.9863 0.994 -0.007 -0.111 70 73 54
-23.1035 0.5858 -44.0863 0.910 -0.006 0.415 72 75 58
-22.6415 1.6547 -43.5364 0.160 -0.247 0.956 79 74 68
-17.3115 4.7589 -39.3768 0.667 -0.622 0.410 98 89 90
-18.5480 5.2563 -40.0535 0.847 -0.525 -0.082 110 105 111
-14.4621 14.1376 -35.3255 0.431 -0.004 0.902 78 67 61
-14.7698 14.4978 -35.4379 0.464 -0.030 0.885 74 63 57
-14.0785 14.9204 -34.8937 0.629 0.676 0.385 61 51 50
-14.0397 15.0793 -34.8312 0.568 0.769 -0.293 60 49 53
-12.6085 15.5589 -33.7980 0.914 -0.357 0.192 57 46 52
-12.5627 15.7117 -33.7324 0.914 -0.357 0.192 65 54 62
-12.7336 16.2072 -33.7249 0.379 0.732 0.566 91 80 84
-14.3166 17.2200 -34.5022 -0.129 0.701 0.701 69 59 60
-49.1918 24.9196 -55.0870 0.350 0.936 -0.033 72 69 52
-33.5212 24.1083 -45.2105 -0.003 -0.235 0.972 72 69 54
-37.5141 27.6555 -46.9361 0.063 -0.390 0.919 92 86 74
-36.2599 27.7903 -46.0984 0.890 -0.408 0.201 99 93 81
-36.3241 28.0135 -46.0868 0.903 -0.413 0.122 108 102 90
-36.0539 28.1582 -45.8789 0.895 -0.328 -0.303 106 100 88
-35.9020 28.3294 -45.7408 0.901 -0.293 -0.318 104 98 86
-37.6561 29.3780 -46.6196 -0.193 0.352 0.916 100 93 87
-36.5051 30.1307 -45.7018 0.262 0.681 0.684 120 112 109
-37.1740 30.5103 -46.0418 0.306 0.662 0.685 125 117 114
-37.4965 30.8023 -46.1798 0.306 0.662 0.685 132 122 120
-37.5164 31.0156 -46.1421 0.293 0.475 0.830 131 121 119
-37.6723 31.2651 -46.1832 0.402 0.458 0.793 123 113 111
-37.8100 31.5101 -46.2136 0.358 0.566 0.743 119 109 107
-40.8832 32.9828 -47.8396 0.987 0.056 -0.150 103 93 91
-40.9019 33.2027 -47.7995 0.754 0.645 -0.127 95 85 83
-41.2570 33.7322 -47.9023 0.754 0.656 -0.027 95 85 83
-37.6565 34.7635 -45.3447 0.574 0.790 -0.214 92 83 78
-38.4676 35.2186 -45.7582 0.580 0.783 -0.224 92 83 78
-39.1427 35.8417 -46.0444 0.839 0.213 -0.501 105 96 91
-36.1678 35.3056 -44.2599 -0.014 0.698 0.716 95 86 81
-37.5587 35.9519 -45.0005 -0.012 0.701 0.713 90 81 76
-42.6283 38.6496 -47.6191 0.615 0.656 -0.438 66 57 52
-35.7086 37.1301 -43.5329 0.790 0.345 0.507 58 49 47
-37.3613 37.8958 -44.4135 0.607 0.177 0.775 58 48 46
-38.8867 38.6247 -45.2210 0.177 0.379 0.908 57 48 45
-39.6420 39.0914 -45.5958 0.359 0.388 0.849 48 39 36
-40.6117 39.6368 -46.0897 0.304 0.525 0.795 49 39 37
-40.5483 39.8206 -46.0055 0.486 0.869 0.094 48 39 36
-40.6480 40.0621 -46.0123 0.446 0.893 0.054 48 39 36
-38.2240 54.3449 -41.0732 0.701 0.707 0.093 65 80 57
-40.2525 55.9840 -41.9885 0.447 0.866 0.224 59 75 49
-9.5806 -68.4637 -52.0036 0.740 -0.604 0.296 128 137 134
-8.5505 -66.5749 -50.8895 0.709 -0.604 0.364 123 132 129
0.7912 -37.7320 -38.0042 0.248 0.186 0.951 36 44 31
-3.4151 -29.4280 -38.7486 -0.136 0.195 0.971 53 62 57
-3.5733 -29.3487 -38.8320 -0.147 0.158 0.976 52 61 56
-2.2736 -26.3483 -37.2797 0.887 -0.442 0.136 54 65 48
-3.4925 -25.6635 -37.9044 0.874 0.124 -0.470 48 61 43
-17.3830 -26.8032 -47.1472 0.967 0.215 0.136 39 44 22
-18.1962 -26.5469 -47.6116 0.443 0.841 0.311 48 53 33
-19.1486 -21.7834 -47.0952 -0.122 0.346 0.930 134 121 113
-22.1647 -6.9949 -45.5305 -0.204 0.162 0.965 60 72 50
-22.4426 -6.8408 -45.6734 0.032 -0.409 0.912 60 69 50
-22.2484 -6.5862 -45.4875 0.089 -0.488 0.868 60 69 50
-23.9271 -3.0576 -45.7336 0.673 0.534 -0.511 64 76 40
-24.1433 -2.8778 -45.8306 0.673 0.534 -0.511 59 70 35
-24.5793 -2.7301 -46.0771 0.680 0.531 -0.505 59 70 36
-27.8720 -1.8860 -48.0034 0.600 -0.764 0.238 60 68 42
-27.5537 -1.1807 -47.6302 0.489 -0.817 0.308 59 68 42
-25.7714 -0.5290 -46.3243 0.801 -0.583 -0.135 65 68 48
-21.9306 0.3328 -43.6387 0.062 -0.413 0.909 65 68 49
-21.9266 0.5363 -43.5878 0.058 -0.407 0.912 65 68 49
-22.5437 1.2855 -43.8084 0.016 -0.262 0.965 67 69 55
-16.6899 7.1830 -38.6264 0.338 0.813 0.474 106 101 107
-15.9274 7.3737 -38.0886 0.140 0.833 0.536 106 101 107
-33.8723 10.0553 -49.0426 0.106 0.555 0.825 82 72 71
-14.7275 14.6986 -35.5736 0.480 -0.553 0.681 67 56 50
-13.8745 14.7751 -35.0045 0.640 -0.407 0.651 54 43 39
-13.9170 14.9426 -34.9921 0.588 -0.289 0.756 57 47 46
-13.5033 15.0603 -34.6970 0.794 -0.272 0.543 68 57 61
-12.4830 15.8994 -33.8386 0.893 -0.340 0.293 64 53 59
-12.6879 16.2414 -33.8898 0.382 0.724 0.575 74 64 65
-52.9949 25.8951 -57.6316 0.340 0.935 0.100 69 66 51
-55.0162 26.5075 -58.7917 0.322 0.947 0.011 66 63 48
-37.6540 27.3266 -47.3826 0.088 0.276 0.957 90 86 75
-36.0175 28.0067 -46.1640 0.825 0.236 -0.514 108 102 90
-36.0683 28.2263 -46.1446 0.825 0.236 -0.514 103 97 85
-35.9194 28.3984 -46.0076 0.904 -0.275 -0.327 97 91 79
-37.8259 29.9079 -46.8805 0.254 0.520 0.815 96 88 85
-37.6742 31.5425 -46.3942 -0.024 0.134 0.991 115 105 103
-40.9331 33.0687 -48.1366 0.987 0.056 -0.150 110 100 98
-41.1811 33.3531 -48.2292 0.742 0.660 -0.114 100 90 88
-40.5430 33.6023 -47.7579 0.768 0.640 -0.030 101 91 89
-34.8386 32.7782 -44.2691 0.205 0.857 0.472 88 79 74
-38.6224 34.7198 -46.2519 0.078 0.712 0.698 99 90 85
-37.4300 34.5621 -45.5192 0.255 0.694 0.673 98 89 84
-38.1942 35.0014 -45.9085 0.574 0.790 -0.214 98 89 84
-38.9307 35.4354 -46.2810 0.574 0.790 -0.214 98 89 84
-39.5559 36.2538 -46.4905 0.801 0.183 -0.570 106 97 92
-37.4801 37.8116 -44.7796 0.396 0.055 0.917 71 60 58
-38.3637 38.3172 -45.2303 0.972 -0.172 0.162 70 59 57
-38.6455 38.6173 -45.3410 0.181 0.374 0.910 70 59 57
-39.3487 39.0660 -45.6886 0.418 0.434 0.798 57 46 44
-39.9886 54.8109 -42.3619 0.950 0.296 0.096 67 80 58
-39.4804 54.7305 -42.0527 0.940 0.295 0.171 66 79 59
-39.3045 55.0098 -41.8728 0.941 0.307 0.142 67 79 59
-8.3723 -66.4262 -50.9916 0.728 -0.597 0.336 129 138 135
-0.4335 -28.7587 -36.8599 0.668 -0.146 0.729 44 57 47
-0.4864 -28.6138 -36.8597 0.908 0.091 0.409 41 54 44
-0.6793 -28.5735 -36.9753 0.542 0.824 0.163 41 54 44
-4.0129 -28.1335 -39.0350 0.815 -0.575 0.074 37 48 31
-2.2941 -26.3829 -37.5018 0.874 -0.473 0.114 51 62 45
-3.6118 -25.9492 -38.2541 0.864 0.382 -0.327 50 63 45
-18.3021 -25.4682 -47.6783 0.262 -0.528 0.808 80 76 57
-18.0037 -22.1677 -46.6979 -0.068 0.147 0.987 95 92 75
-18.2665 -21.8411 -46.7907 -0.071 0.146 0.987 106 100 86
-23.7174 -4.0685 -46.0946 0.258 -0.372 0.892 57 68 33
-25.5325 -0.4732 -46.4164 0.650 -0.757 0.067 58 61 41
-22.1041 1.5593 -43.7059 0.016 -0.260 0.965 62 59 51
-21.9384 1.7768 -43.5464 0.003 -0.149 0.989 66 63 56
-22.0394 1.9694 -43.5661 -0.009 -0.145 0.989 74 69 65
-19.9008 8.4822 -40.6253 0.363 0.932 -0.002 104 97 91
-34.0372 9.4288 -49.5789 -0.251 0.473 0.844 85 78 72
-13.9804 13.8408 -35.5040 0.042 0.778 0.627 77 66 60
-14.4096 14.5408 -35.6158 0.472 -0.037 0.881 77 66 60
-13.6464 14.7905 -35.0607 0.235 -0.456 0.859 78 67 63
-13.2369 16.0338 -34.4986 0.764 -0.628 0.145 61 50 56
-32.5252 24.4393 -45.0198 0.806 -0.432 -0.405 79 75 64
-35.7935 25.5122 -46.8863 0.193 -0.324 0.926 88 84 75
-35.8343 27.8209 -46.3626 0.863 0.137 -0.487 96 90 78
-36.7557 29.0813 -46.6605 0.310 0.286 0.907 103 96 89
-36.7589 29.2907 -46.6127 0.207 0.514 0.832 99 92 86
-37.1989 29.6086 -46.8227 0.206 0.505 0.838 98 90 87
-37.4604 29.8836 -46.9269 0.209 0.496 0.843 99 91 88
-38.3541 32.0054 -47.0015 -0.048 0.096 0.994 112 102 100
-41.2790 33.0208 -48.6588 0.979 0.146 -0.144 113 103 101
-41.6339 33.3358 -48.8142 0.923 0.052 -0.381 111 101 99
-41.5203 33.5209 -48.6963 0.940 -0.102 -0.327 104 94 92
-37.2173 34.1611 -45.7496 0.140 0.771 0.621 94 85 80
-38.1186 34.6393 -46.2209 0.133 0.838 0.530 104 95 90
-38.5713 34.9839 -46.4327 0.172 0.758 0.630 103 94 89
-43.1571 38.9840 -48.4571 -0.022 0.745 0.667 89 80 75
-44.7250 39.7273 -49.2981 -0.027 0.727 0.686 86 77 72
-38.2663 38.3595 -45.4302 0.970 -0.119 0.213 81 71 69
-38.6763 38.7045 -45.6142 0.446 0.473 0.760 80 70 68
-39.1578 39.0763 -45.8383 0.454 0.505 0.734 81 71 69
-39.6210 39.4435 -46.0515 0.567 0.824 0.012 79 69 67
-39.6280 54.9000 -42.3725 0.937 0.321 0.139 77 83 69
-38.0352 54.2414 -41.4952 0.969 -0.175 0.173 74 80 66
-37.9273 54.3673 -41.3951 0.970 -0.176 0.168 72 78 64
-3.9792 -62.2119 -47.3697 0.591 0.769 0.245 128 137 134
-3.9797 -61.9663 -47.3112 0.590 0.789 0.172 128 137 134
-4.7962 -62.8083 -48.0456 0.596 0.787 0.162 128 137 134
-7.7599 -65.4456 -50.6107 0.724 -0.601 0.338 77 86 83
-0.0992 -28.7155 -36.8279 0.673 0.392 -0.627 36 49 39
-0.4285 -28.7805 -37.0584 0.671 0.409 -0.618 33 47 34
-4.5629 -28.7329 -39.7458 0.589 -0.762 0.269 26 37 20
-1.9192 -25.7779 -37.3136 0.065 -0.017 0.998 47 58 41
-17.0295 -26.8659 -47.4370 0.023 -0.165 0.986 40 48 27
-17.1722 -26.7149 -47.4940 0.782 0.361 0.508 46 51 31
-17.1283 -22.2132 -46.3890 0.468 0.373 0.801 76 70 54
-18.6861 -19.8020 -46.8293 0.195 0.150 0.969 156 138 134
-21.8312 -10.3309 -46.6178 -0.150 0.367 0.918 50 64 38
-25.6192 -3.4925 -47.4553 0.688 0.543 0.482 52 66 24
-25.9119 -3.3194 -47.6050 0.684 0.623 0.380 52 66 24
-26.5161 -3.1923 -47.9690 0.539 0.837 0.097 46 60 18
-26.7760 -3.0104 -48.0952 0.539 0.837 0.097 46 60 18
-27.2522 -2.8591 -48.3699 0.496 0.853 0.161 46 60 19
-29.0746 -1.5386 -49.2437 0.560 -0.686 0.465 48 58 23
-21.8741 1.4072 -43.8392 -0.028 0.039 0.999 55 57 43
-14.8984 2.8142 -38.9494 0.203 0.945 0.257 73 69 63
-17.7090 3.7041 -40.5712 0.202 0.970 0.133 90 81 82
-18.1675 3.8616 -40.8328 0.189 0.957 0.218 89 80 81
-17.7376 4.2650 -40.4558 0.635 -0.356 0.686 87 78 79
-18.1668 8.1447 -39.8083 0.553 0.673 -0.491 89 84 81
-12.6807 13.4392 -34.9613 -0.169 0.689 0.705 76 67 60
-14.1469 14.3891 -35.6913 0.335 0.271 0.903 89 78 72
-14.2570 14.5648 -35.7211 0.481 -0.042 0.876 89 78 72
-14.2548 14.7293 -35.6803 0.467 -0.631 0.620 91 80 73
-13.1909 15.1045 -34.8962 0.394 -0.555 0.732 56 45 49
-13.1805 16.3867 -34.5828 0.720 -0.689 0.087 72 62 63
-33.5832 25.3259 -45.7634 0.176 0.620 0.765 89 85 76
-36.2926 26.0999 -47.3469 0.062 0.269 0.961 96 92 83
-37.1451 27.3432 -47.6061 0.064 0.243 0.968 91 84 74
-36.0914 28.1535 -46.7245 0.863 0.137 -0.487 103 97 85
-36.3937 28.4335 -46.8549 0.875 0.123 -0.468 107 101 89
-34.4766 28.9962 -45.4689 0.810 -0.375 0.450 103 96 90
-34.7610 29.2707 -45.5890 0.571 -0.316 0.758 104 96 93
-34.4382 29.3918 -45.3493 0.596 -0.219 0.773 103 95 92
-34.5370 29.6194 -45.3594 0.595 -0.216 0.774 107 99 96
-34.6542 30.0543 -45.3319 0.334 -0.015 0.942 107 99 96
-36.9080 31.4728 -46.4639 -0.099 0.436 0.894 103 93 91
-41.5511 33.1685 -49.0892 0.969 0.155 0.194 103 93 91
-35.3664 33.2723 -45.0273 0.235 0.725 0.648 100 91 86
-35.9866 33.6587 -45.3398 0.220 0.790 0.573 99 90 85
-36.9625 34.1555 -45.8580 0.131 0.765 0.630 98 91 85
-36.8584 37.7474 -44.9312 0.396 0.007 0.918 95 87 84
-38.1894 38.4089 -45.6419 0.964 -0.049 0.260 94 86 83
-38.4012 38.6850 -45.7142 0.894 0.276 0.353 93 85 82
-38.3289 38.8617 -45.6247 0.537 0.837 0.109 100 92 89
-39.1515 39.3551 -46.0437 0.534 0.846 -0.012 100 92 89
-34.6860 39.3114 -43.1393 0.874 0.191 -0.446 73 68 65
-38.5132 54.7705 -41.9412 0.979 -0.148 0.142 81 83 74
-38.5395 54.9690 -41.9109 0.389 0.671 0.631 77 80 69
-39.3484 59.2651 -41.4117 0.704 0.710 -0.002 48 64 38
-4.0895 -62.4417 -47.7327 0.527 0.829 0.188 130 136 132
-4.0852 -62.1888 -47.6693 0.497 0.843 0.208 131 137 133
-6.3196 -64.6655 -49.7296 0.361 0.666 0.653 134 140 134
-6.9341 -65.2228 -50.2664 0.252 0.868 0.427 134 141 135
0.9936 -33.2537 -37.3955 0.413 0.907 -0.083 37 49 39
-0.4617 -29.0171 -37.3341 0.670 0.417 -0.614 34 47 37
-0.6772 -28.9945 -37.4702 0.671 0.409 -0.618 32 45 35
-2.2792 -29.2484 -38.5822 -0.178 0.426 0.887 33 44 36
-7.3145 -31.7105 -42.4770 0.861 -0.483 -0.158 25 34 31
-4.9498 -29.2234 -40.3287 0.596 -0.778 0.200 27 38 23
-2.3798 -25.3640 -37.7164 0.318 -0.824 0.468 46 59 41
-20.5389 -10.1902 -45.9923 -0.049 0.490 0.870 45 59 33
-21.4571 -10.2188 -46.6016 -0.150 0.367 0.918 45 59 33
-22.0869 2.0228 -44.0783 0.426 0.769 0.478 55 56 45
-17.7031 3.7332 -40.7914 0.202 0.970 0.133 79 74 71
-17.9317 4.8457 -40.6745 0.479 0.704 0.524 87 81 81
-19.0392 5.5484 -41.2327 0.291 0.054 0.955 110 104 108
-17.8816 5.7812 -40.4172 0.898 -0.435 0.058 115 109 113
-17.4917 7.8156 -39.6734 0.514 0.732 -0.446 84 79 82
-30.3354 9.2447 -47.7584 -0.299 0.540 0.787 79 77 68
-15.9622 13.5845 -37.2859 0.667 0.743 0.050 76 67 60
-13.9526 14.4091 -35.7694 0.335 0.271 0.903 111 100 94
-14.0857 14.5869 -35.8141 0.481 -0.042 0.876 111 100 95
-14.0877 14.7515 -35.7759 0.471 -0.617 0.630 102 88 84
-32.6603 24.7884 -45.5553 0.853 -0.332 -0.403 71 68 59
-34.5712 26.4206 -46.4176 0.454 0.318 0.833 93 89 78
-35.8109 27.7362 -46.9155 0.883 0.055 -0.466 91 85 73
-36.2829 28.0545 -47.1489 0.890 0.072 -0.451 93 87 75
-33.8434 30.1079 -45.0555 -0.127 0.474 0.871 108 98 96
-35.0609 30.8362 -45.6797 -0.119 0.621 0.775 103 93 91
-36.0554 31.3095 -46.2187 -0.121 0.623 0.773 103 93 91
-33.4758 32.3848 -44.2681 0.224 0.887 0.403 100 91 86
-35.1564 33.2793 -45.1563 0.301 0.638 0.709 100 91 86
-35.4195 33.5584 -45.2620 0.304 0.624 0.720 100 91 86
-36.6343 36.5474 -45.3421 -0.041 0.730 0.682 115 106 101
-38.5719 37.3952 -46.4102 -0.043 0.729 0.683 115 106 101
-36.6123 37.7372 -45.0423 0.515 -0.026 0.857 119 109 107
-37.6012 38.2803 -45.5609 0.956 -0.069 0.284 119 109 107
-37.4005 38.4107 -45.3979 0.581 0.799 0.155 119 109 107
-38.0378 38.8357 -45.7142 0.508 0.857 0.089 115 105 103
-38.9906 39.3755 -46.2099 0.466 0.873 0.142 114 104 102
-29.0121 38.5109 -39.8695 0.269 0.908 0.322 52 47 44
-31.9247 41.4740 -41.0699 0.630 0.608 0.483 39 36 31
-32.6673 41.9636 -41.4398 0.538 0.681 0.497 38 35 30
-36.3188 44.0515 -43.3350 0.481 0.874 -0.068 37 33 30
-39.6088 59.5118 -41.7852 0.707 0.707 0.002 53 64 48
-40.1800 60.0273 -42.0363 0.702 0.712 -0.000 54 67 43
-39.7766 59.9746 -41.7842 0.634 0.763 -0.126 53 67 35
-40.9529 60.8479 -42.3466 0.628 0.768 -0.125 52 68 33
-4.7703 -63.1885 -48.5983 0.663 0.736 0.140 123 130 123
-4.9430 -63.1687 -48.7074 0.704 0.702 0.105 120 127 120
-6.1977 -64.5873 -49.8765 0.361 0.666 0.653 117 124 117
-6.7832 -65.1074 -50.3879 0.258 0.872 0.415 115 120 114
-7.0111 -65.1499 -50.5485 0.337 0.831 0.442 99 104 98
1.0127 -33.2710 -37.5834 0.416 0.905 -0.087 36 48 38
-0.8055 -29.3049 -37.8282 0.659 0.518 -0.545 34 47 37
-0.9279 -29.2103 -37.8862 0.659 0.518 -0.545 32 45 35
-4.7609 -29.1144 -40.3915 0.593 -0.777 0.210 34 45 30
-18.6547 -18.6841 -47.0460 0.355 0.007 0.935 141 123 113
-19.0884 -18.1930 -47.2138 0.340 0.764 0.548 144 119 112
-20.5454 -13.6461 -47.0806 0.195 0.635 0.747 52 61 37
-19.2843 -8.3761 -44.9804 -0.153 0.233 0.960 48 62 36
-17.9617 4.6866 -40.9641 0.563 -0.638 0.525 86 80 80
-17.8206 4.8816 -40.8242 0.479 0.704 0.524 86 80 80
-31.4413 9.5196 -48.6925 -0.294 0.584 0.757 75 75 63
-30.5676 24.4211 -44.5298 -0.086 -0.058 0.995 67 63 52
-35.8733 26.9783 -47.4142 0.082 0.243 0.966 90 83 73
-34.8867 29.8413 -46.0744 0.430 -0.131 0.893 109 101 98
-35.1884 30.1235 -46.2054 0.609 0.086 0.789 107 99 96
-33.6522 29.9229 -45.2404 0.742 -0.206 0.638 107 99 96
-33.2852 30.2243 -44.9258 -0.098 0.484 0.869 108 98 96
-33.7885 30.5591 -45.1772 -0.099 0.483 0.870 103 93 91
-33.7806 30.9560 -45.0764 0.655 0.001 0.755 103 93 91
-34.8015 33.2427 -45.1995 0.246 0.449 0.859 100 91 86
-35.1583 33.5497 -45.3610 0.250 0.448 0.858 101 92 87
-36.8784 34.4768 -46.2725 0.229 0.786 0.574 100 91 86
-37.2210 34.7862 -46.4240 0.094 0.733 0.673 101 92 87
-36.8488 36.8933 -45.6714 -0.033 0.742 0.670 115 106 101
-36.4983 37.7725 -45.2286 0.946 -0.187 0.265 119 109 107
-36.8654 38.0993 -45.3921 0.909 0.076 0.411 119 109 107
-36.8648 38.2983 -45.3438 0.538 0.776 0.329 119 109 107
-37.6015 38.7580 -45.7191 0.544 0.805 0.236 119 109 107
-34.9484 38.2077 -44.1015 0.527 0.844 0.099 119 109 107
-35.4283 38.5747 -44.3297 0.521 0.827 0.212 118 109 104
-35.9226 38.9490 -44.5657 0.664 0.732 0.153 118 108 106
-36.7166 39.6321 -44.9250 0.690 0.706 0.162 114 106 104
-38.1333 44.8987 -44.5920 0.257 0.871 0.419 40 36 33
-40.7624 47.4105 -45.7217 0.018 0.687 0.727 31 27 24
-62.5079 60.3822 -56.9437 -0.017 0.480 0.877 39 37 38
-41.9968 61.3728 -43.1757 0.637 0.644 -0.423 55 68 38
-4.5313 -63.2011 -48.6833 0.608 0.773 0.180 109 114 108
-6.2244 -64.7072 -50.1696 0.563 0.804 -0.194 81 86 80
-6.6814 -65.0570 -50.5571 0.258 0.872 0.415 73 78 72
-7.1893 -64.9494 -50.8679 0.710 -0.615 0.343 51 56 50
1.1009 -33.2280 -37.7114 0.393 0.910 -0.132 36 48 38
-5.8167 -30.2831 -41.5872 0.606 -0.778 0.165 27 34 27
-4.6731 -29.0761 -40.5375 0.601 -0.773 0.203 37 48 34
-4.0314 -28.4307 -39.9561 0.602 -0.771 0.209 39 50 34
-3.4161 -27.8086 -39.3979 0.592 -0.781 0.201 36 47 31
-15.5850 -25.9053 -47.0073 -0.048 -0.127 0.991 50 46 26
-16.7501 -21.8339 -46.7968 0.060 0.219 0.974 97 85 68
-16.8960 -21.6807 -46.8566 0.276 0.554 0.785 102 89 72
-17.0536 -21.5321 -46.9251 0.273 0.556 0.785 107 94 78
-17.7656 -19.4214 -46.8876 0.077 0.602 0.795 138 118 107
-17.9739 -19.2883 -46.9936 0.420 0.067 0.905 137 119 107
-18.1170 -19.1273 -47.0496 0.464 0.040 0.885 139 119 108
-18.2101 -18.9452 -47.0674 0.394 0.074 0.916 140 120 109
-18.4046 -18.8038 -47.1622 0.423 0.060 0.904 142 122 111
-18.4131 -18.5869 -47.1155 0.405 0.003 0.914 141 123 111
-18.0086 -18.2060 -46.7553 0.179 -0.210 0.961 141 123 111
-17.9652 -17.9704 -46.6696 0.176 -0.202 0.963 145 124 113
-17.9389 -17.7421 -46.5971 0.207 -0.158 0.965 149 125 115
-17.6354 -17.1904 -46.2626 0.082 -0.058 0.995 152 125 116
-19.7836 -14.0484 -46.9284 0.412 0.596 0.690 105 96 78
-20.1754 -13.9575 -47.1662 0.392 0.662 0.639 84 81 60
-20.5405 -13.8558 -47.3837 0.460 0.626 0.629 68 71 49
-19.9804 1.2782 -43.3581 0.535 -0.777 0.332 34 43 24
-21.6119 1.3144 -44.4312 0.429 0.484 0.763 34 43 24
-21.1015 1.7666 -43.9836 0.001 0.019 1.000 40 44 29
-18.3300 4.1285 -41.5755 0.222 0.966 0.134 92 86 86
-17.6824 4.9188 -40.9553 0.556 0.346 0.756 99 93 93
-17.7667 5.1017 -40.9670 0.574 0.344 0.743 96 90 90
-18.0164 5.2774 -41.0902 0.427 0.707 0.563 93 87 89
-16.8534 5.5138 -40.2619 0.457 -0.012 0.890 93 87 89
-18.9695 7.1245 -41.2762 0.288 0.131 0.949 104 100 101
-30.2075 9.5424 -48.1441 -0.007 0.958 0.288 70 70 58
-15.9365 13.6608 -37.6868 0.496 0.803 0.329 81 69 69
-13.9656 14.9821 -36.0609 0.547 0.098 0.831 64 50 50
-14.3595 15.5191 -36.1924 0.847 -0.145 0.512 48 37 41
-33.9505 27.4334 -46.3060 0.969 0.238 0.061 92 84 73
-34.0047 27.6502 -46.2896 0.969 0.238 0.061 93 85 74
-32.5952 27.7201 -45.3381 0.264 0.399 0.878 94 86 75
-34.6505 29.8463 -46.1875 0.430 -0.131 0.893 109 100 95
-35.0034 30.1418 -46.3502 0.609 0.086 0.789 107 98 93
-35.2180 30.4022 -46.4296 0.616 0.114 0.779 107 98 93
-33.1612 30.0579 -45.1489 0.481 -0.034 0.876 108 99 94
-34.7309 33.2911 -45.4091 0.246 0.459 0.854 100 91 86
-34.9476 33.5560 -45.4888 0.246 0.459 0.854 100 91 86
-36.9470 34.7737 -46.5205 0.093 0.731 0.676 100 91 86
-38.2982 35.6059 -47.2155 0.101 0.722 0.685 100 91 86
-35.8710 37.8266 -45.0699 0.111 0.124 0.986 119 109 107
-35.0854 38.3314 -44.4271 0.527 0.844 0.099 124 114 112
-35.4664 38.6636 -44.5995 0.472 0.865 0.171 124 115 110
-36.1592 39.1108 -44.9509 0.472 0.865 0.171 124 114 112
-36.9118 39.5829 -45.3359 0.527 0.845 0.088 120 112 109
-36.7869 39.7349 -45.2164 0.689 0.704 0.172 114 106 104
-35.2113 42.4181 -43.5238 0.814 0.576 0.076 49 46 41
-39.2339 44.4560 -45.6991 -0.194 0.365 0.911 48 45 40
-39.3332 44.6958 -45.7070 -0.171 0.385 0.907 47 44 39
-43.7898 52.9060 -46.6797 0.261 0.208 0.943 32 32 32
-4.4704 -63.2025 -48.8833 0.608 0.773 0.180 78 83 77
-6.3435 -64.6926 -50.4927 0.364 0.907 0.210 44 49 43
-0.9630 -25.2117 -37.3422 -0.051 0.083 0.995 34 45 29
-16.8767 -27.5183 -48.5081 0.411 -0.850 0.331 38 52 27
-15.1569 -26.3550 -47.0800 -0.088 -0.268 0.959 39 52 27
-16.3214 -22.3000 -46.8738 0.175 -0.285 0.942 134 118 102
-16.3891 -22.1119 -46.8733 0.112 -0.318 0.941 134 118 102
-16.3829 -21.8893 -46.8153 0.051 0.078 0.996 135 119 103
-16.5113 -21.7291 -46.8621 0.077 0.178 0.981 135 119 103
-17.0112 -19.7613 -46.7186 0.036 -0.046 0.998 148 134 123
-17.9559 -18.1844 -46.9663 0.232 0.275 0.933 141 122 108
-18.0600 -18.0069 -46.9926 0.232 0.275 0.933 148 126 113
-18.3590 -17.9052 -47.1673 0.288 0.299 0.910 157 130 119
-17.4624 3.4591 -41.3942 0.823 0.553 -0.131 45 48 34
-17.7063 4.9478 -41.1962 0.813 0.098 0.575 110 104 104
-16.9816 5.5390 -40.5699 0.946 -0.320 0.053 86 80 82
-18.0485 6.8018 -40.9751 0.189 0.501 0.844 116 112 113
-18.2417 6.9838 -41.0598 0.202 0.363 0.910 111 107 108
-19.0247 7.1570 -41.5397 0.074 0.367 0.927 104 100 101
-19.3583 7.3405 -41.7177 0.060 0.388 0.920 97 93 94
-17.9644 9.5628 -40.2502 0.324 0.758 0.566 65 65 53
-18.4534 9.7557 -40.5294 0.317 0.772 0.551 73 69 58
-18.6782 9.9445 -40.6335 0.324 0.770 0.550 76 69 61
-11.5332 13.6487 -34.9737 -0.117 0.716 0.688 100 85 88
-13.6441 14.6597 -36.1358 0.523 0.101 0.846 83 69 71
-13.7631 14.8361 -36.1724 0.259 0.122 0.958 73 59 59
-13.8597 15.0105 -36.1945 0.549 0.105 0.829 64 50 50
-13.7862 15.1663 -36.1078 0.704 -0.540 0.461 56 44 46
-13.9256 15.3457 -36.1573 0.743 -0.414 0.526 54 43 47
-13.8402 15.4996 -36.0631 0.737 -0.406 0.541 53 42 46
-14.3114 16.5386 -36.1255 0.775 -0.104 -0.623 70 58 62
-14.3487 16.8702 -36.0700 0.834 -0.184 -0.520 74 62 62
-34.5467 27.6357 -46.9248 0.912 0.353 0.206 89 81 70
-34.2266 27.9708 -46.6303 0.981 -0.183 -0.067 91 83 72
-33.3806 29.5823 -45.6760 0.340 -0.156 0.927 97 88 83
-33.5062 30.0158 -45.6547 0.456 -0.307 0.836 96 87 80
-33.8478 30.3072 -45.8118 0.419 -0.201 0.886 97 88 83
-34.4797 33.2852 -45.5116 -0.051 0.521 0.852 105 96 91
-37.7018 35.4917 -47.1247 -0.052 0.517 0.855 103 94 89
-35.0881 37.8220 -44.8180 -0.013 0.327 0.945 119 109 107
-35.8000 38.2705 -45.1839 0.001 0.290 0.957 126 116 114
-36.3478 40.0426 -45.1198 0.811 0.183 -0.556 105 97 95
-38.6757 41.5175 -46.3141 0.657 0.457 -0.600 105 97 95
-36.4699 42.2366 -44.6697 0.944 -0.317 0.096 73 70 65
-36.2167 42.3288 -44.4785 0.990 -0.056 0.126 72 69 64
-35.1617 42.0957 -43.8318 0.673 0.725 0.149 72 69 64
-34.8657 42.1660 -43.6175 0.793 0.604 0.077 69 66 61
-35.3504 42.5536 -43.8466 0.816 0.572 0.082 67 64 59
-38.2415 44.3254 -45.3445 -0.171 0.385 0.907 64 61 56
-5.6777 -63.6364 -50.0383 0.334 0.833 0.442 39 44 38
-5.2079 -62.7612 -49.5108 0.276 0.855 0.439 42 47 41
-5.6647 -63.1107 -49.9018 0.604 -0.592 0.534 42 47 41
-5.6569 -62.8468 -49.8324 0.588 -0.644 0.489 42 47 41
1.4157 -33.3970 -37.9362 0.741 0.660 0.125 59 68 59
-16.4861 -27.3180 -48.4531 0.413 -0.847 0.334 36 52 26
-16.0688 -22.8467 -47.0868 0.239 -0.294 0.926 138 126 104
-16.1352 -22.6583 -47.0855 0.215 -0.309 0.926 140 127 108
-16.0813 -22.4126 -46.9897 0.111 -0.330 0.937 140 127 110
-16.0487 -22.1776 -46.9108 0.111 -0.330 0.937 141 128 111
-16.0549 -21.9613 -46.8624 0.112 -0.318 0.941 144 128 112
-16.0677 -21.7484 -46.8191 0.106 -0.318 0.942 147 131 115
-17.2883 -18.5701 -46.8645 0.250 -0.141 0.958 148 126 115
-17.4927 -18.4352 -46.9687 0.323 -0.269 0.907 143 123 112
-17.8375 -17.9182 -47.0741 0.232 0.275 0.933 149 127 116
-27.1720 1.4794 -48.6138 0.119 0.400 0.909 32 36 21
-17.6583 3.2839 -41.8010 0.886 0.440 -0.146 38 42 27
-17.8047 3.4627 -41.8556 0.824 0.539 -0.178 39 42 28
-17.5343 4.9866 -41.3041 0.823 0.060 0.565 112 106 106
-16.9668 6.4911 -40.5582 0.567 0.823 0.035 119 113 115
-17.9052 6.8375 -41.1028 0.186 0.508 0.841 112 108 109
-18.2504 7.0167 -41.2905 0.213 0.357 0.909 105 101 102
-18.9662 7.1916 -41.7276 0.098 0.156 0.983 99 95 96
-26.4340 8.9428 -46.3054 0.069 0.965 0.252 54 56 43
-15.6796 13.7179 -37.9393 -0.105 0.244 0.964 81 69 69
-13.5016 14.6843 -36.2452 0.520 0.097 0.848 73 59 59
-13.9382 15.2232 -36.4067 0.986 -0.103 -0.132 59 47 49
-13.9335 15.3868 -36.3638 0.986 -0.089 -0.144 59 48 52
-14.6360 16.2938 -36.6141 0.776 0.068 -0.627 64 53 59
-34.0723 26.9730 -47.0411 0.946 0.252 -0.202 96 88 75
-34.2340 27.2155 -47.0905 0.982 0.086 -0.171 94 86 75
-34.2476 27.4244 -47.0488 0.996 0.087 -0.007 89 81 70
-34.2677 27.8398 -46.9614 0.980 -0.046 0.193 82 74 63
-34.1212 28.0099 -46.8219 0.985 -0.169 -0.047 86 78 67
-33.2480 29.0113 -45.9934 0.278 0.679 0.679 95 86 79
-33.0267 29.5553 -45.7129 0.383 -0.164 0.909 84 75 68
-33.6444 29.9175 -46.0387 0.537 -0.282 0.795 78 69 62
-33.3567 30.0419 -45.8158 0.468 -0.295 0.833 80 71 64
-33.5802 30.3018 -45.9024 0.399 -0.187 0.898 80 71 66
-32.8598 32.4744 -44.8917 0.400 0.600 0.693 105 95 93
-33.6212 32.8982 -45.2988 0.485 0.668 0.565 109 99 97
-33.9669 33.1999 -45.4571 0.477 0.669 0.570 114 104 102
-33.5910 33.2833 -45.1850 0.300 0.681 0.668 119 109 107
-33.9309 33.5843 -45.3395 0.300 0.681 0.668 119 109 107
-34.5131 33.9617 -45.6379 0.166 0.663 0.730 115 105 103
-35.5097 34.4707 -46.1819 0.622 0.539 0.567 114 104 102
-32.7322 34.1863 -44.3901 0.572 0.809 0.134 113 103 101
-35.1142 37.9057 -45.0821 -0.013 0.335 0.942 111 104 98
-35.3682 38.3876 -45.1352 0.698 0.619 -0.360 126 119 113
-36.0897 38.8438 -45.5077 0.681 0.563 -0.468 127 120 114
-36.5564 42.3505 -44.9681 0.878 -0.470 0.096 82 79 74
-36.5146 42.5280 -44.8970 0.965 -0.255 0.053 81 78 73
-35.9428 42.4904 -44.5230 0.128 0.409 0.904 81 78 73
-35.7418 42.6011 -44.3614 0.128 0.396 0.909 91 88 83
-38.1982 45.1743 -45.3818 -0.193 0.266 0.944 70 66 63
-37.0166 44.8646 -44.6654 0.112 0.778 0.618 68 64 61
-33.0646 45.1852 -41.9396 0.155 0.744 0.650 52 48 47
-34.0870 45.8314 -42.4676 0.126 0.758 0.640 51 47 46
1.8000 -33.8430 -37.9833 0.324 -0.663 0.675 45 52 45
0.4922 -33.8644 -38.8693 0.662 0.590 -0.462 44 50 44
0.3858 -31.2939 -38.3142 0.997 0.075 -0.029 56 65 60
-0.0144 -30.6770 -38.4333 0.635 0.386 0.669 46 50 49
-0.6449 -29.2882 -38.5193 0.012 0.637 0.771 39 49 38
-16.1436 -27.1439 -48.4347 0.413 -0.847 0.334 37 54 28
-14.4344 -25.3271 -46.8406 0.020 -0.268 0.963 100 95 73
-15.7066 -23.1188 -47.1589 0.040 0.099 0.994 131 119 95
-15.7508 -22.9204 -47.1403 0.047 0.091 0.995 126 114 92
-15.8478 -22.7474 -47.1634 0.221 -0.314 0.923 121 109 87
-15.9020 -22.5536 -47.1527 0.229 -0.286 0.930 134 121 102
-15.8010 -22.0670 -46.9661 0.215 -0.309 0.926 140 127 111
-15.8115 -21.8532 -46.9209 0.215 -0.314 0.925 140 127 110
-15.7912 -21.6254 -46.8518 0.097 -0.304 0.948 132 119 102
-17.2374 4.8450 -41.3713 0.690 -0.211 0.692 110 104 104
-17.6000 5.2011 -41.5287 0.982 -0.074 -0.175 95 89 89
-17.8164 5.3788 -41.6311 0.978 -0.013 -0.208 87 81 81
-17.6809 6.8749 -41.1750 0.186 0.508 0.841 103 99 100
-18.7714 7.2282 -41.8233 0.199 0.145 0.969 91 87 88
-26.4111 8.9822 -46.5409 0.043 0.964 0.262 47 49 36
-15.9253 13.0893 -38.4773 0.427 -0.652 0.627 82 70 70
-14.7771 13.3423 -37.6424 -0.115 0.265 0.957 80 68 68
-15.2119 13.7173 -37.8438 -0.104 0.256 0.961 83 72 71
-13.9544 15.4295 -36.5793 0.705 0.384 0.596 63 52 56
-14.6480 15.6750 -36.9866 0.806 0.138 -0.575 62 51 55
-15.2016 16.0741 -37.2622 0.823 0.033 -0.567 62 51 55
-15.1055 16.5616 -37.0786 0.818 0.044 -0.573 75 64 68
-14.8027 16.6873 -36.8439 0.878 -0.396 -0.269 78 66 70
-31.2745 26.0026 -45.6661 -0.236 0.240 0.942 86 80 66
-34.4360 27.3254 -47.4728 0.974 0.115 -0.197 101 93 82
-34.2553 27.4899 -47.3110 0.996 0.087 -0.007 90 82 71
-34.4149 27.7330 -47.3593 0.913 0.330 0.238 79 71 60
-34.2919 30.1545 -46.6859 0.346 -0.175 0.922 74 65 58
-33.4970 30.1452 -46.1529 0.441 -0.249 0.862 74 65 58
-33.0164 30.2164 -45.8118 0.712 -0.287 0.641 74 65 58
-34.2235 37.6640 -44.8088 0.849 0.515 -0.119 109 102 96
-36.5789 42.4391 -45.2308 0.887 -0.446 0.117 98 93 89
-36.6218 42.6510 -45.2080 0.882 -0.452 0.137 97 92 88
-36.4451 42.7737 -45.0591 0.014 0.038 0.999 98 93 89
-35.5613 42.6067 -44.5046 0.111 0.423 0.899 117 112 108
-35.7052 42.8574 -44.5404 0.125 0.417 0.900 120 115 111
-35.9726 43.1594 -44.6468 0.124 0.448 0.885 119 114 110
-33.2924 43.9035 -42.6603 0.630 0.726 -0.277 69 64 61
-40.5322 49.0463 -46.2822 0.532 0.845 -0.051 61 55 55
-125.8733 108.7802 -89.1934 0.185 0.768 0.613 136 146 135
-3.4867 -60.1572 -48.1964 0.197 -0.597 0.778 39 44 38
0.2502 -34.1117 -39.2950 0.598 0.725 -0.340 46 48 43
0.9861 -31.5782 -38.1770 0.344 0.117 0.932 42 52 44
-0.4331 -30.6622 -38.9137 0.776 -0.614 0.143 47 51 50
0.1024 -29.8618 -38.3554 0.812 -0.431 0.394 57 61 61
0.0658 -29.7034 -38.3414 0.980 -0.191 0.059 59 65 62
-0.0824 -29.6320 -38.4243 0.507 0.232 0.830 58 65 58
-0.2149 -29.3602 -38.4475 0.007 0.624 0.782 47 57 46
-0.4973 -29.2021 -38.6000 0.004 0.618 0.786 39 49 38
-13.9505 -25.7370 -46.8599 0.105 -0.109 0.988 49 63 38
-15.0576 -23.4652 -47.0536 -0.021 0.235 0.972 103 91 67
-15.1785 -23.3062 -47.0965 -0.020 0.241 0.970 107 95 71
-15.9688 -20.1874 -46.8686 0.667 -0.556 0.496 125 111 100
-16.6722 -18.3196 -46.8879 0.161 -0.058 0.985 130 108 97
-16.8338 -18.1688 -46.9604 0.209 -0.114 0.971 135 115 104
-16.9604 -18.0032 -47.0056 0.075 0.170 0.983 134 116 104
-17.0587 -17.8258 -47.0287 0.075 0.170 0.983 135 115 104
-16.6793 -15.9610 -46.3157 0.003 0.330 0.944 135 108 99
-17.9502 -12.7832 -46.3986 -0.037 0.223 0.974 53 62 38
-18.1435 4.0683 -42.4071 0.773 0.521 -0.361 75 69 69
-18.4635 4.2394 -42.5819 0.775 0.515 -0.366 92 86 86
-17.0019 4.8872 -41.4339 0.831 -0.181 0.527 110 104 104
-17.1753 5.0648 -41.5078 0.759 -0.158 0.632 110 104 104
-17.7268 5.4136 -41.7959 0.619 0.244 0.747 87 81 81
-17.3310 5.8031 -41.4326 0.905 -0.302 -0.300 87 81 83
-17.0259 5.9996 -41.1780 0.884 0.036 0.467 88 82 84
-17.1705 6.1797 -41.2318 0.917 -0.189 -0.352 89 83 85
-17.3192 6.3604 -41.2884 0.867 -0.112 -0.486 89 83 85
-17.6398 6.9084 -41.3713 0.521 0.853 -0.039 97 93 94
-19.1848 7.4448 -42.2860 0.536 0.843 -0.046 80 76 77
-19.8077 7.6279 -42.6629 0.801 -0.592 0.091 65 61 62
-15.9176 12.9547 -38.7263 0.568 -0.255 0.782 83 71 71
-30.5550 25.9031 -45.4679 -0.233 0.236 0.944 87 81 67
-34.4556 27.6004 -47.6933 0.964 0.257 -0.064 85 77 66
-34.2155 27.7504 -47.4941 0.946 0.056 0.318 77 69 58
-31.5703 27.9224 -45.6612 0.074 0.531 0.844 78 70 59
-34.0650 29.5528 -46.9513 0.250 -0.128 0.960 85 76 69
-34.2602 30.0098 -46.9716 0.310 -0.117 0.943 83 74 67
-34.3152 30.2273 -46.9556 0.318 -0.127 0.940 82 73 66
-34.4478 30.4657 -46.9871 0.310 -0.111 0.944 82 73 66
-33.4171 33.7619 -45.4830 0.298 0.767 0.568 118 108 106
-32.3121 33.8052 -44.7243 0.798 0.541 0.265 119 109 107
-32.5116 34.0618 -44.7966 0.651 0.664 0.369 120 110 108
-32.5528 34.2684 -44.7740 0.648 0.675 0.354 120 112 109
-34.3606 37.9809 -45.0896 0.318 -0.077 0.945 114 107 101
-34.5413 38.2400 -45.1486 0.296 -0.015 0.955 116 109 103
-34.6934 38.4892 -45.1905 0.299 -0.017 0.954 116 109 103
-34.0676 38.4548 -44.7753 0.135 -0.177 0.975 117 110 104
-33.8629 38.5721 -44.6081 0.201 -0.171 0.965 117 109 106
-34.6135 39.0416 -45.0013 0.267 -0.245 0.932 118 108 106
-36.3961 42.4453 -45.3755 0.906 -0.407 0.117 106 98 95
-36.5603 42.7061 -45.4228 0.882 -0.452 0.137 105 97 94
-36.3295 42.8067 -45.2420 0.015 0.039 0.999 105 97 94
-37.3775 45.9583 -45.1804 -0.195 0.120 0.973 84 76 74
-35.6673 45.7752 -44.0675 0.983 0.132 -0.131 71 63 61
-35.6486 46.3316 -43.9187 0.660 0.705 -0.261 74 66 64
-38.3831 47.7614 -45.4201 0.553 0.833 0.019 73 65 63
-39.9553 48.6728 -46.2615 0.531 0.847 -0.027 71 66 63
0.8632 -30.7755 -38.2620 0.262 0.220 0.940 45 49 48
-14.2566 -23.0741 -46.6606 0.051 0.230 0.972 81 69 45
-16.5887 -17.8538 -46.9663 0.067 0.152 0.986 141 123 110
-16.7950 -17.7203 -47.0740 0.075 0.166 0.983 143 123 110
-17.6833 -15.0365 -47.0197 0.043 0.756 0.653 153 129 119
-17.3868 3.3892 -42.2957 0.489 0.737 0.466 36 38 25
-16.8555 4.9247 -41.5572 0.969 -0.164 -0.188 111 105 105
-17.1598 5.0959 -41.7223 0.762 -0.241 0.600 110 104 104
-17.3093 5.2756 -41.7799 0.718 -0.025 0.695 96 90 90
-17.6986 5.4458 -42.0031 0.978 -0.103 -0.183 87 81 83
-17.4274 5.8308 -41.7240 0.904 -0.305 -0.300 87 81 83
-16.8846 6.0357 -41.3044 0.878 0.048 0.477 94 88 90
-17.2792 6.2079 -41.5306 0.918 -0.374 -0.133 96 90 92
-17.4267 6.3892 -41.5865 0.873 -0.176 -0.455 91 85 87
-19.2631 7.2885 -42.6154 0.873 0.115 -0.473 79 75 76
-19.4701 7.4756 -42.7104 0.870 0.141 -0.473 76 72 73
-19.8883 8.0433 -42.8556 0.807 -0.576 -0.133 49 45 45
-15.7198 12.9790 -38.8077 0.444 -0.150 0.884 80 69 68
-14.5488 16.5730 -37.1287 0.292 -0.367 0.884 78 67 71
-29.5715 25.1559 -45.2449 0.999 -0.045 -0.030 77 74 59
-32.4272 29.5937 -46.0989 0.351 -0.152 0.924 82 73 66
-32.9046 32.1022 -45.8081 0.972 -0.108 -0.209 89 79 77
-32.8837 32.6863 -45.6505 0.590 0.733 -0.339 82 72 70
-34.1992 33.4794 -46.3511 0.602 0.634 -0.486 88 78 76
-32.9558 33.4924 -45.5018 0.394 0.706 0.589 96 85 83
-33.1120 33.7366 -45.5481 0.475 0.709 0.521 105 95 93
-31.1754 35.2219 -43.8658 0.380 0.634 0.673 117 109 106
-34.6801 38.5595 -45.4315 0.289 -0.020 0.957 111 104 98
-34.0825 38.5350 -45.0308 0.218 -0.166 0.962 111 104 98
-36.2216 42.0659 -45.6199 0.142 0.397 0.907 112 104 102
-36.1617 42.2364 -45.5372 0.155 0.544 0.825 111 103 100
-35.6715 42.2330 -45.2045 0.157 -0.033 0.987 111 103 100
-35.7132 42.4427 -45.1814 0.012 0.073 0.997 111 103 100
-36.0507 42.7730 -45.3300 0.007 0.058 0.998 110 102 99
-35.4497 43.1030 -44.8400 -0.113 0.275 0.955 128 120 117
-35.5012 44.6491 -44.4957 0.426 0.586 0.689 120 112 110
-35.9123 45.0175 -44.6850 0.355 0.654 0.668 111 103 101
-36.0134 45.2520 -44.6962 0.733 0.353 0.581 97 89 87
-36.9257 45.8433 -45.1719 0.531 0.504 0.682 93 85 83
-35.6724 45.4818 -44.4078 0.978 0.143 -0.151 88 80 78
-35.4196 45.5587 -44.2169 0.662 0.388 0.642 84 76 74
-35.7053 45.8745 -44.3337 0.979 0.140 -0.147 80 72 70
-36.4880 46.6046 -44.6872 0.583 0.768 0.263 82 74 72
2.9388 -30.3640 -36.9397 0.738 -0.479 0.476 35 45 37
0.9629 -30.3513 -38.2881 -0.051 -0.162 0.985 37 41 40
-0.6935 -30.9276 -39.5629 0.709 -0.667 0.230 40 44 43
-0.2721 -30.4025 -39.1454 0.744 -0.629 0.225 40 44 43
-0.0129 -29.8208 -38.8249 0.977 -0.211 0.017 39 44 41
-0.0187 -29.6376 -38.7837 0.912 -0.031 0.410 35 42 34
-0.2884 -28.9081 -38.7886 -0.048 0.486 0.873 28 38 29
-2.1686 -30.1449 -40.3792 0.214 0.306 0.928 26 38 26
-14.1044 -23.0066 -46.7854 0.044 0.228 0.973 77 65 39
-15.6772 -20.2821 -47.1904 0.818 0.105 0.565 138 124 112
-15.7201 -20.0843 -47.1710 0.786 -0.194 0.587 140 126 117
-15.8050 -19.9049 -47.1849 0.559 -0.486 0.672 142 128 119
-15.6420 -19.4018 -46.9495 0.461 0.152 0.874 145 131 120
-16.9670 3.4485 -42.2293 0.719 0.490 0.493 35 38 27
-17.2108 3.8085 -42.3074 0.544 -0.060 0.837 40 39 36
-18.2071 4.1236 -42.9113 0.769 -0.404 0.496 73 69 70
-18.4814 4.2984 -43.0559 0.703 0.374 0.605 89 85 86
-17.1782 5.1254 -41.9609 0.885 -0.225 0.407 111 107 108
-17.5740 5.2944 -42.1899 0.625 0.586 0.516 102 98 99
-17.7709 5.4738 -42.2804 0.661 0.497 0.562 96 90 92
-16.9209 6.0658 -41.5533 0.781 0.089 0.618 107 101 105
-19.6308 8.0793 -42.9110 0.889 -0.023 -0.457 49 46 43
-13.2785 16.6089 -36.4658 0.837 0.404 -0.370 81 67 72
-29.9797 24.1146 -46.0411 0.554 0.818 -0.158 80 72 61
-31.1465 25.1554 -46.5829 0.657 -0.754 0.030 77 71 57
-31.2190 25.3717 -46.5793 0.622 -0.778 0.092 77 71 57
-30.9493 25.5139 -46.3598 0.668 -0.738 -0.092 78 72 58
-30.2513 25.5605 -45.8709 0.912 -0.040 -0.409 79 73 59
-30.5404 25.8224 -46.0041 0.988 -0.136 -0.071 79 73 59
-31.9424 32.2775 -45.3736 0.605 0.662 -0.443 89 79 77
-33.2675 32.8703 -46.1340 0.585 0.705 -0.400 85 75 73
-34.3069 33.9810 -46.5715 0.624 0.780 0.046 85 75 73
-34.6201 34.2779 -46.7126 0.935 -0.122 0.334 98 88 86
-31.2473 34.9379 -44.2431 0.036 0.794 0.607 102 94 91
-30.9078 35.2013 -43.9460 0.376 0.637 0.673 101 93 90
-31.6117 36.0086 -44.2287 0.345 0.907 0.241 112 104 101
-35.0522 41.4858 -45.2333 0.156 0.478 0.865 117 107 106
-35.7840 41.9705 -45.6145 0.142 0.479 0.866 117 109 106
-35.7719 42.1593 -45.5597 0.155 0.544 0.825 116 108 105
-35.3223 42.5554 -45.1547 -0.001 0.042 0.999 116 108 105
-34.4383 42.3838 -44.5923 -0.094 0.202 0.975 125 117 114
-33.9739 43.5078 -43.9979 0.066 0.658 0.750 144 136 134
-35.0492 44.5344 -44.4806 0.407 0.762 0.504 131 123 121
-35.8385 45.0673 -44.8893 0.538 0.777 0.326 123 115 113
-36.3815 45.4956 -45.1552 0.716 0.669 0.200 108 100 98
-36.4124 45.7005 -45.1259 0.527 0.594 0.608 105 97 95
-37.6493 47.4058 -45.5520 0.620 0.784 -0.002 92 84 82
0.5993 -31.9979 -39.1434 0.525 -0.214 0.824 51 61 53
0.8601 -31.4019 -38.8169 0.472 -0.342 0.812 42 51 46
0.9966 -30.9135 -38.6023 0.581 -0.331 0.744 39 48 43
-0.9027 -31.3162 -40.0076 0.758 -0.604 0.249 35 39 38
-0.7855 -31.0301 -39.8563 0.797 -0.598 0.086 35 39 38
-0.2849 -30.4414 -39.3667 0.749 -0.631 0.203 35 39 38
-0.1729 -30.1634 -39.2211 0.867 -0.482 0.126 35 39 38
-0.0165 -29.8516 -39.0365 0.976 -0.218 0.023 34 39 35
-0.0400 -28.9320 -38.8255 0.024 0.622 0.783 28 38 27
-0.0908 -28.7839 -38.8238 -0.048 0.486 0.872 27 37 28
-13.7428 -23.0503 -46.7933 0.062 0.284 0.957 84 74 46
-13.8954 -22.9109 -46.8638 0.054 0.333 0.941 88 79 50
-14.1236 -22.8081 -46.9953 0.016 0.229 0.973 95 84 56
-15.9421 -18.6685 -47.2229 0.094 0.605 0.791 154 137 129
-17.1930 -12.5197 -46.5639 -0.023 0.268 0.963 50 59 36
-16.6570 3.4995 -42.2381 0.689 0.534 0.490 35 38 27
-17.6377 3.9987 -42.7890 0.547 0.666 0.508 53 52 50
-18.1064 4.3506 -43.0243 0.518 -0.380 0.766 90 86 87
-17.0304 4.9760 -42.1300 0.963 -0.162 -0.217 113 109 110
-17.2263 5.1535 -42.2209 0.732 -0.175 0.658 120 116 117
-17.5895 5.3246 -42.4283 0.684 0.484 0.546 110 106 107
-17.4678 6.2658 -42.1122 0.818 -0.450 0.357 114 108 112
-17.6710 6.4466 -42.2071 0.892 -0.422 -0.161 110 104 108
-16.7547 6.6561 -41.5255 0.458 0.882 -0.111 102 96 99
-20.0368 7.7304 -43.5165 0.893 -0.436 -0.110 49 45 42
-14.2378 13.2841 -38.1577 0.525 -0.771 0.361 93 81 81
-30.9205 25.3678 -46.6421 0.674 -0.731 -0.110 77 71 57
-30.7427 25.5293 -46.4799 0.663 -0.744 -0.087 76 70 56
-30.2524 25.8188 -46.0714 0.924 -0.006 -0.382 73 67 53
-34.4024 33.6819 -46.9820 0.962 -0.260 0.087 84 74 72
-34.4858 33.9076 -46.9836 0.943 -0.152 0.297 84 74 72
-30.5683 34.7804 -44.0747 0.035 0.793 0.608 98 90 87
-30.6693 35.1904 -44.0428 0.390 0.635 0.667 94 86 83
-34.9638 41.7212 -45.3820 0.175 0.621 0.764 119 111 108
-35.4392 42.1048 -45.6141 0.180 0.555 0.812 118 110 107
-35.1165 42.1669 -45.3769 0.154 -0.035 0.987 116 108 105
-35.7416 45.1071 -45.0803 0.490 0.790 0.367 124 116 114
-36.3879 45.5812 -45.4075 0.690 0.693 0.210 117 109 107
-36.4521 45.8011 -45.3973 0.714 0.655 0.247 115 107 105
-35.8470 45.7240 -45.0003 0.800 0.506 -0.322 110 102 100
0.7976 -31.8633 -39.1747 0.506 -0.173 0.845 46 56 48
1.1161 -31.0326 -38.7487 0.581 -0.331 0.744 32 42 34
1.1443 -30.8223 -38.6771 0.581 -0.331 0.744 35 43 38
-1.0726 -31.6761 -40.4207 0.754 -0.615 0.232 27 31 30
-0.5985 -30.9106 -39.9034 0.796 -0.597 0.098 29 33 32
-0.0484 -30.0936 -39.3207 0.854 -0.496 0.156 29 33 32
0.1577 -29.7429 -39.0914 0.975 -0.208 -0.073 27 33 29
0.2344 -29.4952 -38.9770 0.986 -0.086 -0.141 24 31 24
-12.6945 -24.8873 -46.7693 0.459 -0.174 0.871 80 75 58
-16.2327 -14.3010 -46.5906 0.041 0.273 0.961 158 143 139
-16.0213 -12.5562 -46.0121 -0.129 -0.096 0.987 92 91 74
-16.5175 3.5379 -42.3662 0.700 0.530 0.479 35 38 27
-17.3401 3.8577 -42.8554 0.489 0.635 0.598 45 44 41
-17.5980 4.0307 -42.9907 0.526 0.637 0.564 59 58 56
-17.4987 5.3595 -42.5928 0.524 0.510 0.683 112 108 109
-17.6234 5.5423 -42.6336 0.524 0.510 0.683 108 102 104
-17.7483 5.7256 -42.6745 0.524 0.510 0.683 114 108 112
-17.1270 6.1221 -42.1469 0.331 0.341 0.880 123 117 121
-17.7037 6.2908 -42.5036 0.954 -0.006 0.298 121 115 119
-17.9519 6.4714 -42.6303 0.955 -0.127 0.267 113 107 111
-17.5281 6.8558 -42.2422 0.481 0.875 -0.048 100 96 94
-18.9967 7.2046 -43.1706 0.509 0.846 0.156 88 84 81
-19.9237 7.5744 -43.7195 0.421 0.858 0.294 70 67 62
-19.9460 7.7662 -43.6875 0.623 0.269 0.735 50 47 42
-14.8014 14.2171 -38.5335 0.611 0.791 -0.045 71 57 58
-32.2088 25.5023 -47.7657 0.564 0.825 0.035 78 70 57
-29.1441 25.6316 -45.6159 0.902 0.432 -0.003 67 59 46
-29.3000 25.8620 -45.6665 0.903 0.429 0.029 68 60 47
-29.9101 34.6289 -43.9153 0.035 0.793 0.608 98 90 87
-30.6235 35.2448 -44.2556 0.452 0.644 0.617 94 86 83
-32.1102 38.4098 -44.4986 0.935 -0.254 0.246 119 111 108
-32.1935 38.6294 -44.5017 0.907 -0.298 0.297 124 116 114
-33.7593 43.2008 -44.4507 0.768 -0.639 -0.044 135 127 124
-34.8742 44.8094 -44.8225 0.808 0.522 -0.274 134 126 124
-35.9513 45.6628 -45.3554 0.800 0.506 -0.322 123 115 113
-36.1609 45.9464 -45.4299 0.800 0.506 -0.322 118 110 108
-38.0505 54.4163 -44.6364 0.661 0.694 -0.287 38 33 30
-3.0870 -62.2453 -49.6290 0.921 0.049 -0.386 64 72 59
1.3788 -30.8457 -38.7195 0.724 -0.309 0.617 27 34 27
-1.0038 -31.2633 -40.4783 0.803 -0.587 0.106 24 28 27
-12.3973 -25.1693 -46.8767 0.307 -0.318 0.897 77 73 58
-12.3737 -24.9409 -46.8034 0.385 -0.242 0.890 102 94 81
-14.4372 -16.9899 -46.2597 0.831 0.526 0.182 143 128 125
-14.5383 -16.8205 -46.2878 0.831 0.526 0.182 142 127 124
-14.7029 -16.6757 -46.3661 0.325 0.218 0.920 143 128 125
-14.7837 -16.4974 -46.3779 0.357 0.194 0.914 144 129 126
-14.7363 -16.2691 -46.2882 0.845 0.507 0.172 144 129 124
-14.8342 -16.0973 -46.3135 0.845 0.507 0.172 143 130 124
-14.9323 -15.9252 -46.3388 0.845 0.507 0.172 143 130 124
-15.0305 -15.7528 -46.3642 0.845 0.507 0.172 145 132 126
-15.1289 -15.5801 -46.3895 0.845 0.507 0.172 145 132 126
-15.2172 -15.4033 -46.4069 0.943 0.313 -0.107 147 132 127
-15.2840 -15.2183 -46.4074 0.888 0.415 0.201 146 131 126
-15.4451 -15.0675 -46.4818 0.907 0.387 0.168 146 131 126
-15.6665 -14.5177 -46.4988 0.833 0.386 0.397 148 130 126
-15.7460 -14.3360 -46.5088 0.833 0.386 0.397 135 117 113
-15.7021 -14.1112 -46.4225 0.864 0.360 0.351 131 116 113
-17.6535 4.2469 -43.2131 0.797 -0.341 0.499 86 82 83
-16.7951 5.2348 -42.3712 0.824 -0.317 0.470 108 104 105
-17.4604 5.5802 -42.7475 0.487 0.510 0.709 108 102 104
-19.0589 7.2376 -43.4456 0.428 0.854 0.295 88 85 80
-19.9031 7.6095 -43.9395 0.408 0.862 0.302 65 62 57
-20.1634 7.9923 -44.0251 0.638 0.190 0.747 49 46 41
-13.6975 12.4766 -38.4190 0.429 0.149 0.891 67 63 51
-14.4197 13.8835 -38.5708 0.777 0.574 -0.258 77 65 69
-14.6764 14.0758 -38.7013 0.584 0.797 -0.154 72 60 63
-14.9965 14.2753 -38.8740 0.585 0.802 -0.124 71 57 59
-30.7905 25.4604 -47.0630 0.515 -0.853 0.092 66 58 45
-29.3224 25.9271 -45.9273 0.903 0.429 0.029 59 51 38
-29.4338 26.1482 -45.9496 0.906 0.423 0.024 58 50 37
-13.5962 27.8647 -34.5223 0.989 0.002 0.146 96 86 84
-29.7189 35.1919 -43.8990 0.349 0.905 0.244 99 91 88
-31.8851 38.5874 -44.5592 0.899 -0.301 0.318 124 114 113
-33.6061 43.0278 -44.6505 0.877 0.396 -0.272 128 120 117
-34.4016 43.5534 -45.0723 0.817 -0.572 -0.076 131 123 120
-34.2917 43.6953 -44.9607 0.817 -0.572 -0.076 138 130 127
-34.1823 43.8367 -44.8495 0.817 -0.572 -0.076 139 131 129
-31.7158 44.9511 -42.8593 0.986 0.009 0.167 128 120 118
-49.1639 61.4910 -50.8657 0.421 0.878 0.229 35 34 30
-2.7357 -61.1095 -49.3408 0.962 -0.032 -0.273 84 93 76
1.2228 -31.1935 -39.1143 0.647 -0.503 0.572 28 35 28
1.4120 -30.8490 -38.8963 0.650 -0.417 0.635 25 30 26
-13.7126 -26.5675 -48.3871 0.174 -0.739 0.651 41 52 33
-12.1465 -25.0444 -46.9138 0.313 -0.320 0.894 92 87 75
-14.0882 -17.2680 -46.3295 0.794 0.564 0.227 137 122 117
-14.3063 -17.1469 -46.4515 0.818 0.538 0.204 138 123 118
-14.4747 -17.0046 -46.5336 0.835 0.519 0.183 138 123 118
-14.7535 -16.4844 -46.5985 0.856 0.477 0.198 140 125 120
-14.8408 -16.3081 -46.6155 0.851 0.493 0.179 139 124 119
-15.0323 -12.4281 -45.7812 -0.148 -0.200 0.969 113 108 91
-16.5305 3.5936 -42.8304 0.694 0.502 0.517 36 39 30
-16.8858 3.7572 -43.0375 0.541 0.644 0.541 36 39 31
-17.4855 4.2868 -43.3242 0.824 -0.380 0.420 92 88 89
-19.1667 7.2701 -43.7536 0.424 0.852 0.307 87 84 79
-13.2051 12.3128 -38.3337 0.475 0.175 0.862 67 63 51
-13.4673 12.4982 -38.4704 0.456 0.191 0.869 67 63 52
-13.8445 16.8536 -37.6473 0.897 0.297 -0.327 64 48 52
-30.6920 25.4994 -47.2522 0.515 -0.853 0.092 72 64 51
-29.4270 26.0110 -46.2415 0.917 0.398 -0.024 68 60 47
-33.8048 37.2562 -46.4925 0.338 0.919 0.204 109 102 96
-24.9665 35.1864 -40.8385 0.827 0.554 0.096 118 111 105
-33.2653 38.6084 -45.7785 0.836 0.438 -0.331 119 110 104
-32.8523 38.6461 -45.4808 0.735 0.667 -0.121 119 110 105
-23.7538 35.4207 -39.9335 0.353 0.922 0.162 119 109 107
-30.2592 38.7823 -43.6365 0.456 0.889 0.033 125 115 116
-33.4341 43.0342 -44.7923 0.717 0.690 -0.098 123 115 112
-35.0047 45.0301 -45.3908 0.650 0.494 -0.577 139 131 129
-36.1548 45.7278 -46.0197 0.661 0.486 -0.572 136 128 126
-37.1668 46.3690 -46.5663 0.674 0.447 -0.588 133 125 123
-36.4899 46.2602 -46.1209 0.692 0.378 -0.615 129 121 119
-36.7042 46.5483 -46.1986 0.693 0.376 -0.615 125 117 115
-36.9183 46.8370 -46.2761 0.700 0.356 -0.619 121 113 111
-3.0030 -61.8018 -49.9406 0.925 -0.082 -0.372 93 102 85
-2.8331 -61.3238 -49.7017 0.920 -0.114 -0.376 89 98 81
-2.7418 -60.9540 -49.5452 0.916 -0.122 -0.383 86 95 78
-2.7746 -59.0419 -49.0896 0.823 0.175 -0.541 41 50 35
1.2371 -31.2129 -39.3097 0.632 -0.518 0.577 30 32 29
-12.9397 -22.8958 -47.1758 0.109 0.570 0.814 91 80 64
-13.0355 -22.7297 -47.2015 0.162 0.541 0.826 92 81 65
-13.0544 -21.0318 -46.7898 0.007 0.301 0.954 105 91 83
-13.1581 -20.8687 -46.8218 -0.008 0.435 0.900 109 94 88
-15.6001 -14.0656 -46.8326 0.838 0.385 0.385 158 140 136
-15.4397 -13.8009 -46.6539 0.632 -0.001 0.775 159 140 136
-15.4722 -13.6034 -46.6272 0.632 -0.001 0.775 160 139 133
-15.5324 -13.4154 -46.6225 0.640 0.003 0.769 165 141 133
-16.8439 3.7889 -43.2369 0.552 0.701 0.451 36 39 31
-19.1895 7.3040 -44.0030 0.416 0.863 0.286 83 80 75
-13.1215 12.3442 -38.4837 0.475 0.177 0.862 71 67 55
-13.3546 12.5278 -38.6013 0.497 0.170 0.851 69 65 53
-154.9144 37.9928 -131.5591 0.582 -0.357 0.731 57 52 44
-29.6936 26.3292 -46.6121 0.770 0.585 -0.257 80 72 59
-29.8570 26.5640 -46.6680 0.825 0.446 -0.346 78 70 57
-32.6543 36.7318 -46.0860 0.412 0.905 0.108 98 90 87
-33.9245 37.3725 -46.8170 0.353 0.919 0.178 99 91 88
-33.1988 38.6588 -45.9859 0.765 0.637 -0.093 107 98 93
-33.0460 38.7934 -45.8449 0.735 0.667 -0.121 108 99 94
-30.7658 39.0524 -44.1801 0.440 0.897 0.046 124 114 115
-32.3907 40.8096 -44.8805 0.264 0.836 0.481 124 114 113
-33.5207 42.9627 -45.1346 0.637 0.759 -0.130 112 104 101
-33.9838 43.3471 -45.3633 0.633 0.765 -0.122 117 109 106
-30.7536 44.8476 -42.7212 0.843 -0.376 0.385 128 120 118
-36.3311 49.3133 -45.5172 0.592 -0.530 0.607 122 117 114
-37.1767 56.4302 -44.3294 0.901 -0.319 -0.295 33 32 28
-37.2668 56.6635 -44.3342 0.910 -0.212 -0.355 32 31 27
-0.8438 -19.5664 -38.0541 0.851 0.516 0.094 40 56 34
-11.5211 -24.7265 -46.8800 0.089 0.208 0.974 99 93 79
-11.8104 -23.8164 -46.8555 0.489 -0.255 0.834 115 103 91
-11.8877 -23.4314 -46.8134 0.056 -0.073 0.996 117 103 90
-12.0495 -23.3031 -46.8952 0.140 0.643 0.753 119 105 94
-12.1909 -23.1635 -46.9599 0.118 0.679 0.725 121 107 98
-12.3996 -23.0578 -47.0806 0.153 0.671 0.725 124 110 100
-12.5963 -22.9447 -47.1908 0.148 0.625 0.766 117 105 93
-12.7477 -22.8076 -47.2632 0.109 0.570 0.814 116 104 93
-12.9140 -22.6774 -47.3478 0.156 0.526 0.836 116 103 95
-14.8321 -12.5545 -46.1588 0.938 0.248 -0.241 143 129 114
-14.8786 -12.3642 -46.1438 0.938 0.248 -0.241 116 109 93
-17.8482 5.2791 -43.8081 0.767 0.639 0.064 80 76 77
-17.6932 5.6652 -43.6019 0.938 -0.266 -0.221 91 85 87
-17.4548 5.8630 -43.3840 0.931 -0.296 -0.214 99 93 97
-17.3774 6.6165 -43.1403 0.632 0.718 -0.290 106 100 104
-18.1762 6.9749 -43.6136 0.467 0.877 0.113 104 100 98
-19.1329 7.3391 -44.1969 0.484 0.867 0.122 79 76 71
-13.0453 12.2083 -38.6809 0.478 0.560 0.676 74 70 58
-13.0704 12.3778 -38.6561 0.452 0.348 0.821 75 71 59
-13.2986 12.5613 -38.7710 0.458 0.162 0.874 76 72 60
-13.4441 12.7398 -38.8288 0.468 0.209 0.858 83 76 68
-13.5954 12.9193 -38.8904 0.471 0.236 0.850 113 103 103
-13.5379 13.9215 -38.5982 0.260 -0.456 0.851 84 72 76
-15.4504 14.2676 -39.8601 0.848 0.470 0.244 78 66 68
-29.9063 26.4394 -46.9990 0.770 0.585 -0.257 89 81 68
-30.1424 26.6921 -47.1021 0.828 0.438 -0.350 86 78 65
-61.0070 35.0154 -66.7797 0.561 0.827 -0.023 80 74 60
-29.3813 28.2682 -46.1696 0.627 0.662 -0.411 85 79 67
-34.1445 35.3532 -47.7499 0.443 0.896 -0.024 90 80 78
-36.1147 36.4047 -48.8754 0.942 -0.279 0.185 91 83 80
-32.4107 36.7193 -46.1841 0.301 0.923 0.241 97 89 86
-32.2056 40.4377 -45.1058 0.534 0.661 0.527 118 108 107
-32.7935 40.8604 -45.4143 0.282 0.496 0.821 118 108 107
-32.6764 41.0015 -45.2962 0.281 0.799 0.531 119 109 108
-34.4279 45.8782 -45.3070 0.963 0.269 -0.002 131 123 121
-34.4786 48.3182 -44.7301 0.600 -0.582 0.549 129 124 121
2.9302 -38.3356 -40.3066 0.694 -0.592 0.409 32 47 24
1.7772 -30.8245 -39.2318 0.182 -0.508 0.842 31 31 29
-10.9708 -24.8613 -46.7659 0.080 0.231 0.970 63 69 51
