ply
format ascii 1.0
element vertex 858
property float x
property float y
property float z
property float nx
property float ny
property float nz
property uchar diffuse_red
property uchar diffuse_green
property uchar diffuse_blue
end_header
112.9603 66.1008 -46.2960 -0.835 0.048 0.548 146 139 146
113.5887 66.1347 -46.4285 -0.854 0.051 0.518 155 148 155
-93.9440 219.5983 -28.7486 0.125 -0.987 -0.097 63 63 56
-57.3256 224.4066 -36.9600 0.179 -0.983 0.032 35 30 37
-50.1303 193.3077 -33.5194 -0.640 0.016 0.768 42 39 48
-29.8714 199.5831 -38.6325 0.404 -0.884 -0.237 49 38 46
-23.4268 198.9514 -39.8446 -0.460 0.021 0.888 119 111 126
-17.2354 209.2232 -42.7248 -0.064 0.005 0.998 132 116 127
-2.8015 193.7784 -43.2265 -0.703 -0.014 0.711 64 55 60
0.6494 173.8145 -40.7801 -0.041 -0.287 0.957 84 94 62
1.0277 173.3996 -40.7917 -0.059 -0.268 0.962 77 91 58
81.7184 93.1359 -44.5552 0.377 -0.924 -0.067 73 62 68
86.6992 89.9140 -45.0608 -0.481 -0.369 0.795 84 74 75
83.1252 86.0117 -43.7179 -0.832 -0.120 0.542 84 78 80
84.8642 86.6381 -44.1706 -0.694 -0.608 -0.385 82 76 78
85.3656 86.6373 -44.2726 -0.684 -0.615 -0.392 75 69 71
84.6442 85.6146 -43.9644 -0.832 -0.492 -0.256 53 44 47
84.3654 84.9669 -43.8055 -0.912 -0.401 -0.086 51 45 47
94.3377 89.3231 -46.5223 -0.605 -0.543 -0.582 72 75 58
94.2323 88.8129 -46.4204 -0.228 -0.578 -0.783 63 66 49
98.5134 88.3763 -47.2228 -0.652 -0.515 -0.556 77 92 63
112.0104 87.5443 -49.8387 -0.639 -0.190 0.746 84 96 77
103.4248 79.3029 -46.7914 -0.424 -0.376 0.824 74 78 81
123.3162 82.8066 -51.3925 -0.062 -0.928 -0.368 153 146 148
128.3691 85.5414 -52.8523 -0.498 -0.594 -0.632 155 150 152
-27.4607 203.4902 -40.2641 0.162 -0.701 0.694 55 45 56
-26.9473 204.2793 -40.4954 0.182 -0.699 0.692 61 51 62
-23.6892 196.5394 -39.9232 -0.460 0.021 0.888 113 105 120
-21.6757 187.2820 -38.8536 -0.490 0.030 0.871 92 81 95
-17.0160 207.2937 -43.0096 -0.093 0.026 0.995 143 127 138
-15.7059 200.8281 -42.2429 0.516 -0.363 0.776 125 109 118
-15.1759 201.2166 -42.4135 0.516 -0.363 0.776 133 118 124
8.6970 156.3745 -40.1209 -0.473 -0.451 0.757 54 73 45
21.0051 143.3032 -40.5470 0.285 -0.784 0.552 72 86 50
23.3910 141.3557 -40.7234 0.337 -0.933 0.124 79 94 61
55.0997 122.8018 -44.2412 0.024 -0.995 -0.097 71 86 57
55.6081 122.8355 -44.3506 0.074 -0.982 -0.174 82 97 68
59.0604 120.0706 -44.6144 -0.459 -0.410 0.788 65 76 42
66.2613 123.7567 -46.6775 0.710 -0.704 -0.006 73 89 53
79.7735 92.2791 -44.4041 0.527 -0.849 0.038 58 47 53
82.0561 93.4604 -45.0602 0.369 -0.926 -0.079 57 46 52
86.5889 89.8298 -45.4065 -0.501 -0.355 0.790 68 59 60
82.8763 85.8099 -44.0036 -0.820 -0.118 0.560 87 81 83
84.9928 86.7554 -44.5879 -0.694 -0.608 -0.385 78 72 74
85.5044 86.7624 -44.6937 -0.698 -0.601 -0.389 68 62 64
94.9307 89.3771 -47.0406 -0.228 -0.578 -0.783 56 59 40
104.2564 94.5699 -49.7796 0.035 -0.561 -0.827 76 86 56
91.8617 81.6755 -45.1802 -0.589 -0.047 0.807 85 101 63
94.7073 83.4355 -46.0440 -0.633 -0.098 0.768 84 100 65
93.4729 82.1100 -45.5794 -0.595 -0.109 0.796 84 100 65
115.0290 82.8741 -50.1117 -0.942 -0.240 0.233 95 97 96
131.9082 91.3662 -54.9240 -0.220 -0.921 -0.323 128 119 122
-53.3244 215.8974 -37.4851 -0.715 -0.192 0.672 42 39 48
-52.2296 212.4723 -37.1541 -0.835 -0.094 0.542 43 40 49
-51.5571 208.3577 -36.6243 -0.839 -0.096 0.536 43 40 49
-50.4607 204.0518 -36.1507 -0.760 -0.332 0.559 41 38 47
-48.8486 206.5557 -36.8887 -0.659 -0.188 0.728 60 57 66
-23.9460 194.1792 -40.0002 -0.460 0.021 0.888 113 105 120
-22.3708 185.3012 -38.8827 -0.671 0.022 0.741 66 58 73
-21.8320 181.2511 -38.3359 -0.653 0.029 0.756 100 88 101
-15.9448 199.4252 -42.4974 0.520 -0.363 0.773 119 104 112
7.9428 158.8122 -40.8156 0.225 -0.905 0.362 64 80 51
6.5687 152.0181 -39.4299 -0.105 -0.949 0.298 63 79 52
7.8810 155.2573 -40.2257 -0.097 -0.890 0.446 60 79 51
8.5887 156.2236 -40.5281 -0.573 -0.514 0.639 60 79 51
10.3337 146.9985 -39.3891 0.182 -0.790 0.586 60 73 45
11.7554 147.3995 -39.7466 0.172 -0.771 0.613 59 74 45
22.3061 135.4239 -39.9719 -0.662 -0.656 0.362 68 84 47
54.1333 122.8660 -44.4779 0.029 -0.997 0.070 87 102 73
54.8010 123.1420 -44.6600 0.192 -0.979 0.069 74 89 60
55.0868 122.8435 -44.6703 0.024 -0.995 -0.097 76 91 62
59.0343 120.0878 -45.0347 -0.507 -0.404 0.762 60 71 37
53.9197 71.6922 -36.1252 -0.329 -0.944 -0.008 71 64 80
81.6069 93.5253 -45.3637 0.338 -0.814 -0.472 57 46 52
83.1785 94.5047 -45.8460 0.353 -0.820 -0.451 57 46 52
67.1027 76.1944 -39.5672 -0.630 -0.537 -0.561 73 63 62
99.6893 89.2912 -48.3948 -0.655 -0.543 -0.525 77 94 51
111.4151 87.1279 -50.4549 -0.639 -0.190 0.746 74 86 67
102.9974 78.2686 -47.2854 -0.944 -0.287 0.165 101 103 102
112.0197 76.5168 -48.8563 -0.223 -0.771 -0.597 153 143 144
-52.2436 211.0047 -37.4299 -0.835 -0.094 0.542 50 47 56
-51.6186 207.7183 -37.0178 -0.836 -0.097 0.539 50 47 56
-30.9829 201.6663 -40.2865 0.107 -0.600 0.793 46 35 44
-22.1411 178.6106 -38.3171 -0.674 0.037 0.738 96 85 98
-18.7504 201.2927 -42.7534 -0.077 0.009 0.997 97 81 92
-7.1660 192.7592 -43.7425 0.012 -0.946 -0.324 127 110 120
7.8841 155.5154 -40.7198 -0.106 -0.889 0.446 65 84 55
8.8068 155.6375 -40.9306 -0.822 -0.539 0.186 65 84 56
9.1571 149.0934 -39.9253 -0.587 -0.797 0.145 61 77 49
10.1164 146.4819 -39.6935 0.092 -0.842 0.531 53 67 38
11.2102 147.2425 -40.0449 0.163 -0.758 0.632 55 68 40
12.7817 146.6972 -40.2799 -0.467 -0.217 0.857 60 76 47
13.1710 146.5480 -40.3358 -0.538 -0.241 0.808 60 76 47
20.7413 137.1069 -40.3457 0.361 -0.868 0.339 92 108 72
23.9494 140.7897 -41.6154 -0.539 -0.820 0.193 67 83 47
52.7915 122.3529 -44.5407 0.010 -1.000 0.008 86 101 71
53.2738 122.3567 -44.6410 0.010 -1.000 0.008 93 108 79
53.8570 122.5111 -44.7870 0.006 -1.000 0.010 99 114 85
65.6407 123.7148 -47.4209 0.362 -0.869 -0.338 72 87 51
27.0991 52.2517 -27.6854 0.667 -0.609 0.430 70 60 86
103.3429 78.1312 -47.7068 -0.948 -0.284 0.146 97 99 98
103.7798 78.0573 -47.7850 -0.945 -0.265 0.189 99 100 102
114.3235 82.7881 -50.7434 -0.488 -0.551 0.677 132 133 135
91.6197 65.9921 -43.2845 -0.912 -0.131 0.389 160 149 153
95.3069 56.0679 -42.4123 -0.386 -0.107 0.916 133 126 133
-74.0121 246.1871 -39.3007 0.030 -0.742 0.669 41 41 39
-55.4798 218.3018 -38.4937 0.297 -0.943 -0.153 40 37 46
-52.7663 210.7442 -37.7952 -0.621 -0.013 0.783 53 52 60
-52.1562 207.8242 -37.4343 -0.553 -0.003 0.833 53 52 60
-49.8505 205.2535 -37.4840 -0.383 -0.140 0.913 60 59 67
-49.3790 204.4402 -37.4461 -0.378 -0.149 0.914 64 63 71
-19.4476 199.9107 -42.9081 -0.072 0.011 0.997 85 72 81
-17.8847 196.2606 -42.6231 -0.063 0.005 0.998 88 75 83
9.1630 155.5534 -41.4439 -0.238 -0.904 0.355 66 85 53
9.5791 155.4434 -41.5120 -0.176 -0.903 0.393 61 80 48
9.8567 154.8432 -41.4694 -0.236 -0.914 0.331 61 80 48
9.2427 148.1157 -40.2183 -0.469 -0.860 0.199 53 72 38
12.2162 147.8846 -40.7974 -0.391 -0.265 0.881 47 64 33
20.5928 136.8676 -40.6977 0.352 -0.917 0.190 72 90 50
21.4483 137.9522 -41.0566 0.362 -0.921 0.143 65 83 44
37.8324 123.7127 -42.0824 -0.459 -0.888 0.004 78 93 62
62.2703 121.2488 -46.7480 0.580 -0.811 -0.069 78 93 60
65.8484 73.2223 -39.4704 0.257 -0.671 0.696 58 48 47
118.8680 85.7591 -52.5793 -0.066 -0.806 0.589 144 145 147
119.1812 85.5692 -52.6126 -0.085 -0.792 0.604 147 148 150
95.8738 69.0387 -45.0096 -0.907 -0.027 0.421 158 152 154
93.1812 66.6657 -44.0539 -0.291 -0.618 -0.731 156 147 150
93.4464 66.1954 -44.0304 -0.170 -0.712 -0.681 153 144 147
96.1092 65.9573 -44.5439 0.295 -0.515 0.805 152 143 146
96.6859 65.9969 -44.6703 0.289 -0.517 0.806 152 144 148
98.9746 66.4484 -45.2212 0.275 -0.482 0.832 147 142 146
97.4857 64.6059 -44.6041 -0.116 -0.312 0.943 147 142 146
92.2964 58.5626 -42.5167 -0.498 -0.541 0.678 136 129 136
-74.1312 246.2141 -39.8572 -0.022 -0.786 0.618 38 37 40
-35.6853 204.6067 -40.8395 -0.641 -0.562 -0.522 45 39 43
-29.7241 203.0629 -41.8228 -0.471 -0.016 0.882 52 44 64
-24.6843 187.3926 -40.2216 -0.460 0.021 0.888 88 84 85
-20.0097 194.6321 -42.4237 0.213 -0.153 0.965 91 78 85
-17.8692 192.5665 -42.5209 -0.065 0.001 0.998 118 105 112
-17.4685 191.9137 -42.4940 -0.065 0.001 0.998 124 111 118
-15.4544 197.4898 -43.8588 0.383 -0.453 0.805 130 117 124
-3.8715 162.1064 -40.2857 -0.423 0.019 0.906 120 116 114
12.3158 145.6101 -40.8724 -0.464 -0.214 0.860 55 69 43
20.7357 143.2124 -42.2245 0.342 -0.867 -0.362 64 85 46
22.6838 143.6132 -42.6992 0.398 -0.916 -0.048 71 89 49
37.9487 126.5192 -42.9920 -0.941 -0.334 -0.042 70 83 53
37.9865 124.9095 -42.7273 -0.944 -0.327 -0.040 70 83 53
37.3667 122.9403 -42.2645 -0.413 -0.910 -0.028 73 88 57
56.0928 118.1454 -45.3628 -0.359 -0.413 0.837 81 97 61
56.1557 117.5523 -45.2755 -0.388 -0.420 0.820 80 96 60
16.1740 35.9017 -23.1001 -0.213 -0.952 0.222 44 35 52
16.4840 35.9741 -23.1771 -0.240 -0.936 0.258 51 44 60
67.6730 77.1202 -40.8337 -0.841 -0.265 -0.471 48 39 40
113.7580 82.4100 -51.3527 -0.689 -0.205 0.695 145 144 144
95.5565 66.8812 -44.9223 0.508 -0.600 0.618 150 144 146
96.0240 66.2158 -44.9073 0.365 -0.567 0.738 152 143 146
95.0598 65.3028 -44.5513 0.404 -0.606 0.685 152 143 146
98.1655 63.7730 -44.9408 -0.567 -0.149 0.810 136 132 133
-55.6477 217.7893 -39.4341 0.310 -0.934 -0.178 48 47 53
-47.3500 203.1497 -38.6624 -0.517 -0.542 0.662 45 44 50
-46.0676 203.8448 -39.0509 -0.572 -0.512 0.641 52 51 56
-44.1179 195.8196 -38.0824 -0.175 -0.720 -0.671 51 49 54
-38.0591 204.5312 -40.8495 -0.957 -0.180 0.229 52 52 54
-34.8266 206.5159 -41.8686 -0.264 -0.742 -0.616 35 31 32
-33.9898 202.4452 -41.3454 -0.890 -0.417 0.186 38 35 37
-25.3026 186.0622 -40.3562 -0.826 0.059 0.560 48 46 45
-25.1350 182.1250 -39.7154 -0.460 0.020 0.888 89 85 84
-23.3345 177.4931 -39.2982 -0.633 0.006 0.774 19 19 17
-3.4334 150.1022 -38.7727 -0.275 -0.251 0.928 78 89 57
102.8974 348.2689 -95.1080 -0.704 -0.701 -0.115 65 83 43
22.7252 128.6295 -40.5765 -0.703 -0.711 -0.032 64 81 44
36.6175 124.1129 -42.7168 -0.964 -0.257 -0.064 63 76 46
36.2884 122.6694 -42.3999 -0.965 -0.258 -0.053 63 76 46
34.7074 118.9218 -41.4248 -0.287 -0.949 -0.127 63 76 46
36.7525 121.8937 -42.3642 -0.433 -0.901 0.028 67 82 51
51.2569 112.6059 -43.8139 -0.447 -0.839 -0.310 81 97 61
16.4876 35.9861 -23.3634 -0.260 -0.940 0.220 56 47 64
53.2556 70.3615 -36.9813 -0.424 -0.812 0.401 82 74 89
88.0711 91.5944 -47.9332 0.636 -0.771 0.033 74 65 66
114.6245 91.0297 -53.4091 -0.695 -0.595 0.404 81 79 74
79.8463 61.1077 -40.9734 -0.470 -0.451 0.759 148 144 145
114.0161 82.1927 -51.7644 -0.241 -0.595 0.767 148 145 146
90.4206 63.9616 -43.6826 0.489 -0.615 0.618 139 133 135
93.9861 65.5741 -44.7077 0.421 -0.605 0.676 146 140 144
93.4113 64.2781 -44.3646 0.410 -0.607 0.681 146 140 142
89.8949 56.8750 -42.3557 -0.930 -0.352 0.108 118 112 110
-51.1520 200.1996 -37.8530 -0.753 -0.368 0.545 49 50 55
-47.8948 203.5599 -39.1247 -0.563 -0.464 0.684 37 38 43
-45.7668 205.2241 -39.8632 -0.346 -0.615 0.708 46 45 50
-44.2230 196.3726 -38.6486 -0.175 -0.720 -0.671 49 48 53
-38.1541 204.4249 -41.3299 -0.957 -0.180 0.229 57 57 59
-35.4330 203.5147 -41.7455 -0.020 -0.214 0.977 49 45 46
-32.3284 199.8275 -41.7588 0.315 -0.779 0.543 41 39 52
-30.8833 201.9008 -42.4244 -0.475 -0.012 0.880 40 38 51
-25.7556 201.8020 -43.4888 0.305 -0.907 -0.290 63 72 69
-25.6346 189.0472 -41.2949 -0.827 0.071 0.557 71 73 70
-25.4804 184.6740 -40.5665 -0.827 0.071 0.558 47 46 44
-23.5968 175.2244 -39.3196 -0.640 0.009 0.768 36 36 34
-16.9154 173.7770 -40.4771 -0.086 -0.007 0.996 128 115 122
-5.8663 161.4322 -40.6597 -0.830 0.050 0.555 55 45 48
-3.8870 150.2111 -39.1248 -0.280 -0.241 0.929 78 89 58
-3.2321 149.4355 -39.1279 -0.280 -0.241 0.929 78 89 57
10.4432 145.5384 -41.3344 -0.526 -0.117 0.843 43 63 28
35.8513 121.1249 -42.4459 -0.400 -0.867 -0.297 58 71 41
36.7109 121.9011 -42.7623 -0.433 -0.901 0.028 62 77 46
16.4486 35.9571 -23.5339 -0.260 -0.940 0.220 62 54 69
86.3669 74.5790 -45.0024 0.448 -0.348 0.824 77 99 69
121.8540 94.3896 -55.9349 -0.527 -0.710 -0.468 135 129 131
132.8915 94.4959 -58.2816 -0.783 -0.526 -0.332 143 137 137
93.2565 65.4275 -44.8632 -0.958 0.058 0.281 139 134 138
93.1554 65.0495 -44.7761 -0.957 0.059 0.285 139 134 138
96.2774 64.7872 -45.3890 0.314 -0.495 0.810 108 107 103
97.4765 63.6557 -45.4451 -0.567 -0.149 0.810 104 103 99
97.4605 63.0363 -45.3339 -0.571 -0.160 0.805 105 104 102
90.7011 57.3332 -42.9158 -0.780 -0.494 0.384 103 100 93
99.5445 60.0763 -45.2585 -0.254 -0.379 0.890 88 85 78
-46.2720 204.2762 -40.1018 -0.513 -0.294 0.807 42 41 46
-45.8722 205.5352 -40.4086 -0.355 -0.618 0.701 41 40 45
-43.5216 199.2417 -39.7971 -0.427 -0.424 0.799 49 50 54
-32.8805 199.6280 -42.1211 0.516 -0.583 0.628 43 41 47
-30.3046 195.6491 -41.9656 -0.477 -0.005 0.879 45 42 48
-27.5999 187.1992 -41.0490 -0.276 -0.149 0.950 69 76 67
-19.9465 188.0498 -42.8214 -0.054 0.004 0.999 109 96 103
-17.2304 171.7214 -40.5180 -0.086 -0.007 0.996 133 120 127
-8.4820 174.7818 -42.9123 -0.446 -0.027 0.895 110 99 105
26.9031 124.8883 -41.6158 0.067 -0.935 -0.348 75 90 61
34.0918 117.9461 -41.9156 -0.472 -0.795 -0.381 58 71 41
16.2959 35.8182 -23.6608 -0.208 -0.965 0.159 66 58 73
53.4866 68.7673 -37.3552 -0.179 -0.897 0.405 77 74 84
68.8033 75.8195 -41.8459 0.652 -0.753 0.094 48 39 44
68.3423 69.5667 -40.6456 -0.897 -0.428 0.108 51 53 42
84.5909 64.8744 -43.2628 -0.207 -0.487 0.848 135 129 129
91.1818 64.4316 -44.5820 0.353 -0.343 0.870 128 123 127
92.2125 63.8342 -44.6951 0.136 -0.356 0.924 129 124 128
92.1301 63.4750 -44.6143 0.289 -0.500 0.816 128 123 127
94.8011 64.1912 -45.3068 0.388 -0.610 0.691 99 98 94
91.1732 57.5983 -43.3752 -0.863 -0.439 0.251 102 100 89
-51.2890 199.2962 -38.6538 -0.287 -0.093 0.953 17 18 23
-48.8961 202.3323 -39.7061 -0.207 -0.784 0.585 52 53 58
-48.1524 205.1877 -40.3747 -0.405 -0.230 0.885 41 42 47
-47.7009 204.8296 -40.4069 -0.318 -0.353 0.880 35 36 41
-46.1483 197.6973 -39.4634 -0.479 -0.356 0.803 34 33 38
-45.7043 197.1197 -39.4548 -0.479 -0.356 0.803 35 34 39
-45.2620 196.5441 -39.4462 -0.479 -0.356 0.803 34 33 38
-44.7926 194.9280 -39.2574 -0.434 -0.439 0.786 34 33 38
-44.3707 194.9557 -39.3523 -0.432 -0.446 0.784 41 40 45
-43.9559 195.3282 -39.5072 -0.101 -0.797 -0.596 42 41 46
-43.4956 193.6806 -39.3109 -0.445 -0.340 0.829 42 41 46
-38.3608 198.2819 -41.2270 0.399 -0.393 0.828 61 59 62
-31.2762 196.1431 -42.3543 -0.359 -0.050 0.932 67 65 67
-30.1100 191.7236 -41.8132 -0.379 -0.081 0.922 66 65 66
-28.3622 182.7034 -40.5739 0.271 -0.736 0.620 69 78 63
-25.9333 180.3711 -40.6747 -0.823 0.077 0.562 66 66 63
-19.7783 181.2384 -42.1410 -0.061 -0.035 0.998 119 106 113
-16.9694 170.9652 -40.9039 0.544 -0.381 0.748 139 126 133
10.4994 143.3228 -41.8175 -0.372 -0.208 0.905 61 79 47
22.5341 122.7242 -40.7012 -0.190 -0.795 -0.576 68 85 49
25.1441 122.0898 -41.1439 -0.116 -0.775 -0.622 71 86 57
25.5654 122.1006 -41.2356 -0.116 -0.775 -0.622 71 86 57
34.5950 118.1658 -42.4564 -0.257 -0.906 0.337 62 77 46
64.0067 101.0815 -45.6704 -0.092 -0.979 0.183 90 87 114
53.4951 68.7876 -37.6607 -0.363 -0.763 0.535 100 95 106
51.2410 64.9347 -36.4920 0.466 -0.844 -0.266 70 68 71
66.0765 76.9137 -41.7932 -0.797 -0.539 -0.275 53 53 55
65.4121 75.1555 -41.3375 -0.747 -0.428 -0.508 39 30 33
65.2968 74.2907 -41.1584 -0.826 -0.410 -0.388 56 47 50
81.5453 70.6906 -43.9771 -0.200 -0.375 0.905 87 98 79
82.2161 70.8346 -44.1458 -0.202 -0.387 0.900 113 124 106
82.6235 70.4401 -44.1621 -0.256 -0.372 0.893 121 134 114
84.1463 65.2098 -43.5520 0.341 -0.342 0.876 132 128 127
85.3843 65.7209 -43.9071 0.185 -0.197 0.963 128 124 121
84.2695 64.6574 -43.4795 -0.192 -0.494 0.848 126 120 120
82.9812 63.4858 -42.9957 -0.294 -0.417 0.860 124 118 118
82.6131 62.9314 -42.8182 -0.344 -0.402 0.849 121 115 115
91.4278 63.3420 -44.7697 0.136 -0.356 0.924 118 113 119
92.8224 62.0664 -44.8389 0.300 -0.546 0.782 100 99 95
91.8715 57.9940 -43.9086 -0.319 -0.560 0.765 103 101 89
-84.8234 248.2324 -40.8255 -0.627 -0.456 0.631 44 50 46
-52.1681 198.4458 -38.8058 -0.320 -0.105 0.942 32 33 38
-51.6795 197.2278 -38.6899 -0.320 -0.105 0.941 28 29 34
-49.5061 195.3924 -38.8231 -0.546 -0.837 0.027 29 30 35
-48.9773 202.0316 -40.1381 -0.207 -0.784 0.585 43 44 49
-46.1979 196.4233 -39.7181 -0.477 -0.372 0.796 33 32 37
-45.7610 195.9955 -39.7342 -0.475 -0.367 0.800 34 33 38
-45.3332 195.8449 -39.7985 -0.479 -0.356 0.803 34 33 38
-41.0720 197.0260 -40.9247 0.393 -0.605 0.693 54 54 56
-40.1967 195.8846 -40.9056 0.394 -0.601 0.695 61 61 63
-39.7625 195.6413 -40.9545 0.388 -0.598 0.702 63 63 65
-39.3289 195.6584 -41.0504 0.391 -0.707 0.590 62 62 64
-36.6597 200.4050 -42.4811 -0.002 -0.228 0.974 85 81 82
-34.8554 200.5577 -42.8951 -0.909 -0.246 0.336 81 76 80
-31.4420 194.0244 -42.4434 -0.404 -0.111 0.908 80 79 75
-25.3290 177.9322 -40.8395 -0.496 -0.171 0.851 118 117 115
-23.5495 184.5226 -42.4134 0.427 -0.510 0.747 88 85 86
-18.0399 165.9933 -40.2392 0.568 -0.374 0.733 139 126 133
-17.1718 169.8931 -41.1309 0.548 -0.380 0.745 139 126 133
-9.7684 173.2716 -43.3277 -0.130 -0.943 0.306 124 113 119
-3.1456 145.1353 -39.6528 -0.474 0.005 0.881 72 86 53
23.6725 122.6116 -41.3182 -0.849 -0.504 -0.161 71 86 57
25.2425 122.4101 -41.6179 -0.077 -0.806 -0.587 64 79 50
34.3834 117.0691 -42.6084 -0.198 -0.942 0.271 69 84 53
45.0523 115.1070 -44.5377 -0.366 -0.930 0.019 78 95 61
43.3070 111.6604 -43.5401 -0.073 -0.972 0.224 79 96 62
43.6046 111.4401 -43.5639 -0.094 -0.971 0.217 79 96 62
44.0075 111.3839 -43.6400 -0.094 -0.971 0.217 79 96 62
44.3179 111.1839 -43.6703 -0.071 -0.972 0.223 80 97 61
48.0707 63.7335 -35.8847 0.170 -0.857 -0.486 106 100 111
48.7609 64.0341 -36.0869 0.131 -0.847 -0.515 100 97 104
65.6213 75.3520 -41.7458 -0.745 -0.428 -0.512 34 25 28
65.6911 75.0301 -41.7025 -0.826 -0.351 -0.442 44 35 38
65.7979 74.7423 -41.6733 -0.826 -0.351 -0.442 62 53 56
69.0008 70.4675 -41.5853 -0.327 -0.713 0.620 54 55 47
83.6497 65.1920 -43.7671 0.394 -0.364 0.844 125 119 119
84.2388 64.6344 -43.7923 0.266 -0.213 0.940 110 104 104
80.3078 59.9028 -42.0941 -0.439 -0.668 0.601 119 113 113
82.2931 60.8914 -42.6981 0.449 -0.813 0.371 122 116 118
90.1704 62.8616 -44.7415 0.235 -0.378 0.895 112 107 111
89.9282 62.4063 -44.6072 0.229 -0.407 0.884 111 106 112
-85.5482 249.0776 -41.3980 -0.597 -0.421 0.683 49 55 51
-54.8016 205.0251 -39.9372 -0.606 -0.018 0.796 48 49 54
-52.8827 195.2311 -38.5543 -0.568 0.001 0.823 41 42 47
-51.2868 196.0025 -39.0392 -0.298 -0.145 0.944 36 37 42
-50.0055 195.2547 -39.1778 -0.669 -0.735 0.108 25 26 31
-49.6004 195.4384 -39.2987 -0.546 -0.837 0.027 18 19 24
-49.1785 195.3022 -39.3645 -0.535 -0.845 0.013 20 21 26
-48.6261 201.6624 -40.6495 -0.225 -0.771 0.596 35 36 41
-44.4215 189.9325 -39.4036 -0.300 -0.261 0.918 41 39 44
-41.5893 196.3801 -41.1952 0.393 -0.605 0.693 49 49 51
-40.7179 195.5639 -41.2331 0.385 -0.595 0.705 57 57 59
-36.7813 197.5873 -42.4512 0.448 -0.376 0.811 76 74 75
-35.4186 199.4284 -43.0820 -0.864 -0.421 0.276 81 77 79
-35.2901 182.0369 -39.9209 0.492 -0.677 0.547 81 77 79
-22.5149 181.9981 -42.6628 0.452 -0.547 0.705 75 68 70
-14.0892 171.2084 -42.4976 0.464 -0.384 0.798 134 121 129
-13.6211 171.4703 -42.6464 0.321 -0.331 0.887 129 116 124
-13.1567 171.6894 -42.7865 0.529 -0.412 0.742 129 116 124
-10.3733 172.7230 -43.5749 -0.060 -0.970 0.234 125 114 120
-9.9664 172.4835 -43.6186 -0.062 -0.967 0.248 124 112 119
-3.3066 144.6963 -39.9568 -0.080 -0.212 0.974 73 85 55
22.0179 122.7099 -41.3751 -0.774 -0.533 -0.341 57 73 39
22.3164 122.4531 -41.3922 -0.793 -0.525 -0.310 57 73 39
31.8715 113.2993 -41.7700 0.011 -0.995 -0.097 73 88 58
34.8846 117.2831 -43.1488 -0.716 -0.619 0.323 74 89 59
49.1817 64.4370 -36.5359 0.150 -0.965 -0.215 92 90 96
49.8199 64.6841 -36.7185 0.244 -0.851 -0.465 86 86 88
50.5488 65.0120 -36.9355 0.244 -0.851 -0.465 76 76 76
51.1885 65.2542 -37.1176 0.328 -0.852 -0.409 65 66 68
65.7298 76.2341 -42.2599 0.161 -0.725 0.669 50 48 49
65.9059 75.6156 -42.1844 -0.450 -0.667 -0.593 34 25 28
66.1693 75.4636 -42.2132 -0.450 -0.667 -0.593 44 35 38
68.6510 70.5436 -41.8451 -0.508 -0.405 0.760 41 39 34
68.8207 70.3269 -41.8419 -0.327 -0.713 0.620 55 55 47
78.0648 76.3393 -44.9336 -0.892 -0.341 0.296 64 66 54
78.5023 76.3126 -45.0228 -0.891 -0.354 0.284 74 76 63
79.1204 76.4287 -45.1771 -0.883 -0.348 0.315 74 76 63
71.4952 66.5879 -41.7319 -0.636 -0.472 0.611 81 85 74
77.6921 64.9175 -42.7591 -0.416 -0.219 0.882 150 144 147
82.0646 63.8059 -43.4962 0.365 -0.349 0.863 107 98 101
83.1101 64.1931 -43.7922 0.207 -0.206 0.956 99 90 93
82.5674 63.5169 -43.5514 0.300 -0.206 0.932 91 82 83
84.1740 62.4102 -43.6942 0.442 -0.722 0.532 127 118 119
83.8566 61.8993 -43.5322 0.426 -0.790 0.441 129 123 123
83.2677 61.2163 -43.2803 -0.322 -0.462 0.826 133 127 129
90.0843 60.9927 -44.7062 -0.866 0.076 0.494 96 95 91
89.5166 60.0568 -44.4124 -0.852 0.050 0.521 88 87 83
-85.0367 253.5318 -42.9111 -0.609 -0.485 0.627 44 50 46
-84.7141 254.4173 -43.1453 -0.268 -0.641 0.719 40 46 42
-105.4834 463.8806 -77.5507 -0.821 -0.397 -0.411 51 51 61
-56.4730 179.9526 -35.4247 -0.985 -0.173 0.026 45 40 50
-43.1239 182.9844 -38.8745 -0.153 -0.442 0.884 38 40 41
-41.2387 195.4060 -41.5889 0.388 -0.602 0.698 54 54 54
-40.7973 194.1775 -41.4562 0.435 -0.644 0.629 58 58 58
-38.2099 194.3664 -42.0508 0.404 -0.667 0.625 71 70 68
-37.7738 194.6772 -42.2028 0.406 -0.664 0.628 71 70 68
-34.1990 197.6429 -43.5266 0.320 -0.800 0.507 77 79 69
-33.7439 197.9143 -43.6754 0.512 -0.625 0.589 76 77 65
-26.3929 170.8053 -40.2310 -0.822 0.053 0.567 66 73 65
-26.0275 164.4460 -39.1291 -0.816 0.051 0.576 85 87 80
-24.3922 170.1653 -40.5448 0.229 -0.160 0.960 101 97 89
-16.2310 168.4251 -41.9866 0.500 -0.389 0.774 139 123 133
-14.2007 170.9501 -42.8945 0.320 -0.337 0.886 137 121 133
-13.7859 170.8177 -42.9597 0.322 -0.333 0.886 132 119 130
-10.5384 172.1397 -43.9074 -0.016 -0.999 -0.041 124 108 119
-10.1620 171.7078 -43.9086 -0.020 -0.999 -0.028 125 109 120
4.8539 144.8724 -42.1726 0.019 -0.936 -0.350 70 86 50
5.3866 145.2923 -42.3658 -0.005 -0.930 -0.369 70 86 50
14.5244 124.2716 -40.4384 -0.621 -0.742 -0.254 67 80 48
17.9184 132.1568 -42.6366 -0.577 -0.567 0.588 67 80 48
18.1325 131.6170 -42.5827 -0.576 -0.570 0.586 67 80 48
41.0708 108.9417 -43.3325 -0.007 -0.774 0.633 68 83 54
41.6248 109.1386 -43.4888 -0.574 -0.811 0.108 68 83 54
45.1892 104.7763 -43.4496 -0.472 -0.674 0.567 94 112 72
45.3886 104.4415 -43.4305 -0.478 -0.670 0.567 88 106 68
45.6685 104.2245 -43.4508 -0.478 -0.670 0.567 83 101 63
53.1133 68.8315 -38.4883 -0.434 -0.711 0.553 91 82 99
50.8975 65.3449 -37.3617 0.244 -0.851 -0.465 86 88 87
66.3296 76.0029 -42.6782 -0.459 -0.658 -0.597 33 24 27
66.7026 75.9461 -42.7483 -0.440 -0.666 -0.602 44 34 38
66.9695 75.7953 -42.7780 -0.448 -0.661 -0.603 63 53 56
68.5361 74.1095 -42.8037 -0.688 -0.702 -0.184 56 46 47
68.8322 71.0561 -42.3008 -0.418 -0.761 -0.496 48 43 40
78.0319 75.9423 -45.1976 -0.888 -0.343 0.307 80 82 70
79.0106 75.9710 -45.4146 -0.864 -0.219 0.454 80 82 70
74.1462 68.9531 -43.0594 -0.660 -0.729 0.181 77 83 75
71.5951 66.6671 -42.0832 -0.614 -0.533 0.581 86 92 84
70.5808 65.5642 -41.6591 -0.581 -0.491 0.649 92 98 90
67.8194 63.1486 -40.6133 -0.466 -0.487 0.739 97 104 96
68.3871 63.2574 -40.7563 -0.361 -0.603 0.711 105 111 104
75.3442 67.4815 -43.0452 0.451 -0.388 0.803 124 116 120
74.6444 66.6285 -42.7355 0.356 -0.261 0.897 129 119 125
77.2983 66.9189 -43.3633 0.280 -0.213 0.936 130 121 129
78.9488 67.4496 -43.8188 0.411 -0.351 0.842 131 122 128
79.5156 67.5247 -43.9553 0.414 -0.355 0.839 131 123 126
77.4594 64.7529 -42.9959 -0.308 -0.159 0.938 134 128 130
77.3482 64.3545 -42.8979 -0.313 -0.151 0.938 135 129 131
77.5470 61.0695 -42.3309 0.136 -0.987 0.081 114 108 108
78.0198 61.0845 -42.4359 0.110 -0.992 0.065 105 99 101
81.9151 63.3905 -43.7065 0.207 -0.206 0.956 97 91 93
83.1476 62.3507 -43.7800 0.252 -0.183 0.950 105 99 99
82.7217 61.7671 -43.5795 0.240 -0.221 0.945 111 105 105
84.0080 62.2989 -43.9564 0.459 -0.751 0.475 116 110 110
84.6054 62.0746 -44.0439 -0.201 -0.740 0.641 133 127 129
84.8984 61.9586 -44.0858 -0.201 -0.740 0.641 132 127 131
85.5081 62.0451 -44.2337 -0.351 -0.701 0.621 133 128 132
85.7029 61.2616 -44.1303 -0.365 -0.151 0.919 134 127 134
84.7910 59.7955 -43.6608 0.351 -0.371 0.860 127 122 126
87.8229 60.1983 -44.3913 0.450 -0.564 0.692 113 111 111
88.3538 58.7680 -44.2405 -0.875 0.020 0.485 92 91 87
-83.8010 217.1388 -36.9231 0.068 -0.979 -0.193 56 68 56
-83.7153 218.7985 -37.2538 0.057 -0.979 -0.193 57 67 58
-83.8498 221.6665 -37.7639 0.052 -0.966 -0.253 55 65 57
-85.1811 259.3348 -44.5579 -0.181 -0.806 0.563 44 50 46
-84.6220 258.8749 -44.5929 -0.195 -0.763 0.616 43 49 45
-84.0059 258.0616 -44.5738 -0.226 -0.776 0.589 44 48 47
-80.5361 242.4007 -42.3830 -0.656 -0.230 0.719 44 48 47
-79.7368 240.2346 -42.1493 -0.523 -0.494 0.695 44 48 47
-78.4461 237.7611 -41.9647 -0.841 -0.112 0.529 48 52 51
-77.5845 235.0739 -41.6466 -0.808 -0.133 0.574 56 60 59
-68.3061 215.2932 -39.9434 0.253 -0.961 -0.111 47 50 57
-52.4258 198.0726 -40.1563 -0.187 -0.244 0.951 30 37 32
-51.9497 197.0784 -40.0729 -0.184 -0.287 0.940 27 34 29
-50.3060 197.4621 -40.5022 -0.593 -0.477 0.649 28 35 28
-45.2753 172.9610 -36.9882 -0.726 -0.632 -0.269 51 58 43
-42.7835 181.6958 -39.1723 -0.435 -0.337 0.835 48 55 41
-41.7597 195.3836 -41.9687 0.393 -0.605 0.693 56 61 46
-40.8840 193.7352 -41.8490 0.441 -0.650 0.618 61 67 51
-33.3609 168.7775 -38.7908 0.096 -0.693 0.714 70 76 54
-32.0557 172.3182 -39.7402 0.249 -0.645 0.723 71 77 55
-31.6528 172.3655 -39.8367 0.249 -0.645 0.723 71 77 55
-31.2234 173.0430 -40.0574 0.256 -0.629 0.734 71 78 55
-15.9355 171.4785 -43.0856 0.578 -0.541 0.610 136 119 133
-12.5396 167.9137 -43.1533 0.523 -0.406 0.750 121 105 116
-10.4868 170.0769 -44.0062 -0.071 -0.997 -0.017 119 103 114
4.3973 127.9496 -39.3191 -0.754 -0.629 0.187 61 75 40
13.2541 124.1902 -40.5369 -0.381 -0.921 0.078 61 76 47
13.7766 123.4727 -40.5155 -0.447 -0.883 0.142 64 75 45
14.6313 123.6424 -40.7332 -0.517 -0.849 -0.113 64 75 45
41.5854 109.1370 -43.8633 -0.582 -0.804 0.123 64 79 50
44.6825 105.3453 -43.8233 -0.765 -0.637 0.095 91 107 67
44.9193 105.0616 -43.8214 -0.765 -0.637 0.095 91 109 67
45.2016 104.8455 -43.8421 -0.478 -0.878 -0.002 90 108 68
45.2804 104.3355 -43.7634 -0.283 -0.846 0.451 85 103 63
45.5624 104.1218 -43.7845 -0.235 -0.809 0.539 80 98 58
59.4597 97.5375 -45.5665 0.077 -0.638 0.766 103 107 106
18.8328 37.8392 -25.5115 0.208 -0.880 -0.426 58 50 65
55.7908 68.4188 -39.2936 0.421 -0.833 -0.359 61 64 59
66.6824 76.3272 -43.1477 -0.448 -0.661 -0.603 36 31 32
66.9478 76.1737 -43.1765 -0.448 -0.661 -0.603 45 39 41
67.2130 76.0203 -43.2053 -0.448 -0.661 -0.603 60 54 56
67.0070 75.4535 -43.0540 -0.468 -0.653 -0.596 54 48 50
67.2626 75.2937 -43.0795 -0.468 -0.653 -0.596 56 49 51
67.9320 74.3534 -43.0481 0.396 -0.638 0.661 44 38 40
69.1472 70.9627 -42.6746 -0.402 -0.788 -0.466 41 37 34
70.2911 71.1792 -42.9639 -0.367 -0.776 -0.512 68 66 61
68.7531 69.5779 -42.3286 -0.253 -0.949 0.187 75 74 68
79.2248 74.6585 -45.5597 0.345 -0.203 0.916 67 69 65
70.6983 65.9868 -42.0760 -0.626 -0.498 0.601 111 113 110
68.9339 64.3173 -41.3786 -0.714 -0.367 0.596 109 111 108
68.3349 63.2205 -41.0422 -0.368 -0.618 0.695 108 109 106
77.9407 66.0666 -43.6649 0.367 -0.379 0.849 122 111 118
78.4746 66.1209 -43.7912 0.320 -0.343 0.883 114 105 111
77.4331 64.4140 -43.2439 -0.030 -0.149 0.988 112 106 110
84.3274 63.4300 -44.5571 0.184 -0.201 0.962 96 90 90
83.7437 62.7376 -44.3001 0.000 -0.469 0.883 99 93 93
83.7680 62.4458 -44.2505 -0.168 -0.498 0.851 102 96 96
82.9482 61.6072 -43.9146 0.470 -0.737 0.486 104 98 98
83.5555 61.6972 -44.0635 0.462 -0.795 0.392 108 102 105
84.4800 61.9900 -44.3195 0.434 -0.709 0.555 117 112 116
84.8578 61.9286 -44.3901 -0.333 -0.714 0.616 118 113 117
88.2093 59.8397 -44.7256 -0.964 0.111 0.243 120 119 115
-85.2906 220.1549 -37.6753 0.385 -0.914 -0.126 60 72 58
-86.8336 234.6819 -40.1042 0.079 -0.997 -0.018 61 71 60
-85.6306 258.4162 -44.8857 -0.281 -0.898 0.338 48 58 50
-85.1715 258.5459 -45.0107 -0.187 -0.809 0.558 48 55 48
-84.6781 258.4763 -45.1052 -0.195 -0.763 0.616 44 50 46
-84.0665 257.6883 -45.0887 -0.226 -0.776 0.589 43 49 47
-80.5031 241.4786 -42.7808 -0.653 -0.226 0.723 43 49 50
-79.6194 238.7761 -42.4592 -0.512 -0.526 0.679 42 48 47
-77.3679 232.9331 -41.8385 -0.808 -0.133 0.574 59 65 63
-68.3915 215.1599 -40.4149 0.220 -0.968 -0.121 50 54 63
-57.7855 165.8814 -33.3489 0.287 -0.915 -0.285 46 40 52
-57.5098 185.3562 -37.1170 -0.983 -0.179 0.049 43 52 54
-51.9843 196.1173 -40.3725 -0.184 -0.287 0.940 41 54 36
-50.3731 196.9720 -40.8871 -0.595 -0.473 0.649 28 41 19
-46.5557 174.7145 -37.4832 -0.700 -0.582 -0.415 50 64 38
-46.1933 175.1617 -37.6474 -0.727 -0.564 -0.391 61 74 47
-45.7691 173.9372 -37.5070 -0.695 -0.648 -0.311 61 75 46
-45.3678 173.2718 -37.4679 -0.726 -0.632 -0.269 61 75 46
-44.9179 183.6870 -39.5491 -0.152 -0.448 0.881 61 75 46
-42.8549 180.9696 -39.4823 -0.426 -0.291 0.856 61 74 46
-33.0092 170.0154 -39.5469 0.053 -0.719 0.693 63 72 46
-26.9501 170.9424 -41.0467 -0.894 0.031 0.446 58 77 57
-22.2438 172.9174 -42.4505 0.010 -0.037 0.999 83 72 80
-20.4238 178.7797 -43.9641 0.068 -0.073 0.995 104 93 99
-16.9131 171.1251 -43.2734 0.515 -0.527 0.676 132 115 132
-16.0299 171.3433 -43.5079 0.576 -0.539 0.615 131 114 131
-10.0884 170.3146 -44.6096 -0.808 0.048 0.587 110 92 104
3.6341 126.8493 -39.3310 -0.856 -0.509 0.089 66 80 45
4.2070 127.4976 -39.5795 -0.763 -0.621 0.180 68 82 47
5.2827 129.8062 -40.2540 -0.717 -0.633 0.294 68 82 47
5.5725 129.4777 -40.2547 -0.717 -0.633 0.294 67 81 46
7.6553 132.4125 -41.2683 -0.921 -0.259 0.291 69 83 48
13.7143 123.4448 -40.8842 -0.447 -0.883 0.142 57 68 38
39.7706 107.6764 -43.5725 0.468 -0.803 0.368 65 80 51
44.4704 106.3588 -44.3480 -0.851 -0.523 -0.042 92 106 71
44.4457 105.6834 -44.2140 -0.862 -0.506 0.008 87 103 65
44.6765 105.3889 -44.2083 -0.837 -0.545 0.054 85 102 61
44.8792 105.0547 -44.1890 -0.765 -0.637 0.095 84 103 58
45.0445 104.6681 -44.1515 -0.839 -0.542 -0.041 84 102 60
45.1551 104.2046 -44.0874 -0.283 -0.846 0.451 82 100 60
45.3186 103.8206 -44.0500 0.034 -0.861 0.508 80 98 58
57.7136 69.8090 -40.2814 0.406 -0.843 -0.354 60 70 57
66.9793 76.6019 -43.5982 -0.456 -0.651 -0.607 43 41 42
67.2740 76.4731 -43.6381 -0.455 -0.654 -0.604 51 49 50
67.5366 76.3160 -43.6655 -0.455 -0.654 -0.604 55 53 54
67.5712 75.9588 -43.6051 -0.896 -0.264 -0.357 55 52 53
67.6474 75.6400 -43.5610 -0.896 -0.264 -0.357 49 46 47
67.7765 75.3687 -43.5376 -0.908 -0.302 -0.290 46 44 45
68.0728 75.2436 -43.5784 -0.778 -0.566 -0.274 47 44 45
68.0158 74.8133 -43.4841 -0.525 -0.849 -0.063 48 45 46
68.9890 74.1369 -43.5678 -0.648 -0.737 -0.192 60 49 53
68.0311 71.1274 -42.7856 -0.736 -0.666 0.123 70 59 63
68.6438 71.2740 -42.9474 -0.594 -0.798 -0.106 70 61 64
68.7440 70.9968 -42.9165 -0.483 -0.861 0.160 67 58 61
68.8347 70.7132 -42.8823 -0.324 -0.935 0.146 63 54 56
69.1025 70.5753 -42.9145 -0.189 -0.961 0.202 67 60 60
70.6455 71.4732 -43.4225 -0.371 -0.775 -0.512 80 74 74
73.2575 68.2798 -43.3849 -0.625 -0.759 0.182 132 128 130
70.7101 65.9988 -42.3942 -0.217 -0.498 0.839 126 122 123
70.1248 65.2238 -42.1189 -0.344 -0.521 0.782 123 119 120
76.3306 65.2385 -43.4770 0.400 -0.380 0.834 119 107 113
76.4584 65.0066 -43.4607 0.389 -0.385 0.837 120 107 116
76.9555 65.0387 -43.5754 0.338 -0.351 0.873 122 109 120
77.2181 64.9031 -43.6069 0.144 -0.338 0.930 121 110 120
76.3322 63.9556 -43.2331 -0.056 -0.132 0.990 121 111 120
79.8434 60.4815 -43.3384 0.229 -0.208 0.951 95 89 89
80.4231 60.5615 -43.4803 0.350 -0.524 0.777 94 88 88
81.1417 60.7305 -43.6694 0.462 -0.735 0.497 94 88 88
81.2783 60.5194 -43.6590 0.496 -0.716 0.491 94 88 88
82.0796 60.7389 -43.8758 0.491 -0.702 0.517 93 89 90
83.3573 61.2627 -44.2546 0.466 -0.659 0.590 93 89 90
84.7918 61.8823 -44.6858 -0.339 -0.717 0.609 94 90 91
84.5986 60.5545 -44.3908 -0.461 -0.047 0.886 96 92 92
83.0489 58.9883 -43.7542 -0.525 -0.236 0.817 104 100 101
83.1691 58.7722 -43.7393 -0.525 -0.236 0.817 107 103 103
-85.2327 258.1822 -45.5269 -0.207 -0.766 0.609 54 64 56
-84.7185 257.9838 -45.6015 -0.207 -0.766 0.609 54 63 58
-84.2173 257.8657 -45.6887 -0.201 -0.760 0.618 54 63 60
-64.3777 212.5789 -41.3140 0.071 -0.849 0.524 52 40 52
-63.9509 212.5591 -41.4038 0.071 -0.849 0.524 53 41 53
-63.6246 213.4885 -41.6546 0.072 -0.852 0.519 53 41 53
-57.5107 165.7411 -33.7933 0.187 -0.923 -0.336 47 52 55
-56.6060 182.7493 -37.2701 -0.920 -0.121 0.373 49 63 62
-47.1265 177.3249 -38.3050 -0.748 -0.589 -0.307 51 67 37
-45.4605 173.5770 -37.9482 -0.698 -0.659 -0.280 59 76 42
-45.3697 182.6001 -39.7072 -0.149 -0.518 0.842 59 76 42
-42.5203 179.7870 -39.7904 -0.443 -0.286 0.850 61 76 45
-41.8461 188.4616 -41.6103 0.125 -0.475 0.871 61 76 45
-20.4324 175.0029 -43.7157 -0.045 -0.061 0.997 96 85 93
-18.6894 171.1760 -43.3606 0.255 -0.202 0.946 119 102 118
-16.4695 171.9130 -43.9898 0.563 -0.530 0.634 125 108 126
-13.8293 169.0038 -44.0085 0.413 -0.357 0.838 114 97 113
-9.4192 164.0540 -44.0223 -0.396 0.061 0.916 129 112 120
-8.8677 159.7153 -43.3071 -0.437 0.070 0.897 129 112 120
5.4929 129.4002 -40.6156 -0.717 -0.633 0.294 73 87 52
26.4084 120.0706 -43.4075 -0.535 -0.458 -0.710 68 80 56
44.4631 106.4017 -44.7352 -0.851 -0.523 -0.042 92 106 71
44.4271 105.7089 -44.5938 -0.862 -0.506 0.008 82 98 60
44.8214 103.7721 -44.3070 -0.270 -0.860 0.433 80 98 56
45.1551 103.6350 -44.3538 0.034 -0.861 0.508 81 99 57
18.7929 37.8184 -25.8827 0.093 -0.855 -0.511 64 56 71
54.5153 67.9964 -39.5389 0.375 -0.820 -0.433 77 85 72
67.7660 75.7537 -43.9421 -0.896 -0.264 -0.357 58 56 57
68.0818 75.6443 -43.9903 -0.896 -0.333 -0.295 57 55 56
68.1807 75.3467 -43.9546 -0.896 -0.333 -0.295 53 51 52
68.0459 74.8486 -43.8290 -0.901 -0.326 -0.286 51 49 50
68.3239 74.3304 -43.7902 -0.235 -0.949 -0.211 45 40 42
68.6382 74.2224 -43.8384 -0.230 -0.951 -0.206 42 33 36
69.0153 73.4206 -43.7666 -0.675 -0.613 -0.410 75 66 71
67.5481 70.7341 -42.9268 -0.373 -0.886 0.276 57 46 52
68.5152 71.1745 -43.2239 -0.610 -0.784 -0.117 49 38 44
69.0460 71.2518 -43.3553 -0.140 -0.989 -0.051 44 33 39
68.7665 70.6638 -43.1806 -0.286 -0.940 0.185 59 48 53
69.0345 70.5260 -43.2129 -0.189 -0.961 0.202 81 71 76
70.9633 71.7374 -43.8696 -0.374 -0.776 -0.507 94 85 88
70.4166 65.7782 -42.6011 -0.217 -0.498 0.839 125 115 120
69.8855 65.0450 -42.3432 -0.344 -0.521 0.782 125 115 121
73.5301 64.1838 -42.9771 0.252 -0.299 0.920 128 113 117
73.6105 63.9218 -42.9442 0.259 -0.318 0.912 131 116 119
74.7777 64.1238 -43.2393 0.398 -0.381 0.835 139 125 127
75.1822 64.0940 -43.3223 0.389 -0.375 0.842 140 127 135
75.7129 64.1535 -43.4502 0.338 -0.351 0.873 125 112 124
81.5744 61.3117 -44.1889 0.458 -0.562 0.689 83 77 77
81.5303 60.6796 -44.0574 0.483 -0.703 0.523 89 83 83
82.2501 60.8456 -44.2473 0.499 -0.755 0.426 86 82 81
83.4191 61.2988 -44.5912 0.458 -0.675 0.579 82 81 77
84.5971 61.7534 -44.9374 -0.350 -0.712 0.609 82 81 77
85.1266 61.7889 -45.0604 -0.183 -0.220 0.958 81 81 75
84.2469 60.3277 -44.5857 -0.461 -0.047 0.886 80 79 75
84.3862 60.1185 -44.5760 -0.455 -0.048 0.889 86 85 81
83.1734 59.0618 -44.1061 -0.484 -0.215 0.848 97 96 92
83.0977 58.7227 -44.0242 -0.431 -0.267 0.862 99 98 94
84.1877 57.0967 -43.9500 -0.056 -0.302 0.952 108 107 100
-94.3695 214.3183 -35.5536 -0.676 -0.735 0.059 60 59 65
-85.2943 257.8231 -46.0426 -0.223 -0.736 0.639 56 68 58
-84.7962 257.7185 -46.1321 -0.272 -0.687 0.674 56 67 59
-84.2705 257.4485 -46.1953 -0.272 -0.687 0.674 57 66 61
-79.4979 236.5930 -43.1790 -0.674 -0.213 0.707 55 66 64
-65.5799 211.1308 -41.2808 -0.047 -0.964 0.263 55 49 56
-65.2069 211.5402 -41.4429 -0.570 -0.789 0.229 55 49 56
-64.7616 211.3273 -41.4995 -0.564 -0.797 0.215 54 48 55
-64.2658 210.6586 -41.4784 -0.549 -0.809 0.208 54 48 55
-63.8335 210.5561 -41.5538 0.009 -0.950 0.312 54 48 55
-57.6044 165.8737 -34.2101 0.187 -0.923 -0.336 47 55 54
-51.7534 189.3729 -40.0850 0.361 -0.549 0.754 49 67 41
-47.2161 177.4496 -38.7594 -0.734 -0.620 -0.278 56 72 43
-46.8099 176.8967 -38.7411 -0.714 -0.665 -0.218 57 74 42
-19.5801 171.5149 -43.6962 0.515 -0.449 0.730 115 98 114
-19.3189 169.9621 -43.4508 0.255 -0.202 0.946 115 98 114
-18.9109 169.8385 -43.5167 0.500 -0.382 0.777 115 98 114
-17.1171 170.7122 -44.0827 0.551 -0.531 0.643 123 106 122
-16.6127 171.3650 -44.3213 0.563 -0.530 0.634 123 106 122
-16.4186 169.4144 -43.9836 0.534 -0.393 0.748 120 103 119
-15.9766 169.5451 -44.1065 0.514 -0.439 0.737 119 102 118
-15.6083 169.0764 -44.0963 0.395 -0.345 0.851 119 102 118
-15.1739 169.1362 -44.2038 0.387 -0.334 0.860 119 102 118
-14.9036 167.9232 -44.0267 0.437 -0.380 0.815 120 102 118
0.7754 138.0371 -41.6538 0.566 -0.786 0.250 65 82 46
24.6197 114.7141 -42.3619 -0.942 -0.281 0.183 72 84 60
24.6287 113.9014 -42.2054 -0.914 -0.398 -0.076 79 91 67
24.0074 110.1976 -41.3457 -0.810 -0.104 0.577 82 98 72
39.9993 107.4883 -44.3439 0.253 -0.858 0.447 74 89 60
41.4865 109.1625 -44.9984 -0.625 -0.763 0.164 71 86 57
58.0985 70.5463 -41.1280 0.413 -0.832 -0.371 72 80 67
68.3664 76.6775 -44.5886 -0.895 -0.274 -0.353 63 61 62
68.4051 75.9356 -44.4524 -0.892 -0.278 -0.356 68 66 67
68.4366 75.5781 -44.3896 -0.889 -0.342 -0.304 62 60 61
68.2874 75.0664 -44.2568 -0.899 -0.329 -0.288 54 52 53
68.2408 74.6461 -44.1646 -0.774 -0.579 -0.257 49 47 48
68.3807 74.3880 -44.1451 -0.249 -0.956 -0.154 45 40 42
69.5354 73.4944 -44.2254 -0.680 -0.609 -0.409 71 60 66
67.6998 71.2272 -43.3782 -0.816 -0.578 0.020 65 54 60
68.4597 71.1356 -43.5280 -0.606 -0.720 0.339 51 40 46
65.1844 65.3609 -41.6790 -0.923 -0.382 0.037 125 114 120
70.5429 68.9296 -43.5570 0.385 -0.213 0.898 134 123 129
71.3481 69.2170 -43.7906 0.406 -0.227 0.885 138 127 133
72.1952 62.8982 -42.7447 -0.010 -0.219 0.976 129 118 117
72.6236 62.8921 -42.8379 -0.057 -0.208 0.976 134 123 120
73.0888 61.0465 -42.5805 -0.271 -0.121 0.955 121 110 127
75.1094 60.6186 -42.9426 -0.584 -0.716 0.382 133 122 139
80.0158 60.2887 -43.9602 0.467 -0.562 0.683 79 73 75
81.7226 60.8010 -44.4366 0.496 -0.690 0.528 85 80 80
82.9236 61.2776 -44.7944 0.510 -0.724 0.465 86 83 79
85.4660 60.7939 -45.2607 -0.494 -0.289 0.820 90 90 80
84.1352 59.6604 -44.7461 -0.741 -0.308 0.596 94 96 86
31.5357 25.6652 -26.5140 -0.451 -0.392 0.802 95 95 84
-94.5899 213.2413 -35.7790 -0.799 -0.445 0.405 101 97 116
-67.6012 209.8021 -41.0807 -0.027 -0.739 0.674 50 56 57
-66.4325 210.4229 -41.4622 -0.003 -0.736 0.677 52 50 53
-66.1105 211.2240 -41.6918 0.046 -0.798 0.601 53 50 53
-65.7671 211.8742 -41.8962 -0.018 -0.867 0.498 53 50 53
-64.3223 210.2661 -41.8989 -0.649 -0.750 0.125 57 55 58
-49.8346 168.6605 -36.8943 -0.531 -0.754 0.386 58 74 45
-48.7357 168.4143 -37.0892 -0.396 -0.489 0.777 58 74 47
-47.6176 167.8235 -37.2203 -0.383 -0.487 0.785 61 77 50
-22.1834 166.9339 -42.6809 0.225 -0.173 0.959 79 68 75
-21.3701 166.8609 -42.8467 0.280 -0.257 0.925 88 77 85
-20.0062 168.1136 -43.3963 0.497 -0.377 0.781 110 93 109
-19.5081 168.8968 -43.6613 0.492 -0.377 0.785 111 94 110
-19.0605 169.1648 -43.8134 0.492 -0.377 0.785 110 93 109
7.8967 126.2784 -41.3192 -0.547 -0.789 -0.280 71 85 50
23.4004 111.4542 -41.8278 0.089 -0.731 -0.677 74 86 62
24.2660 109.2294 -41.5803 -0.809 -0.110 0.577 69 85 59
18.8960 37.9347 -26.3130 0.308 -0.786 -0.536 61 53 68
19.8922 38.6500 -26.6750 0.324 -0.788 -0.523 64 56 71
20.9591 39.4259 -27.0646 0.308 -0.779 -0.547 69 61 76
68.2546 77.3734 -45.0382 -0.549 -0.625 -0.554 29 25 26
68.6704 77.3471 -45.1252 -0.539 -0.651 -0.535 38 34 35
68.5865 76.8811 -45.0146 -0.822 -0.338 -0.458 68 64 65
68.4424 76.3651 -44.8807 -0.892 -0.278 -0.356 83 79 80
68.5232 76.0482 -44.8361 -0.892 -0.278 -0.356 80 76 77
68.6574 75.7792 -44.8127 -0.884 -0.353 -0.306 71 67 68
68.4436 75.2107 -44.6531 -0.899 -0.329 -0.290 60 56 57
68.4275 74.4368 -44.4967 -0.838 -0.493 -0.233 43 38 39
66.5947 67.5104 -42.7229 0.232 -0.456 0.859 133 122 128
67.3465 67.4284 -42.8733 0.226 -0.160 0.961 128 117 123
65.4509 65.5778 -42.0878 -0.924 -0.382 0.023 131 120 126
69.0387 63.1185 -42.3973 -0.586 -0.719 -0.373 104 92 92
72.5706 63.4885 -43.2530 -0.842 -0.367 -0.396 125 115 113
71.8412 59.8684 -42.3766 -0.182 -0.196 0.964 126 115 130
73.3120 59.0876 -42.5484 0.407 -0.537 0.739 133 122 137
83.9613 59.5467 -44.9989 -0.735 -0.321 0.597 94 96 82
83.0933 58.7104 -44.6414 -0.428 -0.249 0.869 94 96 82
82.7126 58.1830 -44.4529 -0.423 -0.247 0.872 94 96 82
-94.7787 213.5959 -36.2924 -0.794 -0.478 0.375 112 109 130
-67.9292 208.3574 -41.2244 -0.112 -0.645 0.756 49 58 53
-67.4997 208.2065 -41.2899 -0.112 -0.645 0.756 49 58 53
-66.4277 206.1723 -41.1221 -0.250 -0.646 0.721 48 53 48
-66.2942 208.4493 -41.6068 -0.084 -0.756 0.649 49 52 48
-65.6239 209.7924 -42.0244 0.102 -0.992 0.071 51 53 46
-65.1506 209.3078 -42.0330 0.088 -0.994 0.067 50 52 45
-64.6917 208.9412 -42.0619 -0.648 -0.745 0.161 55 57 50
-64.3125 209.2829 -42.2146 -0.644 -0.747 0.168 61 63 56
-63.9525 209.8174 -42.4016 0.028 -0.982 0.187 60 62 55
-63.6852 211.2351 -42.7444 -0.052 -0.943 0.329 60 62 55
-20.8047 169.2368 -43.9011 0.392 -0.461 0.797 94 81 91
-20.3626 169.4853 -44.0492 0.395 -0.461 0.795 102 88 101
-8.6797 148.0433 -42.3664 -0.895 0.080 0.439 93 83 87
7.8917 126.4304 -41.7379 -0.547 -0.789 -0.280 70 84 49
23.8513 111.6637 -42.3412 0.413 -0.852 -0.321 61 74 49
24.4210 108.8448 -41.9048 -0.740 -0.672 -0.009 68 84 58
68.2885 77.4143 -45.3928 -0.564 -0.626 -0.539 42 40 41
68.6891 77.3742 -45.4740 -0.560 -0.645 -0.520 44 42 43
68.7221 77.0105 -45.4087 -0.559 -0.650 -0.515 70 68 69
68.4524 76.3840 -45.2234 -0.889 -0.350 -0.295 95 93 94
66.3772 66.6587 -42.8181 0.198 -0.119 0.973 135 124 130
67.5818 62.9844 -42.3522 -0.878 -0.434 -0.202 113 98 103
70.8163 62.5291 -42.9815 -0.082 -0.098 0.992 125 113 113
71.9581 61.4785 -43.0258 0.291 -0.351 0.890 135 124 130
72.4907 60.9319 -43.0352 -0.258 -0.114 0.959 131 121 131
72.4189 60.5757 -42.9480 -0.256 -0.119 0.959 131 121 131
74.7620 59.4762 -43.2501 -0.229 -0.880 0.416 133 126 131
73.4359 57.9908 -42.6580 -0.465 -0.783 0.414 125 119 121
73.7891 57.9357 -42.7256 -0.402 -0.844 0.356 119 113 117
77.3802 57.6852 -43.4752 0.467 -0.557 0.686 83 80 75
-94.8176 213.3295 -36.7155 -0.846 -0.459 0.272 122 121 140
-66.4664 202.4301 -40.8555 -0.237 -0.523 0.818 56 67 55
-25.0769 158.0636 -41.1467 -0.264 0.044 0.963 58 48 48
-21.4023 168.1467 -44.0074 0.406 -0.472 0.783 89 78 86
-20.9369 168.6756 -44.2185 0.397 -0.464 0.792 95 82 92
-20.5266 168.6161 -44.2983 0.396 -0.459 0.795 102 88 101
-20.7218 147.8839 -40.0632 0.469 -0.456 0.756 113 96 114
7.2368 126.9776 -42.0922 -0.639 -0.655 -0.404 72 86 51
23.8900 111.8346 -42.7569 0.410 -0.851 -0.328 50 63 39
23.4205 110.0652 -42.2941 -0.898 -0.427 -0.108 52 67 42
23.7940 110.0297 -42.3705 -0.884 -0.398 -0.246 58 74 48
25.2222 111.3222 -42.9513 -0.873 -0.378 -0.308 72 88 62
25.5533 104.3584 -41.6175 -0.982 -0.184 -0.047 73 91 68
67.0770 80.7782 -46.1412 -0.468 -0.758 -0.455 74 81 70
66.0864 76.2524 -45.0045 0.165 -0.873 0.459 70 72 66
68.7084 77.4018 -45.8236 -0.287 -0.940 -0.184 44 42 43
68.8085 77.0968 -45.7843 -0.553 -0.656 -0.514 65 63 64
68.5420 76.4725 -45.5984 -0.889 -0.350 -0.295 92 90 91
68.6468 76.1756 -45.5619 -0.889 -0.350 -0.295 104 102 103
64.1952 65.2525 -42.3575 0.306 -0.164 0.938 121 110 116
66.3822 64.0066 -42.5950 -0.057 -0.499 0.865 134 122 126
66.6291 63.8719 -42.6230 -0.078 -0.508 0.858 129 117 121
66.5101 63.4563 -42.5123 -0.263 -0.396 0.880 126 114 118
66.7668 63.0089 -42.4793 -0.288 -0.331 0.898 104 92 96
67.0222 62.8829 -42.5110 -0.281 -0.354 0.892 105 93 97
67.2395 62.7282 -42.5283 -0.256 -0.354 0.899 107 92 99
72.3686 64.9547 -44.1261 -0.880 -0.359 -0.311 119 109 108
72.7485 64.9097 -44.2020 -0.871 -0.366 -0.327 122 110 110
70.5807 62.6739 -43.2649 -0.140 -0.087 0.986 124 112 112
70.2320 62.1040 -43.0717 -0.082 -0.098 0.992 126 114 116
75.1824 59.7592 -43.7053 -0.488 -0.833 -0.262 134 128 129
74.1667 58.7749 -43.2791 -0.374 -0.832 -0.410 132 126 126
74.4479 58.6690 -43.3206 -0.374 -0.832 -0.410 130 124 125
74.7292 58.5630 -43.3621 -0.374 -0.832 -0.410 128 122 124
74.9118 58.3910 -43.3681 -0.386 -0.832 -0.398 125 119 121
74.0128 57.5010 -42.9871 -0.456 -0.819 0.349 124 118 120
-26.4974 155.4021 -40.7129 -0.127 -0.029 0.992 85 82 73
-26.0656 156.1216 -40.9571 -0.266 0.001 0.964 80 72 64
-25.6668 156.3572 -41.0950 -0.273 0.025 0.962 59 49 45
-21.4558 168.4018 -44.5052 0.277 -0.347 0.896 90 77 87
-20.6131 168.5269 -44.7203 0.402 -0.455 0.795 104 90 103
-7.5961 136.2952 -41.0543 -0.628 0.018 0.778 58 57 53
8.1741 126.4377 -42.5836 -0.538 -0.693 -0.479 54 71 37
23.4046 110.1221 -42.6707 -0.966 -0.253 -0.047 50 66 40
23.9982 109.7386 -42.7258 -0.927 -0.315 -0.205 51 67 41
24.8034 107.4585 -42.4404 -0.994 -0.047 -0.103 59 75 49
24.6929 106.4848 -42.2164 -0.991 -0.058 -0.120 66 82 56
68.6107 77.7213 -46.2070 -0.567 -0.618 -0.544 49 47 48
68.7593 77.4573 -46.1865 -0.287 -0.940 -0.184 54 52 53
68.9915 77.2679 -46.1999 -0.553 -0.656 -0.514 67 65 66
70.1674 77.1181 -46.4337 0.091 -0.983 0.157 104 102 103
58.6979 64.0934 -41.1911 0.047 -0.401 0.915 130 121 126
58.6837 63.7490 -41.1174 0.054 -0.409 0.911 125 116 119
62.3754 63.7967 -41.9572 0.306 -0.165 0.938 116 105 111
66.1884 63.5355 -42.7610 -0.427 -0.671 0.607 122 110 114
66.1311 63.1684 -42.6730 -0.086 -0.811 0.579 118 106 110
73.3740 65.3732 -44.7524 -0.872 -0.386 -0.300 118 106 106
74.4647 58.9740 -43.6887 -0.395 -0.842 -0.368 130 124 127
74.8897 58.6682 -43.7217 -0.374 -0.832 -0.410 130 124 126
-64.3676 207.1229 -43.2815 -0.118 -0.968 0.223 50 73 45
-26.2590 154.4919 -41.0009 -0.162 -0.031 0.986 76 66 69
-25.9074 154.1567 -41.0110 -0.177 -0.026 0.984 71 60 65
-25.5739 153.5982 -40.9708 -0.180 -0.024 0.983 49 37 47
-23.5198 159.8318 -42.7245 0.133 -0.082 0.988 77 65 77
-10.2538 146.9947 -43.0653 -0.100 -0.147 0.984 121 104 110
23.5026 112.8578 -43.6280 -0.499 -0.590 0.635 55 70 47
23.5619 112.1572 -43.4964 -0.656 -0.550 0.517 49 64 41
24.0342 109.8992 -43.1359 -0.927 -0.315 -0.205 50 66 40
23.7725 108.5841 -42.8047 -0.900 -0.399 -0.178 50 66 40
24.0944 106.9091 -42.5309 -0.976 -0.134 0.172 58 74 48
24.2710 106.4970 -42.4855 -0.978 -0.105 0.182 58 74 48
24.1295 105.4677 -42.2406 -0.979 -0.127 0.162 62 78 51
25.0425 102.8261 -41.9003 -0.986 -0.166 0.001 71 87 60
33.1187 95.6469 -42.2393 -0.111 -0.948 -0.300 77 94 60
35.1150 95.7305 -42.7076 0.416 -0.714 0.564 71 81 54
53.0295 65.6490 -40.5306 0.102 -0.172 0.980 61 68 58
68.4802 77.6166 -46.4970 -0.321 -0.941 -0.105 72 67 71
68.8802 77.5747 -46.5787 -0.310 -0.946 -0.100 81 76 80
69.0942 77.3685 -46.5844 -0.740 -0.601 -0.302 87 82 86
70.0941 77.0642 -46.7473 0.177 -0.954 0.241 117 112 116
70.2323 76.7937 -46.7225 0.157 -0.936 0.315 121 116 120
58.7271 63.7917 -41.4335 0.053 -0.421 0.906 144 133 139
60.5395 63.6320 -41.8098 0.258 -0.160 0.953 110 99 105
66.6711 60.7354 -42.5956 -0.109 -0.788 0.606 112 100 100
72.9190 65.0389 -44.8974 -0.888 -0.317 -0.333 112 100 100
69.6787 62.3305 -43.6051 -0.808 -0.583 -0.086 113 101 101
68.5610 56.7002 -42.1877 0.208 -0.961 0.183 133 126 118
70.3818 57.3721 -42.7380 0.355 -0.857 0.375 133 126 119
71.8621 57.7986 -43.1606 0.332 -0.678 0.656 134 126 123
-62.6566 181.4855 -38.8094 -0.060 -0.976 0.209 50 77 46
-62.3538 182.0220 -38.9904 -0.058 -0.971 0.233 51 78 47
-61.9819 181.9815 -39.0664 -0.058 -0.971 0.233 50 75 45
-28.6106 153.9778 -40.7806 -0.324 -0.006 0.946 46 68 45
-26.8678 152.2486 -40.8143 -0.127 -0.030 0.991 111 104 113
-26.4527 152.8407 -41.0324 -0.181 -0.024 0.983 118 106 122
-26.1231 152.2604 -40.9858 -0.181 -0.024 0.983 86 71 89
-25.3982 151.9858 -41.0929 0.400 -0.499 0.769 63 49 67
-23.7331 158.2286 -42.7772 0.122 -0.078 0.990 79 65 80
-10.4897 146.0238 -43.2291 -0.195 -0.121 0.973 121 104 110
23.8374 107.2492 -42.9063 -0.974 -0.131 0.186 58 74 48
26.2245 109.6360 -43.9476 -0.981 -0.158 0.110 56 72 45
26.1158 108.6550 -43.7176 -0.978 -0.172 0.121 56 72 45
24.8110 103.9081 -42.4281 -0.403 -0.506 0.763 62 78 51
69.1934 77.8617 -47.0512 -0.759 -0.589 -0.278 109 102 109
69.4520 77.6933 -47.0746 -0.741 -0.602 -0.297 111 104 111
59.0103 64.7042 -41.9865 0.043 -0.259 0.965 135 124 132
61.7549 60.7472 -41.7814 -0.020 -0.672 0.740 109 97 98
70.2330 62.7395 -44.1226 -0.931 -0.365 0.005 107 96 94
68.9801 61.5053 -43.5800 -0.142 -0.086 0.986 107 95 94
68.4277 60.7910 -43.3051 0.157 -0.215 0.964 104 92 91
68.6586 57.9361 -42.7601 -0.067 -0.528 0.847 123 117 104
67.5409 56.8607 -42.2813 0.139 -0.954 0.265 123 117 104
67.3726 56.4535 -42.1579 0.182 -0.967 0.179 124 118 105
