ply
format ascii 1.0
element vertex 841
property float x
property float y
property float z
property float nx
property float ny
property float nz
property uchar diffuse_red
property uchar diffuse_green
property uchar diffuse_blue
end_header
131.4348 -32.7823 -50.7770 -0.546 -0.347 0.763 169 186 204
132.5015 -33.4044 -51.4227 -0.953 0.062 0.297 182 199 217
132.7236 -33.6846 -51.5610 -0.914 0.020 0.406 184 201 219
127.2375 -31.7866 -48.2735 -0.738 -0.039 0.674 183 200 218
130.4516 -33.6715 -50.2192 -0.689 0.669 0.279 124 136 157
126.4903 -32.8724 -47.8600 -0.520 -0.848 -0.100 76 84 107
146.5705 -43.7425 -59.9924 -0.566 -0.802 -0.192 55 57 70
133.9807 92.5533 -49.3978 -0.516 -0.708 0.483 56 83 38
134.1217 92.3907 -49.4856 -0.516 -0.708 0.483 53 80 37
141.4285 94.4706 -53.7701 -0.359 -0.556 0.750 64 86 50
125.2023 70.7573 -44.7314 -0.285 0.346 0.894 62 80 58
124.9669 70.2751 -44.6038 -0.285 0.343 0.895 54 72 50
127.3407 67.5190 -46.0812 -0.388 -0.897 -0.210 83 86 70
127.6176 67.4821 -46.2464 -0.409 -0.884 -0.225 84 87 68
127.5888 67.1870 -46.2367 -0.677 -0.735 0.029 87 90 69
124.9538 62.1118 -44.7994 -0.159 0.300 0.941 79 86 41
124.8228 61.7485 -44.7307 -0.154 0.291 0.944 78 86 40
127.8547 60.7060 -46.5560 -0.577 0.059 0.814 85 89 65
126.5479 58.6798 -45.8310 -0.410 -0.752 0.516 84 85 67
126.8567 58.6487 -46.0150 -0.410 -0.763 0.499 78 79 61
127.6812 58.4704 -46.5088 -0.543 0.253 0.800 76 77 61
126.6814 36.4290 -46.4647 -0.625 -0.758 0.185 109 103 105
127.7351 36.4283 -47.0901 -0.505 -0.845 0.176 110 104 106
128.2245 36.4068 -47.3810 -0.528 -0.819 0.227 110 104 106
128.4681 33.8663 -47.5889 -0.731 0.559 0.392 116 110 112
130.1846 21.4669 -48.9166 -0.073 -0.346 0.935 114 105 108
130.3321 21.0394 -49.0148 -0.103 -0.247 0.963 94 85 88
129.9631 13.4395 -48.9852 -0.500 -0.608 -0.617 92 84 82
131.0084 13.1478 -49.6128 -0.500 -0.605 -0.619 127 117 116
131.7009 12.7948 -50.0326 -0.219 0.639 0.738 129 119 118
135.3225 11.1830 -52.2220 -0.142 0.626 0.767 112 101 105
133.2524 9.5583 -51.0340 -0.152 -0.357 0.922 103 95 93
133.3976 9.1148 -51.1312 -0.151 -0.352 0.924 109 101 99
133.6617 8.9109 -51.2930 -0.286 -0.775 0.564 111 103 101
133.9003 8.7035 -51.4398 -0.282 -0.771 0.572 110 101 102
133.9400 2.1235 -51.6273 0.039 -0.307 0.951 115 105 103
134.5599 -4.9850 -52.1724 0.065 -0.063 0.996 97 87 88
134.5396 -5.4217 -52.1712 0.092 -0.190 0.978 112 102 101
138.7068 -10.4985 -54.7708 -0.349 0.589 0.729 102 94 91
134.7460 -12.7822 -52.4772 -0.122 -0.807 0.578 100 95 92
135.7946 -13.3786 -53.1143 -0.123 -0.785 0.608 121 116 113
136.4336 -14.5634 -53.5230 -0.172 -0.636 0.752 122 116 113
136.3087 -14.7567 -53.4538 -0.177 -0.587 0.790 117 112 109
137.1066 -15.3325 -53.9416 -0.409 -0.822 0.395 104 99 96
137.8202 -15.6813 -54.3738 -0.181 -0.891 0.415 98 93 90
138.3231 -20.1267 -54.7831 -0.108 -0.881 0.460 119 116 112
139.3731 -20.5902 -55.4177 -0.159 -0.855 0.493 135 130 126
140.2877 -22.5621 -56.0096 -0.264 -0.133 0.955 136 132 126
141.6277 -23.1260 -56.8190 -0.329 -0.453 0.829 135 132 129
137.1252 -30.6697 -54.3349 -0.892 -0.450 0.039 122 127 133
135.0453 -31.3164 -53.1167 -0.692 0.719 0.060 228 240 255
134.4468 -31.6817 -52.7706 -0.989 -0.089 -0.120 88 99 120
134.5410 -31.9132 -52.8322 -0.985 -0.132 -0.113 96 107 126
134.7537 -32.7779 -52.9800 -0.954 0.278 -0.113 128 141 160
134.8123 -32.9964 -53.0203 -0.974 0.193 -0.116 150 165 184
131.5317 -32.6473 -51.0647 -0.404 0.609 0.683 154 171 189
131.3941 -32.7786 -50.9863 -0.595 -0.311 0.741 177 194 212
131.3845 -32.9615 -50.9851 -0.597 -0.310 0.740 184 201 219
132.5621 -33.6316 -51.7007 -0.948 -0.101 0.300 183 200 218
133.1628 91.4730 -49.2440 -0.439 -0.607 0.662 57 84 43
133.7190 91.7563 -49.5688 -0.465 -0.707 0.533 55 81 42
133.9890 91.7313 -49.7304 -0.704 -0.126 0.699 55 79 45
134.1140 91.2379 -49.8171 -0.698 -0.136 0.703 56 80 48
131.7622 88.1442 -48.4897 -0.297 0.464 0.835 56 80 48
131.6684 87.7426 -48.4435 -0.242 0.480 0.843 58 81 52
125.6653 66.9757 -45.3693 -0.662 -0.745 -0.081 91 94 76
127.7638 67.9583 -46.5971 -0.391 -0.896 -0.213 95 98 78
123.8982 62.8759 -44.4153 -0.321 -0.946 0.054 102 106 72
124.6039 62.6800 -44.8410 -0.208 0.107 0.972 99 106 65
128.3702 60.6360 -47.1374 -0.585 -0.124 0.801 84 85 67
127.1865 58.7021 -46.4785 -0.221 -0.085 0.972 75 76 58
126.7410 52.2167 -46.3710 -0.302 0.080 0.950 124 121 114
126.7083 51.9421 -46.3582 -0.302 0.080 0.950 118 115 108
126.8294 51.7679 -46.4347 -0.291 0.118 0.949 111 108 101
126.8443 51.5244 -46.4495 -0.387 0.029 0.921 103 100 93
126.5627 50.5869 -46.3044 -0.384 0.097 0.918 94 91 84
126.4781 36.6208 -46.5946 -0.441 -0.895 0.073 109 103 105
130.3743 28.8759 -49.1077 -0.670 -0.694 -0.262 109 100 101
128.9592 22.1072 -48.4287 -0.193 -0.677 0.710 112 103 106
129.3537 21.9808 -48.6671 -0.194 -0.684 0.703 113 104 107
129.8705 20.9581 -49.0003 -0.106 -0.245 0.964 94 85 88
134.6450 10.8925 -52.0938 -0.141 0.627 0.766 105 94 97
134.3224 10.6217 -51.9080 -0.138 0.623 0.770 95 85 85
135.0535 -4.1240 -52.7038 0.031 -0.192 0.981 116 106 107
134.1320 -4.2901 -52.1582 0.072 -0.029 0.997 114 104 105
134.9670 -5.8828 -52.6951 0.048 -0.280 0.959 120 110 109
135.4187 -7.4591 -53.0030 0.091 -0.238 0.967 135 130 124
136.1066 -8.1876 -53.4311 0.048 0.114 0.992 116 111 105
137.2708 -12.7392 -54.2366 -0.105 0.053 0.993 89 83 83
135.1873 -13.0625 -53.0017 -0.163 0.095 0.982 104 98 98
135.1811 -13.2753 -53.0032 -0.094 0.227 0.969 124 116 114
134.9473 -13.6630 -52.8732 -0.120 0.166 0.979 123 115 113
138.8664 -20.4726 -55.3770 -0.159 -0.855 0.493 121 118 114
138.9346 -20.7058 -55.4234 -0.026 -0.325 0.945 126 123 118
139.2609 -21.2188 -55.6305 -0.030 -0.320 0.947 132 129 124
141.1933 -23.6796 -56.8432 -0.285 -0.725 0.628 120 120 120
141.3338 -24.3778 -56.9441 -0.261 -0.088 0.961 118 118 121
134.7637 -31.4199 -53.1968 -0.686 0.717 0.126 193 205 221
134.6108 -31.9516 -53.1186 -0.943 0.289 0.165 96 106 127
131.1325 -32.4988 -51.0571 -0.398 0.585 0.706 152 169 189
131.0132 -32.6368 -50.9893 -0.599 -0.298 0.743 169 186 204
131.1436 -32.8762 -51.0730 -0.597 -0.302 0.743 181 198 216
131.2007 -33.0858 -51.1122 -0.597 -0.302 0.743 183 200 218
126.6509 -32.4452 -48.3826 -0.751 0.601 0.273 140 152 178
133.0149 92.0451 -49.4467 -0.439 -0.705 0.557 67 94 51
134.1816 87.6795 -50.2503 -0.572 -0.666 -0.479 67 89 53
140.3338 93.5892 -53.7978 -0.378 0.550 0.744 71 93 57
137.7986 89.0988 -52.3850 -0.341 -0.705 0.622 76 98 60
137.3295 88.3163 -52.1224 -0.486 -0.692 0.534 71 93 57
126.8121 67.5014 -46.3136 -0.423 -0.905 0.032 87 91 67
124.1869 63.1893 -44.8427 -0.329 -0.944 -0.008 115 121 85
124.4087 63.1133 -44.9775 -0.329 -0.944 -0.008 121 127 89
126.8185 54.1158 -46.6369 -0.093 -0.578 0.811 87 83 82
126.5827 51.9234 -46.5479 -0.391 0.064 0.918 111 108 101
126.7113 51.7544 -46.6291 -0.391 0.016 0.920 95 92 85
126.5890 51.4221 -46.5637 -0.387 0.021 0.922 86 83 76
126.3493 50.5128 -46.4417 -0.323 0.214 0.922 98 95 88
126.1937 49.9130 -46.3627 -0.338 0.189 0.922 97 94 89
127.2082 44.7978 -47.0930 -0.376 0.122 0.918 134 126 123
127.2789 44.5898 -47.1404 -0.426 0.029 0.904 139 131 128
127.2984 44.3533 -47.1577 -0.418 -0.011 0.908 126 121 117
127.2571 44.0835 -47.1394 -0.423 0.006 0.906 108 103 100
127.1977 43.8043 -47.1104 -0.447 0.002 0.894 94 89 86
127.7386 43.1094 -47.4513 -0.428 0.172 0.887 96 92 91
126.9417 36.8816 -47.1222 -0.566 -0.782 0.261 110 104 106
127.2286 36.7739 -47.2968 -0.563 -0.013 0.826 107 101 103
129.3377 32.1427 -48.6718 -0.020 -0.531 0.847 101 95 97
129.7161 29.4061 -48.9640 -0.696 -0.650 0.306 89 80 83
130.5488 28.9762 -49.4734 -0.668 -0.696 -0.263 115 106 107
129.4553 21.1182 -49.0054 -0.106 -0.245 0.964 94 85 88
134.4702 6.0329 -52.3720 -0.050 -0.473 0.880 110 100 98
133.8612 -4.2632 -52.2527 -0.223 0.530 0.818 120 110 111
134.8672 -6.0852 -52.8993 -0.064 0.221 0.973 114 104 103
136.0590 -8.1750 -53.6637 0.064 -0.103 0.993 112 107 101
137.9388 -10.6131 -54.8489 -0.356 0.624 0.695 113 105 102
136.9852 -12.4722 -54.3216 -0.104 0.048 0.993 86 80 80
137.4728 -12.7661 -54.6209 -0.079 0.048 0.996 89 83 83
134.7738 -13.2056 -53.0133 -0.105 0.224 0.969 121 116 113
134.7767 -13.4189 -53.0201 -0.109 0.180 0.978 123 115 113
134.6100 -13.6035 -52.9246 -0.120 0.166 0.979 123 115 113
137.0457 -16.4000 -54.4516 -0.258 -0.762 0.595 112 107 104
137.3515 -16.6763 -54.6415 -0.222 -0.758 0.613 112 107 104
137.3394 -16.8903 -54.6394 -0.371 -0.881 0.294 112 107 104
141.2858 -24.1493 -57.1787 -0.132 0.088 0.987 115 115 114
139.8773 -24.6359 -56.3458 -0.085 -0.087 0.993 122 122 122
139.9362 -25.0847 -56.3919 0.028 -0.181 0.983 101 103 105
139.3412 -25.1302 -56.0362 -0.034 -0.044 0.998 170 174 179
140.1197 -28.1485 -56.5750 -0.903 0.428 -0.040 166 169 174
140.3916 -28.4490 -56.7452 -0.810 -0.586 -0.019 167 168 173
136.0224 -27.6660 -54.1070 -0.298 -0.854 0.426 157 160 165
134.7259 -31.4171 -53.4192 -0.686 0.717 0.126 163 174 192
134.6287 -31.9702 -53.3741 -0.941 0.134 0.311 82 93 114
134.5728 -32.3408 -53.3495 -0.973 -0.225 0.042 88 99 117
136.6454 -34.1413 -54.6350 -0.749 -0.663 -0.015 172 187 206
131.2488 -32.9322 -51.3707 -0.660 0.662 0.355 174 191 209
126.7531 -31.4477 -48.6400 -0.832 0.021 0.554 183 200 218
126.6563 -31.9349 -48.5935 -0.743 -0.163 0.649 183 200 220
126.7858 -32.1651 -48.6767 -0.756 0.596 0.270 189 204 225
126.6957 -32.3024 -48.6259 -0.756 0.596 0.270 201 216 239
126.5929 -32.4338 -48.5674 -0.751 0.601 0.273 178 190 216
134.2727 87.8765 -50.6073 -0.576 -0.666 -0.475 66 88 52
136.8631 89.2318 -52.1366 -0.439 -0.668 0.601 90 112 76
121.5893 68.4728 -43.4173 -0.627 -0.747 -0.219 54 63 47
124.1089 70.0093 -44.8997 -0.546 0.545 0.637 94 103 86
123.9323 69.5829 -44.8033 -0.533 0.545 0.648 136 144 127
123.6545 69.0660 -44.6480 -0.423 0.292 0.858 152 160 144
121.9747 67.2821 -43.6773 -0.348 -0.894 0.282 141 148 130
124.8789 67.5168 -45.4219 -0.601 -0.799 -0.016 84 89 60
125.9538 68.1877 -46.0540 -0.544 -0.823 0.164 84 89 60
124.0607 63.1609 -45.0305 -0.325 -0.946 0.015 122 128 92
126.0407 54.1591 -46.4337 -0.147 -0.540 0.829 96 92 91
125.9519 51.8247 -46.4347 -0.282 -0.399 0.873 125 122 115
125.9835 51.5941 -46.4591 -0.269 -0.314 0.911 117 114 107
126.0564 51.3906 -46.5078 -0.269 -0.314 0.911 97 94 87
126.3254 51.3141 -46.6717 -0.387 0.021 0.922 87 84 77
126.2391 50.0032 -46.6503 -0.270 0.138 0.953 101 98 93
126.0499 48.8866 -46.5623 -0.060 -0.382 0.922 103 99 96
126.6048 45.5013 -46.9757 0.015 -0.337 0.941 138 130 127
127.0297 44.5070 -47.2550 -0.426 0.029 0.904 138 133 129
127.0206 44.2552 -47.2554 -0.426 0.030 0.904 124 119 116
126.9614 43.9762 -47.2262 -0.419 -0.010 0.908 113 108 105
127.7466 37.0588 -47.8608 -0.591 -0.806 -0.024 106 100 102
128.0383 36.7081 -48.0447 -0.790 -0.585 -0.184 96 90 92
128.1578 36.5200 -48.1211 -0.715 -0.697 0.050 95 89 91
128.3273 32.2701 -48.3225 -0.461 -0.644 0.610 100 94 94
129.0187 31.3440 -48.7607 -0.182 -0.134 0.974 108 104 105
128.8898 28.9191 -48.7396 0.015 -0.340 0.940 98 92 92
130.0518 17.8421 -49.6984 -0.065 -0.273 0.960 108 98 97
130.0382 17.6105 -49.6956 -0.068 -0.268 0.961 109 99 98
130.1141 17.3973 -49.7463 -0.081 -0.270 0.960 98 88 89
130.4658 13.8212 -50.0417 0.017 -0.512 0.859 107 99 97
131.2298 12.8030 -50.5258 -0.657 -0.703 -0.274 123 113 112
133.2963 7.3438 -51.8985 -0.042 -0.481 0.876 120 112 109
133.9381 6.0204 -52.3161 -0.016 -0.457 0.889 111 101 100
131.9889 5.6795 -51.1495 -0.474 -0.402 0.784 122 112 111
133.2678 -4.4341 -52.1562 -0.220 0.505 0.835 101 91 92
133.1176 -4.6411 -52.0706 -0.220 0.505 0.835 88 78 79
132.9251 -4.8444 -51.9593 -0.220 0.506 0.834 110 100 101
134.6508 -5.8394 -53.0224 -0.069 0.201 0.977 112 102 101
138.3421 -10.4342 -55.3539 -0.341 -0.010 0.940 112 104 101
135.8996 -11.6533 -53.9106 -0.898 0.273 -0.344 107 101 101
137.0822 -12.7023 -54.6477 -0.636 0.770 -0.062 90 84 84
135.9126 -12.7397 -53.9438 -0.555 0.789 0.264 95 89 91
134.3521 -12.7093 -53.0027 -0.104 0.164 0.981 100 94 94
134.2749 -13.5443 -52.9757 -0.120 0.166 0.979 123 115 113
135.6393 -15.0589 -53.8332 0.008 -0.754 0.657 137 129 127
136.1099 -15.3596 -54.1238 0.016 -0.755 0.655 137 129 127
136.8407 -16.3591 -54.5875 -0.954 -0.080 0.289 112 107 104
136.8548 -16.5775 -54.6011 -0.954 -0.080 0.289 110 105 102
138.3338 -17.5260 -55.5145 -0.157 -0.586 0.795 112 107 104
138.3244 -17.7425 -55.5139 -0.163 -0.594 0.788 111 107 104
138.0900 -20.2934 -55.4321 -0.519 -0.844 0.134 111 107 104
138.4205 -20.5876 -55.6382 -0.358 0.306 0.882 114 110 107
138.4124 -20.8017 -55.6382 -0.360 0.311 0.880 120 116 113
140.5957 -24.6235 -57.0431 -0.091 -0.185 0.978 125 125 121
140.3109 -28.4314 -56.9603 -0.674 -0.715 0.187 165 168 173
137.0041 -30.6578 -55.0197 -0.593 0.673 0.442 165 170 176
135.2310 -31.2208 -53.9644 -0.663 0.743 0.097 205 216 235
134.5644 -32.3497 -53.5891 -0.973 -0.225 0.042 79 90 110
134.6400 -32.5749 -53.6398 -0.842 0.304 0.445 122 130 151
130.6572 -32.5179 -51.2386 -0.426 0.614 0.665 163 180 198
126.6806 -31.4303 -48.8169 -0.750 -0.050 0.660 178 195 213
126.7911 -31.8285 -48.8928 -0.830 -0.316 0.460 187 204 222
126.6910 -31.9625 -48.8356 -0.819 -0.113 0.562 185 202 222
125.8899 -32.3206 -48.3612 -0.890 0.393 0.231 183 195 221
129.6571 85.6486 -48.1702 -0.376 0.122 0.918 70 94 62
134.3826 88.0930 -50.9764 -0.583 -0.662 -0.471 74 98 64
123.8996 69.9009 -45.0425 -0.549 0.537 0.641 107 110 96
123.6943 69.4485 -44.9285 -0.529 0.543 0.652 127 130 116
121.5580 67.2409 -43.6850 -0.444 -0.872 0.207 133 135 122
123.5684 63.0866 -44.9974 -0.348 -0.932 -0.104 99 106 72
125.8831 52.0945 -46.6499 -0.353 -0.008 0.936 125 122 116
125.6074 51.4105 -46.4986 -0.258 -0.317 0.913 126 123 116
125.7691 51.2659 -46.5998 -0.257 -0.328 0.909 111 108 101
125.8695 51.0808 -46.6648 -0.350 0.149 0.925 97 94 87
125.1299 48.8682 -46.2674 -0.065 -0.372 0.926 108 104 101
126.2073 45.3304 -47.0006 0.014 -0.341 0.940 141 136 132
126.3481 45.1650 -47.0896 0.013 -0.339 0.941 141 136 132
127.8630 37.4025 -48.1842 -0.505 -0.840 0.198 103 97 97
126.5695 35.6176 -47.4415 -0.393 -0.812 0.431 92 86 86
128.2490 36.1244 -48.4471 -0.603 -0.796 0.053 103 94 95
128.2827 32.0579 -48.5603 -0.131 -0.182 0.975 112 106 106
127.8607 29.3012 -48.3676 -0.736 -0.647 0.201 109 103 103
128.2795 28.9808 -48.6285 -0.630 -0.556 0.542 101 95 95
129.2112 20.6629 -49.3825 -0.134 -0.420 0.898 103 93 94
131.1493 12.8167 -50.7353 0.089 -0.312 0.946 133 123 122
131.1630 10.7811 -50.7900 -0.284 0.413 0.865 125 115 114
132.7736 7.0980 -51.8494 -0.024 -0.445 0.895 122 112 111
131.7842 5.6866 -51.2824 -0.478 -0.418 0.773 122 112 111
132.5457 -0.6916 -51.8891 -0.198 -0.006 0.980 108 98 97
132.8978 -4.4007 -52.1870 -0.273 0.601 0.751 102 92 93
132.3522 -4.7958 -51.8656 -0.463 0.593 0.659 109 99 100
134.9748 -7.8297 -53.5231 0.087 -0.350 0.933 113 108 102
135.1250 -8.0635 -53.6194 0.097 -0.312 0.945 112 107 101
134.0876 -12.4520 -53.0912 -0.120 0.072 0.990 96 90 92
134.1503 -13.3092 -53.1487 -0.109 0.176 0.978 111 106 103
133.9559 -13.4879 -53.0351 -0.115 0.168 0.979 118 110 108
133.5125 -13.6231 -52.7696 -0.376 -0.058 0.925 123 115 113
135.3409 -15.0025 -53.9084 -0.071 -0.819 0.570 123 115 113
136.7187 -16.3344 -54.7732 -0.957 -0.051 0.287 112 107 104
136.7873 -16.5634 -54.8200 -0.954 -0.080 0.289 107 102 99
136.9262 -16.8066 -54.9097 -0.371 -0.881 0.294 104 99 96
137.2461 -17.0868 -55.1098 -0.436 -0.767 0.470 109 104 101
137.6748 -17.3908 -55.3764 -0.154 -0.581 0.799 111 106 103
138.2346 -20.5455 -55.7874 -0.324 0.342 0.882 114 110 107
139.7528 -27.6212 -56.8683 -0.437 -0.492 0.753 175 180 184
139.8726 -27.8724 -56.9466 -0.575 -0.762 0.298 174 179 183
136.2564 -30.8058 -54.8234 -0.973 0.134 -0.190 189 194 200
136.0715 -30.9403 -54.7145 -0.938 0.345 -0.031 200 205 212
135.2235 -31.0304 -54.2029 -0.660 0.744 0.099 190 199 214
134.4728 -32.3265 -53.7778 -0.873 0.221 0.435 75 86 108
134.5787 -32.5634 -53.8474 -0.565 0.314 0.763 114 125 145
126.2060 -30.8959 -48.7385 -0.854 -0.477 0.209 160 177 195
126.3677 -31.1379 -48.8420 -0.859 -0.464 0.217 153 170 188
126.6395 -31.4260 -49.0132 -0.835 -0.408 0.368 170 187 205
126.6675 -31.6138 -49.0344 -0.842 -0.404 0.358 186 203 221
125.9118 -31.9961 -48.5854 -0.825 0.547 0.143 188 203 226
125.8283 -32.1342 -48.5380 -0.825 0.547 0.143 202 214 240
125.8063 -32.2982 -48.5285 -0.949 0.285 0.139 207 219 245
135.0518 88.5659 -51.6817 -0.595 -0.672 -0.442 81 105 71
122.6420 69.6138 -44.5502 -0.560 -0.811 0.166 61 61 51
123.1803 69.3241 -44.8843 -0.558 0.577 0.596 102 102 92
121.3228 67.1069 -43.8030 -0.465 -0.808 0.362 101 99 90
121.4648 66.9802 -43.8923 -0.440 -0.881 0.173 118 118 107
121.6335 66.8769 -43.9973 -0.442 -0.880 0.174 124 125 109
126.2252 68.8578 -46.7481 -0.295 0.467 0.834 85 88 57
122.1465 64.5183 -44.3621 -0.404 -0.106 0.909 85 90 58
121.9279 63.8209 -44.2446 -0.337 0.225 0.914 85 92 61
123.3122 63.2060 -45.1009 -0.326 -0.943 -0.066 92 99 68
124.4921 61.3384 -45.8607 -0.351 -0.390 0.851 99 105 69
125.7863 53.6088 -46.8207 -0.037 -0.038 0.999 107 103 102
125.6144 51.9799 -46.7523 -0.353 -0.008 0.936 115 112 106
125.3869 51.5786 -46.6228 -0.325 -0.121 0.938 124 121 114
125.3988 51.3365 -46.6354 -0.347 -0.072 0.935 122 119 112
125.5800 50.9551 -46.7543 -0.350 0.149 0.925 101 98 91
125.5227 50.6681 -46.7258 -0.290 -0.038 0.956 102 99 92
126.2214 50.3662 -47.1578 -0.255 0.140 0.957 116 113 108
125.8763 35.5901 -47.2769 -0.753 0.272 0.599 92 86 86
125.9767 35.3996 -47.3423 -0.618 0.250 0.745 92 86 86
127.8562 34.5557 -48.5052 -0.344 0.427 0.836 112 103 104
127.5553 33.9508 -48.3355 -0.325 0.358 0.876 111 102 103
127.4271 33.6593 -48.2639 -0.325 0.358 0.876 110 101 102
127.6137 33.4989 -48.3811 -0.586 0.255 0.769 111 102 103
127.5449 33.2329 -48.3452 -0.586 0.255 0.769 112 103 104
127.4763 32.9676 -48.3093 -0.622 0.278 0.732 115 106 107
127.3652 32.4493 -48.2532 -0.739 0.263 0.621 110 101 102
126.8287 24.8396 -48.0962 -0.768 -0.635 0.085 88 87 83
127.5889 21.1985 -48.6400 -0.367 -0.772 0.518 98 89 90
127.9866 20.6203 -48.8950 -0.359 -0.777 0.518 110 100 101
128.6455 20.5561 -49.2975 -0.176 -0.897 0.405 110 100 101
129.7070 19.8942 -49.9584 -0.182 -0.371 0.911 105 95 96
129.6289 19.6458 -49.9164 -0.121 -0.192 0.974 105 95 96
129.0593 18.6022 -49.5929 -0.028 -0.316 0.948 105 95 93
129.3445 17.7539 -49.7854 -0.199 -0.195 0.960 108 98 96
129.2239 17.0484 -49.7277 -0.079 -0.272 0.959 96 86 87
130.5155 16.6188 -50.5235 -0.208 -0.744 0.635 112 102 103
132.4094 7.3170 -51.8835 -0.160 -0.554 0.817 126 116 115
132.4392 6.8681 -51.9117 -0.023 -0.473 0.881 109 99 98
131.3501 5.4590 -51.2802 -0.141 -0.450 0.882 122 112 113
131.6763 1.7309 -51.5617 -0.248 -0.126 0.960 118 108 106
131.5566 -1.3078 -51.5566 -0.088 0.081 0.993 107 97 96
132.5506 -1.9873 -52.1768 -0.040 -0.308 0.950 122 112 111
132.3931 -3.7130 -52.1194 -0.357 0.422 0.833 124 114 113
132.5738 -4.1546 -52.2392 -0.467 0.595 0.654 120 110 109
132.4076 -4.3599 -52.1426 -0.458 0.602 0.654 106 96 95
132.2597 -4.5653 -52.0572 -0.458 0.602 0.654 90 80 79
132.0366 -4.7647 -51.9258 -0.458 0.587 0.668 108 98 97
135.2067 -9.5931 -53.9630 0.146 -0.384 0.911 109 101 98
133.8141 -13.2506 -53.1968 -0.109 0.176 0.978 112 104 102
133.6226 -13.4291 -53.0842 -0.115 0.168 0.979 118 110 108
133.3554 -13.5937 -52.9253 -0.376 -0.081 0.923 123 115 113
136.8652 -16.5780 -55.1281 -0.499 0.195 0.844 100 95 92
136.4400 -16.7088 -54.8722 -0.370 -0.879 0.303 70 65 62
137.9893 -20.4892 -55.8995 -0.324 0.342 0.882 113 109 106
137.8503 -20.6710 -55.8190 -0.328 0.328 0.886 118 114 111
137.4778 -25.2443 -55.6941 -0.164 0.363 0.917 167 173 173
137.3814 -25.4257 -55.6395 -0.164 0.363 0.917 190 196 196
137.3923 -25.6384 -55.6508 -0.054 0.117 0.992 180 186 186
136.2686 -28.1802 -55.0235 -0.450 -0.876 0.173 175 180 186
137.1093 -28.6646 -55.5460 -0.458 -0.868 0.192 175 180 186
136.3934 -30.8659 -55.1593 -0.973 0.148 -0.178 187 192 198
136.1354 -30.9744 -55.0047 -0.893 0.412 0.179 199 204 210
134.8454 -30.9022 -54.2178 -0.724 0.650 0.231 188 195 208
134.6824 -31.0400 -54.1217 -0.741 0.661 0.117 206 213 232
134.5586 -31.1915 -54.0497 -0.741 0.661 0.117 201 210 230
134.3836 -32.3042 -53.9680 -0.873 0.221 0.435 71 82 102
134.4434 -32.5231 -54.0092 -0.565 0.330 0.756 107 118 138
126.6523 -31.7964 -49.2507 -0.835 -0.458 0.306 185 202 220
126.6689 -31.9793 -49.2648 -0.967 0.186 0.174 186 203 221
125.6882 -32.2609 -48.6742 -0.895 0.384 0.225 204 216 242
130.8677 88.6344 -49.4318 -0.474 0.634 0.611 60 84 52
134.9791 88.5978 -51.9478 -0.380 -0.885 0.270 62 87 55
136.0967 89.0984 -52.6206 -0.398 -0.500 0.769 48 73 41
133.9933 86.0506 -51.4001 -0.384 0.548 0.743 59 84 52
122.4074 70.0019 -44.6615 -0.547 -0.806 0.225 88 87 77
122.5537 69.8769 -44.7537 -0.547 -0.806 0.225 100 97 88
122.6763 69.7290 -44.8319 -0.590 -0.758 0.279 112 109 100
121.1582 67.2926 -43.9562 -0.470 -0.807 0.357 94 91 82
121.2430 67.1143 -44.0119 -0.458 -0.820 0.344 100 97 88
121.4657 67.0611 -44.1493 -0.435 -0.838 0.329 114 114 105
121.6489 66.9708 -44.2634 -0.442 -0.837 0.322 123 124 107
121.8613 66.9058 -44.3947 -0.414 -0.825 0.385 112 115 87
122.1389 66.8982 -44.5647 -0.475 -0.804 0.357 95 98 66
122.1574 66.6571 -44.5813 -0.448 -0.820 0.355 81 85 52
121.8149 66.0944 -44.3840 -0.465 0.265 0.845 77 80 49
123.1826 66.5317 -45.2112 -0.345 0.094 0.934 88 89 58
123.2526 62.9754 -45.3313 -0.215 -0.967 0.135 81 88 55
123.9201 61.4688 -45.7725 -0.425 -0.200 0.883 93 99 61
124.0088 61.2833 -45.8308 -0.357 -0.273 0.893 98 104 66
124.2757 61.2397 -45.9950 -0.351 -0.390 0.851 101 107 72
125.9065 35.4147 -47.5543 -0.393 0.103 0.914 94 88 88
126.1447 35.2850 -47.7029 -0.239 -0.369 0.898 114 105 106
126.0956 35.0274 -47.6784 -0.305 -0.271 0.913 115 106 107
127.2390 29.3918 -48.5005 0.026 -0.063 0.998 109 103 103
128.0994 25.7293 -49.1065 -0.523 -0.302 0.797 104 100 97
128.4776 25.6147 -49.3403 -0.376 -0.802 0.464 94 93 89
125.2110 20.1791 -47.4602 -0.350 -0.835 0.423 98 89 90
129.4004 19.8539 -50.0301 -0.185 -0.366 0.912 118 108 109
128.3486 18.4756 -49.4167 -0.121 -0.089 0.989 119 109 107
127.7889 17.2342 -49.1013 -0.169 -0.377 0.911 109 99 97
128.0703 17.0688 -49.2770 -0.195 -0.378 0.905 99 89 90
128.4937 16.7060 -49.5439 -0.208 -0.690 0.694 102 92 93
127.3032 16.2488 -48.8256 -0.189 -0.654 0.732 107 97 98
131.8619 7.2952 -51.8091 -0.154 -0.554 0.819 128 118 117
131.4761 1.5260 -51.6986 -0.505 0.454 0.734 121 111 109
133.5367 -2.6681 -53.0504 -0.172 -0.163 0.971 123 113 112
133.6483 -2.8926 -53.1236 -0.171 -0.166 0.971 123 113 112
132.5969 -3.9295 -52.5029 -0.466 0.595 0.654 125 115 114
132.0940 -4.5445 -52.2086 -0.465 0.597 0.653 111 101 100
134.3003 -8.1804 -53.6375 0.048 -0.070 0.996 115 108 102
133.6266 -9.6103 -53.2564 0.049 -0.006 0.999 111 103 100
133.6205 -12.3720 -53.3127 -0.265 0.040 0.963 97 88 89
133.0872 -13.3364 -53.0074 -0.390 -0.079 0.917 117 109 107
133.0483 -13.5388 -52.9881 -0.378 -0.093 0.921 122 114 112
133.2517 -13.7825 -53.1178 -0.403 -0.034 0.915 126 118 116
133.2555 -14.2010 -53.1292 -0.891 -0.425 -0.160 125 117 115
133.4777 -14.4496 -53.2706 -0.896 -0.418 -0.154 124 116 114
132.9994 -14.5712 -52.9806 -0.940 -0.288 0.184 123 115 113
134.5225 -15.6937 -53.9368 -0.514 -0.795 0.322 113 109 106
134.8587 -15.9699 -54.1485 -0.400 -0.832 0.385 109 104 101
136.0250 -16.6253 -54.8762 -0.399 -0.849 0.347 76 71 68
137.4378 -18.2079 -55.7749 -0.246 0.001 0.969 114 112 113
137.6062 -20.6146 -55.9303 -0.328 0.328 0.886 110 106 103
137.3895 -24.3835 -55.8797 -0.033 -0.320 0.947 114 111 108
136.9939 -28.6350 -55.7301 -0.475 -0.862 0.178 173 180 186
137.7633 -29.0993 -56.2109 -0.467 -0.869 0.162 173 180 186
136.2365 -30.8200 -55.3143 -0.854 0.453 0.256 165 170 176
136.0925 -30.9696 -55.2295 -0.893 0.412 0.179 169 174 180
134.7424 -30.8753 -54.4015 -0.725 0.648 0.231 168 174 186
134.6066 -31.0230 -54.3216 -0.735 0.667 0.124 174 181 196
134.4650 -31.1678 -54.2381 -0.734 0.668 0.120 177 183 200
134.2483 -32.0682 -54.1251 -0.946 0.100 0.308 73 81 99
134.4653 -32.3479 -54.2640 -0.734 0.389 0.557 71 79 97
134.4729 -32.5469 -54.2730 -0.740 0.383 0.553 103 111 128
134.3046 -32.6770 -54.1728 -0.690 0.320 0.649 145 155 172
126.4361 -31.3671 -49.3308 -0.962 -0.220 -0.162 173 190 208
126.6170 -31.9706 -49.4545 -0.972 0.205 0.116 180 197 215
126.5846 -32.1328 -49.4383 -0.972 0.205 0.116 184 199 218
125.6125 -32.2418 -48.8460 -0.816 0.513 0.267 192 204 230
133.2755 87.8960 -51.2269 -0.963 -0.034 0.266 82 107 75
134.3826 88.4091 -51.8967 -0.429 -0.870 0.243 68 95 64
134.9277 88.6516 -52.2267 -0.380 -0.884 0.272 60 87 56
134.0476 86.5169 -51.7309 -0.462 0.539 0.704 57 84 53
121.6457 69.6307 -44.4642 -0.288 0.391 0.874 94 95 85
121.5049 67.4338 -44.4242 -0.357 -0.767 0.533 112 112 102
121.4890 67.1626 -44.4202 -0.480 -0.804 0.351 108 109 97
121.6332 67.0367 -44.5115 -0.480 -0.804 0.351 103 105 85
121.8112 66.9407 -44.6230 -0.411 -0.820 0.398 94 97 68
121.8969 66.7607 -44.6795 -0.488 -0.798 0.354 81 85 52
123.5152 63.0123 -45.7540 -0.218 -0.966 0.136 87 93 57
124.4703 63.2838 -46.3355 -0.317 -0.948 -0.028 86 92 54
124.1489 62.7603 -46.1490 -0.315 0.147 0.938 86 92 54
124.8991 50.1401 -46.8780 -0.125 0.146 0.981 107 106 102
129.1644 20.5188 -50.1289 -0.148 -0.783 0.604 115 105 106
129.0029 20.0209 -50.0401 -0.190 -0.776 0.602 122 112 113
128.0081 18.4305 -49.4623 -0.121 -0.089 0.989 118 108 106
127.8003 17.2656 -49.3592 -0.115 -0.412 0.904 93 83 81
128.0121 16.8622 -49.4980 -0.193 -0.274 0.942 99 89 90
131.3758 7.5014 -51.7647 -0.127 0.338 0.932 126 116 115
131.5428 7.2909 -51.8719 -0.154 -0.554 0.819 129 119 118
131.4984 6.6174 -51.8588 -0.107 0.374 0.921 78 68 67
131.1082 5.4829 -51.6430 -0.108 0.381 0.918 114 104 105
129.5614 3.0230 -50.7442 -0.099 -0.485 0.869 115 105 106
132.3153 -2.6058 -52.5568 -0.074 -0.043 0.996 117 109 106
132.1128 -3.8913 -52.4596 -0.312 0.307 0.899 121 111 110
133.9443 -8.3516 -53.6802 0.061 -0.072 0.996 129 120 115
133.8747 -8.5597 -53.6419 0.068 0.137 0.988 118 109 104
132.4912 -12.8178 -52.8816 -0.864 -0.448 -0.231 109 101 99
132.9884 -13.1080 -53.1934 -0.888 -0.453 0.075 112 104 101
132.8490 -13.2937 -53.1117 -0.894 -0.446 0.051 117 109 106
133.2227 -13.7751 -53.3517 -0.912 -0.400 0.090 126 118 115
133.1752 -13.9758 -53.3267 -0.903 -0.422 0.085 129 121 119
133.4638 -14.2359 -53.5097 -0.902 -0.427 0.068 130 122 120
133.2467 -14.4060 -53.3798 -0.788 -0.562 0.252 129 121 119
133.3656 -14.6363 -53.4578 -0.906 -0.382 0.181 129 121 119
133.4450 -14.8597 -53.5113 -0.902 -0.403 0.155 129 121 119
136.4026 -17.3441 -55.3825 -0.217 -0.533 0.818 105 101 98
137.0518 -17.9101 -55.7936 -0.243 0.056 0.968 116 112 111
137.0324 -18.1214 -55.7862 -0.243 0.056 0.968 115 113 114
137.2876 -20.5401 -55.9944 -0.330 0.297 0.896 108 104 101
137.2587 -20.7469 -55.9810 -0.359 0.210 0.909 108 104 101
135.9147 -20.6299 -55.1522 -0.129 -0.734 0.667 108 104 101
137.0491 -24.5021 -55.9318 -0.033 -0.320 0.947 105 106 104
136.8485 -25.2805 -55.8250 -0.102 0.199 0.975 122 128 128
135.9031 -25.2069 -55.2422 -0.069 0.003 0.998 159 165 165
136.1989 -30.8171 -55.5431 -0.858 0.447 0.252 163 168 174
136.0039 -30.9483 -55.4260 -0.894 0.411 0.179 162 167 173
134.7188 -30.8776 -54.6344 -0.741 0.658 0.132 158 162 171
134.4901 -30.9910 -54.4962 -0.712 0.688 0.140 151 156 167
134.3611 -31.1403 -54.4200 -0.712 0.688 0.140 139 145 157
134.2406 -32.0773 -54.3658 -0.935 0.089 0.343 100 106 120
134.5649 -32.3986 -54.5720 -0.775 0.389 0.498 104 111 123
134.3750 -32.5212 -54.4579 -0.745 0.398 0.535 119 126 138
134.1591 -32.6326 -54.3275 -0.732 0.388 0.560 142 150 162
134.0024 -32.7661 -54.2340 -0.704 0.335 0.626 159 169 182
134.0697 -32.9874 -54.2801 -0.688 0.346 0.638 174 186 200
126.3763 -31.7068 -49.5228 -0.579 0.549 0.603 167 183 199
126.5919 -31.9732 -49.6610 -0.972 0.205 0.116 172 189 207
126.5595 -32.1355 -49.6446 -0.972 0.205 0.116 184 199 218
125.8615 -32.1884 -49.2165 -0.815 0.528 0.236 191 203 227
125.5356 -32.2222 -49.0169 -0.814 0.517 0.265 193 205 231
127.5949 94.8485 -47.8795 -0.782 0.544 0.303 58 85 44
131.1708 97.8425 -50.0271 -0.783 -0.563 -0.264 55 83 42
133.5969 93.3397 -51.6194 -0.704 -0.462 -0.540 79 107 66
132.7636 91.4967 -51.1426 -0.574 0.582 0.577 46 72 35
131.1562 85.2180 -50.2793 -0.508 0.545 0.667 67 94 63
122.4831 71.0296 -45.2137 -0.338 0.569 0.749 59 69 55
121.4000 67.4187 -44.6192 -0.355 -0.762 0.541 102 102 92
121.4423 67.2005 -44.6498 -0.498 -0.789 0.360 81 82 68
121.3152 66.3170 -44.5895 -0.419 0.206 0.885 74 78 45
121.3350 66.0794 -44.6067 -0.384 0.195 0.902 74 77 47
124.4137 62.7933 -46.5770 -0.682 0.466 0.563 85 91 53
124.8577 51.1689 -47.0918 -0.210 0.208 0.955 87 86 82
124.8615 50.9225 -47.0992 -0.197 0.218 0.956 86 85 81
123.9510 42.1111 -46.7189 -0.018 0.100 0.995 110 104 108
123.9072 35.3023 -46.8327 -0.462 0.114 0.879 89 83 83
125.2170 35.1987 -47.6441 -0.363 0.109 0.925 103 97 97
124.8449 33.4078 -47.4513 -0.156 -0.604 0.781 119 110 111
125.1628 33.3115 -47.6497 -0.157 -0.580 0.799 119 110 111
126.4758 25.0666 -48.6315 -0.584 -0.795 0.165 95 91 88
127.0168 25.0060 -48.9670 -0.770 -0.637 0.018 99 95 92
127.1647 24.3650 -49.0717 -0.634 -0.732 -0.249 100 94 94
127.1484 24.1317 -49.0664 -0.796 -0.580 -0.169 102 93 96
127.0100 17.3519 -49.1212 -0.105 -0.364 0.926 96 86 84
128.7994 13.6859 -50.3027 -0.086 0.179 0.980 93 85 83
130.7520 11.7279 -51.5497 -0.777 -0.629 0.026 122 112 113
129.7762 8.9339 -51.0046 -0.110 0.157 0.982 121 116 113
129.6549 8.7014 -50.9344 -0.303 0.663 0.685 121 116 113
131.2828 7.2911 -51.9695 -0.150 -0.546 0.824 124 114 113
131.0911 6.8311 -51.8605 -0.030 0.363 0.931 99 89 88
131.1530 2.8634 -51.9808 0.001 -0.464 0.886 117 107 106
131.3281 2.6485 -52.0934 0.001 -0.464 0.886 103 93 92
131.5429 -1.2690 -52.3072 -0.229 -0.004 0.973 93 85 82
131.5386 -1.4849 -52.3090 -0.229 -0.004 0.973 98 90 87
131.7662 -3.4319 -52.4899 -0.138 -0.060 0.989 114 104 103
131.8024 -3.6485 -52.5168 -0.156 -0.032 0.987 114 104 103
129.3905 -5.3864 -51.0624 -0.524 0.489 0.698 105 99 99
128.9666 -5.9698 -50.8126 -0.428 0.335 0.839 117 111 111
132.5377 -9.2530 -53.0871 0.066 0.123 0.990 105 97 94
132.8593 -12.6654 -53.3563 -0.921 -0.350 -0.173 107 97 96
132.6189 -12.8355 -53.2113 -0.873 -0.420 -0.250 108 100 97
132.4886 -13.0224 -53.1347 -0.936 -0.332 -0.116 111 103 100
133.0157 -13.5279 -53.4709 -0.921 -0.383 0.070 121 113 110
133.0639 -13.7452 -53.5051 -0.912 -0.400 0.088 125 117 114
133.3384 -14.2115 -53.6844 -0.303 -0.780 0.547 133 125 123
128.8874 -14.2122 -50.9342 -0.305 -0.066 0.950 124 119 116
135.0720 -16.6454 -54.8059 -0.288 0.453 0.844 91 86 83
136.2733 -17.5313 -55.5665 -0.314 -0.158 0.936 103 99 98
136.5864 -17.8117 -55.7657 -0.315 -0.038 0.948 114 110 109
136.4459 -17.9960 -55.6827 -0.315 -0.037 0.948 114 112 113
137.1405 -20.5071 -56.1639 -0.215 -0.105 0.971 108 104 101
135.5518 -25.1085 -55.2774 -0.066 -0.015 0.998 111 117 117
135.4725 -25.2900 -55.2322 -0.066 -0.044 0.997 133 139 139
135.4829 -25.4983 -55.2429 -0.063 -0.024 0.998 168 174 174
134.0565 -25.4687 -54.3609 -0.131 0.167 0.977 169 174 177
135.8951 -30.9195 -55.6097 -0.908 0.342 0.241 163 168 174
135.1383 -30.8438 -55.1406 -0.592 0.697 0.405 163 166 173
134.2752 -30.9225 -54.6089 -0.670 0.455 0.586 152 156 165
134.0822 -31.0476 -54.4922 -0.677 0.461 0.574 144 149 156
134.7364 -32.4772 -54.9260 -0.842 0.539 0.015 116 120 130
134.2914 -32.5010 -54.6515 -0.870 0.472 0.144 128 132 141
132.5905 -32.4144 -53.5987 -0.711 0.693 0.122 163 171 182
130.4822 -31.7662 -52.2827 -0.612 0.727 0.312 188 198 212
130.3576 -31.9028 -52.2085 -0.612 0.727 0.312 186 199 215
130.2335 -32.0388 -52.1346 -0.612 0.727 0.312 183 198 213
127.3396 -31.2310 -50.3298 -0.710 0.682 0.175 182 197 212
126.3494 -32.0598 -49.7351 -0.531 -0.311 0.788 180 196 214
125.5753 -32.0794 -49.2572 -0.808 0.532 0.252 209 223 246
131.8740 98.7868 -50.7507 -0.692 -0.432 0.579 55 83 43
132.0346 98.6576 -50.8529 -0.680 -0.430 0.593 55 83 43
133.2710 92.1533 -51.7518 -0.525 0.586 0.617 49 75 38
129.6158 87.6123 -49.5736 -0.525 0.629 0.573 56 82 47
131.1822 82.3508 -50.6522 -0.653 0.294 0.698 76 89 73
130.6537 81.5333 -50.3405 -0.745 -0.625 -0.235 75 87 75
121.0711 67.1984 -44.6789 -0.644 -0.765 0.022 105 105 95
121.3854 67.2291 -44.8734 -0.621 -0.770 0.147 92 92 79
121.5251 67.0993 -44.9628 -0.621 -0.770 0.147 76 78 58
121.4380 66.7636 -44.9155 -0.508 -0.796 0.329 74 77 47
124.2442 55.8218 -46.8786 -0.488 -0.252 0.836 82 78 75
123.5875 54.8448 -46.4905 -0.479 0.054 0.876 82 78 75
125.3232 35.5272 -47.9576 -0.432 -0.298 0.851 103 97 97
125.3323 35.2967 -47.9678 -0.495 -0.286 0.821 109 103 103
125.4780 35.1272 -48.0618 -0.451 -0.020 0.892 120 114 114
125.3962 31.8303 -48.0774 -0.287 -0.169 0.943 109 100 101
127.7886 32.5569 -49.5483 -0.304 -0.734 0.608 107 101 101
125.4818 28.6449 -48.1947 0.029 -0.082 0.996 103 97 97
124.7838 27.4890 -47.7846 -0.752 -0.553 -0.359 104 98 98
124.8118 27.2733 -47.8063 -0.744 -0.560 -0.365 112 106 106
126.1127 27.4952 -48.6096 0.011 -0.054 0.998 112 108 109
125.5035 25.7010 -48.2676 -0.657 -0.751 0.066 110 106 106
127.8469 23.6841 -49.7634 -0.922 -0.363 -0.132 102 93 98
126.6593 17.5277 -49.1500 -0.111 -0.337 0.935 97 87 85
126.9511 17.1471 -49.3388 -0.076 -0.449 0.890 98 88 86
127.1302 16.7412 -49.4583 -0.061 -0.262 0.963 117 107 108
129.0692 9.1042 -50.8162 -0.072 -0.119 0.990 109 104 101
129.4128 8.9193 -51.0333 -0.042 -0.042 0.998 117 112 109
130.6899 7.0435 -51.8641 -0.023 0.369 0.929 116 106 105
128.8819 3.2504 -50.8179 -0.071 -0.488 0.870 123 112 115
130.6426 1.5647 -51.9452 -0.387 0.165 0.907 116 106 104
131.4170 -1.2529 -52.4828 -0.140 -0.131 0.981 89 79 77
131.5118 -3.4078 -52.5851 -0.098 -0.031 0.995 111 99 99
131.5409 -3.6236 -52.6075 -0.101 -0.027 0.994 111 101 100
132.7534 -12.8542 -53.5465 -0.872 -0.426 -0.243 107 97 96
132.7845 -13.6944 -53.5827 -0.415 -0.629 0.657 123 115 112
132.8645 -13.9168 -53.6369 -0.466 -0.551 0.692 130 122 119
133.2053 -14.1857 -53.8539 -0.289 -0.764 0.577 133 125 122
134.6725 -16.5642 -54.8130 -0.434 0.439 0.787 91 87 84
134.5781 -16.7556 -54.7582 -0.434 0.439 0.787 94 90 87
134.3309 -16.9148 -54.6079 -0.292 0.444 0.847 98 94 91
134.3498 -17.3377 -54.6281 -0.262 0.440 0.859 112 108 105
137.8097 -24.7314 -56.9256 -0.005 -0.110 0.994 109 111 109
137.3221 -24.8024 -56.6243 0.018 -0.022 1.000 98 102 103
137.0800 -24.9423 -56.4767 -0.045 0.016 0.999 107 113 111
136.8876 -25.0955 -56.3604 -0.048 0.012 0.999 113 119 117
133.9480 -25.6433 -54.5460 -0.138 0.213 0.967 165 170 173
133.7560 -30.7410 -54.5295 -0.571 0.291 0.768 152 156 165
133.6001 -31.0744 -54.4394 -0.566 0.491 0.662 140 144 153
134.4691 -32.3860 -55.0055 -0.845 0.535 -0.000 118 122 131
134.0977 -32.4379 -54.7759 -0.991 0.127 -0.036 124 131 141
133.9436 -32.5731 -54.6829 -1.000 -0.012 -0.010 136 140 149
132.5547 -32.4128 -53.8172 -0.711 0.693 0.122 152 160 170
130.5613 -31.8101 -52.5672 -0.607 0.718 0.341 179 189 202
130.6778 -32.0436 -52.6443 -0.617 0.739 0.271 179 191 207
127.3575 -31.0717 -50.5629 -0.498 0.421 0.758 182 195 208
126.0434 -31.5933 -49.7574 -0.531 -0.311 0.788 184 196 211
126.2454 -32.0290 -49.8916 -0.810 -0.256 0.528 175 188 203
126.3445 -32.2465 -49.9575 -0.878 -0.206 0.432 174 188 205
125.9591 -32.2570 -49.7184 -0.864 0.490 0.114 179 195 217
131.2325 98.4657 -50.6656 -0.491 -0.464 0.738 49 75 36
132.1978 98.9676 -51.2582 -0.740 -0.484 0.467 45 71 32
136.1286 92.1179 -53.8456 -0.576 0.678 0.458 64 90 55
131.3361 82.9007 -51.0356 -0.531 0.168 0.831 79 97 76
131.2725 82.5388 -51.0030 -0.531 0.168 0.831 85 98 82
130.4873 81.1720 -50.5398 -0.887 -0.401 -0.230 62 74 62
120.2379 66.7688 -44.4262 -0.413 -0.867 0.280 112 112 102
120.9818 66.9412 -44.8870 -0.373 -0.742 0.557 90 91 76
121.3024 66.9773 -45.0864 -0.417 -0.744 0.522 76 78 55
123.7073 68.6349 -46.5547 -0.350 -0.924 0.154 74 78 45
120.7171 60.9102 -44.8402 -0.241 -0.455 0.857 82 90 51
121.1225 58.0185 -45.1499 -0.399 0.622 0.674 81 89 41
121.4183 57.7568 -45.3397 -0.488 0.206 0.848 73 81 33
122.9438 56.6878 -46.3126 -0.136 0.080 0.987 75 76 62
122.1080 54.8270 -45.8275 -0.244 -0.483 0.841 80 77 70
122.2278 50.5209 -45.9867 -0.051 -0.137 0.989 99 96 91
123.3851 49.8320 -46.7225 -0.107 0.069 0.992 106 105 101
124.7572 39.0792 -47.7897 0.054 -0.265 0.963 95 91 90
125.0911 39.0089 -47.9994 0.025 -0.217 0.976 100 94 94
125.4463 38.7088 -48.2270 0.017 -0.212 0.977 103 94 95
125.6603 38.5753 -48.3631 0.021 -0.217 0.976 101 95 95
124.6335 35.7279 -47.7782 -0.188 -0.257 0.948 96 90 90
125.0756 35.4618 -48.0594 -0.445 -0.285 0.849 109 103 103
125.1358 35.2547 -48.1010 -0.495 -0.286 0.821 114 108 108
125.4168 35.1462 -48.2785 -0.426 -0.074 0.901 122 113 114
125.6464 35.0133 -48.4243 -0.551 0.186 0.814 122 113 114
125.8656 25.8550 -48.7408 -0.670 -0.739 -0.070 110 106 105
126.2823 25.5340 -49.0072 -0.710 -0.703 0.021 100 96 93
126.5794 25.4000 -49.1952 -0.758 -0.650 -0.058 94 90 87
126.5632 25.1667 -49.1897 -0.716 -0.656 -0.239 88 84 81
128.2246 23.3665 -50.2618 -0.233 0.070 0.970 98 89 92
128.1867 22.8949 -50.2474 -0.160 -0.107 0.981 98 89 92
128.4901 22.5173 -50.4441 -0.176 -0.173 0.969 100 91 92
126.3246 21.0343 -49.1218 -0.573 0.716 0.398 95 86 87
126.0701 20.7455 -48.9686 -0.573 0.716 0.398 95 86 87
126.5968 20.2095 -49.3079 -0.459 0.109 0.882 116 106 107
126.6150 19.9906 -49.3235 -0.263 0.169 0.950 116 106 107
126.9322 16.2880 -49.5941 -0.061 -0.262 0.963 107 97 98
128.0973 5.5817 -50.5312 -0.263 0.203 0.943 111 101 102
128.4409 3.2535 -50.7913 -0.078 -0.533 0.842 123 113 114
129.4822 1.9972 -51.4658 -0.286 -0.353 0.891 99 89 87
130.2280 1.5762 -51.9395 -0.313 0.167 0.935 116 106 104
131.5651 -1.0272 -52.8250 -0.187 -0.043 0.981 91 81 79
131.2136 -1.2350 -52.6097 -0.134 -0.115 0.984 85 75 73
130.9991 -2.0883 -52.4926 -0.141 -0.063 0.988 115 107 104
131.1607 -3.3789 -52.6187 -0.098 -0.031 0.995 123 111 111
128.9790 -5.1308 -51.2916 -0.494 0.580 0.648 103 97 97
131.6445 -8.7137 -53.0253 -0.017 0.118 0.993 98 91 85
130.5403 -8.7937 -52.3378 0.084 -0.089 0.992 116 108 105
130.5677 -9.0040 -52.3590 0.084 -0.089 0.992 115 107 104
132.3768 -12.9980 -53.5664 -0.605 -0.099 0.790 102 94 91
132.3930 -13.2088 -53.5806 -0.605 -0.099 0.790 107 99 96
132.6067 -13.4530 -53.7187 -0.357 -0.004 0.934 112 104 101
134.5610 -16.3304 -54.9948 -0.273 0.289 0.918 91 87 84
134.4360 -16.5159 -54.9204 -0.434 0.436 0.789 88 84 81
134.3002 -16.6985 -54.8392 -0.438 0.443 0.782 93 89 86
134.0073 -16.8477 -54.6594 -0.449 0.347 0.824 98 94 91
133.9953 -17.2628 -54.6600 -0.263 0.445 0.856 109 105 102
134.6953 -25.0691 -55.2500 0.030 -0.171 0.985 83 89 89
134.6495 -25.2588 -55.2251 0.003 -0.098 0.995 122 128 128
133.4128 -25.4842 -54.4578 -0.089 0.234 0.968 169 175 175
132.0868 -29.7475 -53.7139 -0.845 -0.098 -0.526 162 166 175
132.6595 -32.0826 -54.1172 -0.661 0.563 0.497 132 136 145
132.5457 -32.2300 -54.0490 -0.663 0.561 0.496 138 142 151
128.2330 -31.4389 -51.3421 -0.410 0.387 0.826 178 190 204
127.7571 -31.4261 -51.0449 -0.569 0.701 0.430 182 194 208
127.4705 -31.4886 -50.8673 -0.585 0.700 0.411 184 196 210
127.0511 -31.8507 -50.6126 -0.593 0.712 0.377 192 204 218
126.1356 -31.9957 -50.0442 -0.810 -0.256 0.528 180 192 206
127.8052 95.1376 -48.8871 -0.624 0.239 0.744 46 70 34
130.1129 97.2599 -50.2938 -0.228 -0.619 0.751 38 62 26
120.7122 70.1138 -44.9163 -0.595 0.660 0.458 84 96 82
120.0082 66.6373 -44.5411 -0.439 -0.659 0.611 103 104 91
120.2515 66.6076 -44.6943 -0.515 -0.692 0.507 87 87 74
123.2101 57.2082 -46.7291 -0.247 0.477 0.843 74 74 62
123.3635 49.8793 -46.9651 -0.126 0.451 0.884 109 108 104
122.7980 42.3421 -46.7543 -0.166 -0.103 0.981 93 89 88
122.6401 38.5270 -46.7281 -0.012 -0.429 0.903 101 97 96
124.0683 37.3770 -47.6457 -0.048 0.069 0.996 100 94 94
125.2077 35.5682 -48.3948 -0.513 -0.267 0.816 114 108 108
125.4862 31.7206 -48.6429 -0.155 -0.228 0.961 118 112 112
125.5440 31.5120 -48.6831 -0.155 -0.228 0.961 114 108 108
125.1720 27.4752 -48.5268 -0.769 -0.516 -0.377 113 109 108
124.4995 25.6726 -48.1395 -0.463 -0.702 0.541 116 110 110
124.7029 25.5153 -48.2700 -0.477 -0.715 0.511 112 106 106
124.9894 25.3837 -48.4522 -0.456 -0.746 0.485 106 102 99
127.3487 24.5278 -49.9482 0.062 -0.335 0.940 109 103 103
127.6752 22.7876 -50.1862 -0.164 -0.110 0.980 102 93 95
126.6797 21.6090 -49.5843 -0.346 0.128 0.929 101 96 93
126.4298 21.0941 -49.4374 -0.507 0.531 0.678 96 88 86
125.9661 20.3064 -49.1617 -0.505 0.525 0.685 120 110 109
126.2320 19.9281 -49.3356 -0.244 0.066 0.968 120 110 109
127.4469 17.3083 -50.1475 -0.385 0.064 0.921 111 101 100
129.1143 10.2541 -51.3278 0.003 -0.050 0.999 85 77 75
128.4507 7.7794 -50.9589 0.009 0.115 0.993 121 113 111
128.4247 6.6959 -50.9632 0.022 0.089 0.996 122 112 111
128.5365 6.2724 -51.0415 0.025 0.085 0.996 97 87 86
127.9056 5.3754 -50.6629 -0.185 0.146 0.972 116 106 107
129.7567 -0.3360 -51.9328 -0.285 0.091 0.954 114 102 102
130.1750 -2.4713 -52.2358 -0.127 -0.069 0.990 120 112 109
130.3851 -2.6922 -52.3719 -0.149 -0.097 0.984 125 117 114
130.4068 -2.9054 -52.3895 -0.149 -0.097 0.984 125 115 114
132.0722 -7.9098 -53.5294 0.023 0.076 0.997 127 118 113
131.9908 -8.1130 -53.4823 0.023 0.078 0.997 128 119 114
131.7235 -8.2951 -53.3181 0.011 0.090 0.996 126 117 112
130.4250 -8.9808 -52.5169 0.059 -0.093 0.994 117 109 106
131.1131 -9.6881 -52.9619 0.055 -0.037 0.998 120 112 109
130.8951 -9.8675 -52.8286 -0.060 0.223 0.973 118 110 107
132.7843 -12.6433 -54.0663 -0.190 -0.040 0.981 107 97 96
132.7109 -12.8410 -54.0241 -0.183 -0.038 0.982 102 92 91
132.3749 -12.9947 -53.8163 -0.326 0.099 0.940 96 88 85
134.3029 -16.2782 -55.0881 -0.273 0.289 0.918 93 89 86
134.3751 -16.5032 -55.1377 -0.286 0.312 0.906 88 84 81
134.1635 -16.6703 -55.0081 -0.284 0.311 0.907 92 88 85
133.9766 -16.8412 -54.8942 -0.267 0.247 0.931 97 93 90
133.9952 -17.0542 -54.9099 -0.265 0.241 0.934 102 98 95
134.2778 -17.3230 -55.0923 -0.254 0.465 0.848 108 104 101
134.2305 -17.5222 -55.0664 -0.251 0.476 0.843 111 107 104
133.1849 -20.5810 -54.4690 -0.262 -0.923 0.282 106 102 99
137.0165 -24.3048 -56.9431 -0.036 -0.177 0.984 128 127 120
134.2392 -24.9383 -55.2134 0.030 -0.171 0.985 86 92 92
134.1633 -25.1179 -55.1692 0.003 -0.099 0.995 106 112 112
133.0461 -25.5766 -54.4774 -0.125 0.193 0.973 165 170 173
132.5532 -32.0532 -54.2918 -0.661 0.563 0.497 130 134 143
132.2774 -32.1367 -54.1204 -0.644 0.574 0.506 134 138 147
130.4217 -31.5923 -52.9463 -0.967 -0.204 0.155 134 142 151
130.4059 -31.7730 -52.9398 -0.571 0.644 0.510 152 162 174
128.3228 -31.4879 -51.6280 -0.377 0.373 0.848 173 185 199
129.1228 -32.1788 -52.1429 -0.369 0.303 0.879 187 199 213
125.1320 -31.4105 -49.6254 -0.622 -0.755 -0.206 190 202 216
128.2619 96.1022 -49.4525 -0.817 0.570 -0.088 38 58 26
129.7177 97.2197 -50.3493 -0.217 -0.628 0.747 43 66 33
129.9634 97.1997 -50.5045 -0.224 -0.622 0.750 38 62 28
127.7701 92.4874 -49.2096 -0.900 -0.401 0.170 51 77 42
127.7939 92.2141 -49.2297 -0.868 -0.435 0.239 52 78 43
118.4647 68.0368 -43.7985 -0.882 -0.470 0.032 116 128 114
120.2358 60.4079 -45.0562 -0.220 -0.315 0.923 80 87 46
122.6787 56.8760 -46.6613 -0.260 0.492 0.831 74 74 62
121.7877 52.5261 -46.1804 -0.163 0.254 0.953 120 117 112
122.0376 49.0703 -46.4020 -0.037 0.173 0.984 98 97 95
122.4385 49.0920 -46.6543 -0.168 0.281 0.945 98 97 95
122.4106 45.4821 -46.7036 -0.032 0.203 0.979 105 101 100
123.2930 45.2952 -47.2632 -0.172 0.028 0.985 106 102 101
123.4552 45.1516 -47.3681 -0.155 0.292 0.944 111 107 106
122.5838 39.2422 -46.9285 -0.092 0.172 0.981 91 87 86
122.3913 38.9112 -46.8133 -0.095 0.177 0.980 99 95 94
122.3722 38.6705 -46.8058 -0.016 -0.417 0.909 104 100 99
127.9896 23.8313 -50.6212 -0.686 -0.722 0.092 114 105 106
127.0182 22.8668 -50.0269 -0.138 0.164 0.977 107 98 99
126.9340 22.6161 -49.9785 -0.164 0.081 0.983 108 99 100
126.2352 21.5238 -49.5584 -0.342 0.118 0.932 103 98 95
126.3030 21.3176 -49.6049 -0.403 -0.219 0.888 93 88 85
126.2125 21.0701 -49.5525 -0.614 0.253 0.748 97 92 89
126.1539 20.8315 -49.5199 -0.614 0.253 0.748 106 98 96
126.1176 19.9313 -49.5137 -0.445 0.088 0.891 124 112 112
127.2840 18.6443 -50.2727 -0.153 -0.675 0.722 124 114 113
127.5459 18.4788 -50.4408 -0.589 0.121 0.799 117 107 106
127.4028 17.3283 -50.3720 -0.589 0.121 0.799 115 105 104
127.6976 17.1660 -50.5608 -0.525 0.148 0.838 125 113 113
127.8127 16.9657 -50.6371 -0.462 0.248 0.851 130 118 118
127.1857 14.4071 -50.2894 0.052 0.031 0.998 112 102 103
127.3708 13.9987 -50.4136 0.055 -0.288 0.956 113 103 104
127.0222 13.5030 -50.2031 -0.221 -0.141 0.965 98 90 88
127.1203 13.3001 -50.2687 -0.357 -0.287 0.889 90 82 80
126.8888 10.2313 -50.1797 -0.778 -0.223 0.588 99 91 88
127.5629 9.2296 -50.6231 -0.422 -0.535 0.732 94 89 86
128.1018 8.8523 -50.9697 -0.027 -0.034 0.999 93 88 85
128.9349 8.0604 -51.5095 -0.084 0.187 0.979 110 102 100
127.8675 6.2459 -50.8704 -0.082 0.268 0.960 97 87 86
127.7005 5.8078 -50.7733 -0.233 0.293 0.927 98 88 87
127.4637 4.9443 -50.6401 -0.076 0.293 0.953 120 112 110
128.9980 2.0210 -51.6612 -0.066 -0.457 0.887 109 99 97
129.2041 -0.1030 -51.8305 -0.278 0.030 0.960 117 105 105
129.3989 -0.3174 -51.9573 -0.277 0.090 0.957 114 102 102
129.4800 -0.5307 -52.0124 -0.302 -0.199 0.932 109 97 97
129.7882 -0.9614 -52.2146 -0.342 -0.291 0.893 99 89 87
129.3382 -1.5844 -51.9425 -0.098 0.019 0.995 99 91 88
131.6114 -7.6431 -53.4875 0.111 -0.267 0.957 131 122 117
131.1290 -8.4323 -53.1981 -0.270 0.043 0.962 129 120 115
132.4663 -12.7980 -54.1219 -0.187 -0.037 0.982 103 93 92
132.1761 -12.9589 -53.9420 -0.336 0.082 0.938 92 84 81
133.8267 -17.0189 -55.0575 -0.426 0.316 0.848 101 97 94
133.8852 -17.2400 -55.0985 -0.284 0.553 0.783 107 103 100
133.7056 -17.4101 -54.9885 -0.292 0.552 0.781 111 107 104
130.4534 -19.1014 -52.9702 -0.305 -0.472 0.827 107 106 102
131.6104 -20.1853 -53.7195 -0.121 -0.701 0.703 102 101 97
132.0122 -20.4881 -53.9784 -0.120 -0.704 0.699 106 105 101
132.1646 -20.7283 -54.0789 -0.128 -0.357 0.925 111 110 106
137.3568 -22.4956 -57.3839 -0.327 -0.901 0.286 125 122 117
133.0747 -25.3933 -54.7389 -0.104 0.277 0.955 180 184 185
133.1375 -25.8116 -54.7863 -0.094 0.119 0.988 176 181 185
130.7525 -31.3597 -53.3861 -0.976 0.148 0.159 135 139 148
130.4726 -31.4375 -53.2111 -0.988 0.075 0.138 135 139 148
130.4039 -31.5976 -53.1708 -0.971 -0.182 0.153 134 141 151
130.2947 -31.7410 -53.1046 -0.571 0.644 0.510 139 148 160
127.9725 98.9434 -49.5159 -0.809 0.107 0.578 60 81 48
130.4760 99.1834 -51.0972 -0.784 0.621 0.006 43 60 28
128.8589 94.7783 -50.1523 -0.488 0.507 0.711 50 76 41
128.2628 93.4728 -49.7983 -0.872 -0.402 0.279 53 79 44
128.5220 93.1657 -49.9680 -0.484 -0.813 0.324 53 79 44
120.3833 70.4821 -45.2221 -0.427 -0.901 0.079 77 88 74
119.2144 69.0942 -44.5068 -0.695 -0.209 0.688 116 127 113
118.4385 68.0932 -44.0334 -0.582 -0.449 0.679 136 146 133
118.0657 66.7376 -43.8217 -0.544 0.510 0.667 105 106 90
117.7017 66.1452 -43.6018 -0.560 0.540 0.628 113 114 97
117.6216 65.8229 -43.5569 -0.681 0.222 0.698 113 115 97
117.5443 65.0126 -43.5225 -0.933 -0.356 0.048 92 94 74
117.3165 62.8518 -43.4172 -0.905 0.411 0.111 75 80 50
117.0980 62.4129 -43.2867 -0.919 0.367 0.142 75 79 52
117.3155 62.3662 -43.4253 -0.893 0.201 0.402 76 80 53
121.1089 58.7143 -45.8935 -0.257 -0.462 0.849 81 87 52
122.6379 56.9143 -46.8943 -0.327 0.623 0.710 88 88 76
121.6915 53.0091 -46.3653 -0.165 0.054 0.985 121 117 114
121.5122 52.6383 -46.2584 -0.150 0.133 0.980 123 119 116
120.1640 50.7295 -45.4389 -0.478 -0.230 0.847 114 111 104
121.7371 49.1730 -46.4632 -0.074 0.246 0.966 101 100 96
122.4679 42.9692 -47.0378 -0.233 0.248 0.940 90 91 86
122.9412 37.8515 -47.4297 0.005 -0.001 1.000 117 111 111
123.0752 37.4547 -47.5217 -0.052 -0.139 0.989 118 112 112
123.5668 35.8392 -47.8621 -0.024 -0.352 0.936 107 101 101
126.2355 36.1288 -49.5471 -0.424 -0.182 0.887 116 110 110
122.1825 32.2618 -47.0499 -0.684 0.249 0.685 133 124 125
120.8324 28.4105 -46.2641 -0.835 -0.188 -0.517 108 102 102
121.1313 28.3070 -46.4553 -0.781 -0.275 -0.560 109 103 103
125.4148 25.1421 -49.2252 0.039 0.081 0.996 96 91 88
126.4260 24.3217 -49.8804 0.063 -0.333 0.941 117 108 109
126.1658 22.4365 -49.7495 -0.211 -0.052 0.976 113 104 105
126.1980 20.4284 -49.8061 -0.327 -0.012 0.945 123 112 112
127.1644 15.0908 -50.5143 -0.016 -0.223 0.975 116 104 106
126.8868 14.3818 -50.3512 0.051 0.025 0.998 119 109 110
126.8704 14.1599 -50.3448 0.051 0.025 0.998 131 121 122
127.3209 10.9562 -50.6878 -0.375 0.680 0.630 117 109 106
127.4554 9.2398 -50.8039 -0.407 -0.547 0.731 104 99 96
