ply
format ascii 1.0
element vertex 858
property float x
property float y
property float z
property float nx
property float ny
property float nz
property uchar diffuse_red
property uchar diffuse_green
property uchar diffuse_blue
end_header
-44.5138 -41.5293 -0.2778 0.865 0.500 -0.030 183 195 219
-57.0001 -39.9654 -0.4873 0.642 0.760 0.098 178 189 211
-57.1811 -39.7945 -0.4781 0.594 0.803 0.049 205 216 238
-68.8015 -41.9953 -0.9761 0.952 0.282 -0.120 161 172 192
-68.8825 -41.7435 -0.9574 0.926 0.326 -0.191 167 177 202
-68.9243 -41.4725 -0.9361 0.926 0.313 -0.211 151 161 186
-69.0054 -41.2200 -0.9173 0.926 0.313 -0.211 135 145 170
-194.7880 -89.4622 -8.3322 0.960 0.012 0.280 170 181 201
-169.2470 -73.7749 -6.3382 0.628 -0.062 0.776 162 174 192
-119.9904 -49.8061 -3.0137 0.622 0.722 0.303 116 117 138
-120.4618 -49.5824 -3.0080 0.582 0.730 0.359 114 114 138
-186.3049 -74.6990 -6.8781 0.998 0.044 -0.041 142 143 163
-186.0372 -72.3736 -6.6780 0.998 -0.019 -0.067 104 106 119
-175.1419 -66.6533 -5.9080 0.813 0.511 0.279 103 105 118
-101.5350 -35.6001 -1.3349 0.572 0.818 0.060 158 166 187
-101.0145 -35.0518 -1.2754 0.521 0.851 0.063 134 142 163
-101.2383 -34.7627 -1.2575 0.501 0.848 0.172 155 163 184
-297.7451 -89.6429 -11.1433 0.657 -0.753 0.020 137 145 166
-294.0633 -87.7029 -10.8825 0.841 -0.541 -0.024 128 136 157
-132.3701 -36.3197 -2.2320 0.760 0.641 -0.107 180 188 207
-132.8813 -36.0325 -2.2221 0.740 0.670 -0.066 205 209 226
-133.3783 -35.7388 -2.2112 0.732 0.678 -0.069 219 220 232
-133.6982 -35.3911 -2.1911 0.732 0.678 -0.069 76 72 86
-337.2630 -2.9482 -5.0303 0.883 0.046 -0.468 79 68 84
-333.4682 3.6428 -4.3809 0.937 -0.215 0.275 108 102 114
-332.8411 13.6612 -3.5334 0.928 0.098 0.359 75 67 80
-332.2419 14.5811 -3.4409 0.896 -0.096 0.434 70 62 77
-332.1624 20.9401 -2.9117 0.920 0.054 0.387 80 71 88
-335.5286 24.6011 -2.6996 0.865 0.496 0.071 82 71 87
-336.3251 26.4454 -2.5684 0.874 0.145 0.464 85 74 90
-335.8161 28.2760 -2.4028 0.795 -0.064 0.604 99 88 104
-336.1117 29.2002 -2.3342 0.814 -0.052 0.578 88 77 93
-338.6632 31.0991 -2.2461 0.599 0.423 0.680 90 81 98
-339.3965 32.0436 -2.1877 0.599 0.423 0.680 91 82 99
-340.1327 32.9918 -2.1291 0.599 0.423 0.680 92 83 100
-342.5008 35.8634 -1.9554 0.576 -0.632 0.519 65 56 73
-336.8058 40.2767 -1.4349 0.800 0.011 0.601 109 98 112
-336.4297 41.1814 -1.3497 0.946 0.255 0.202 125 114 128
-333.3782 73.1644 1.3842 0.874 -0.060 -0.482 113 103 114
-331.9731 73.8994 1.4833 0.879 -0.236 -0.415 153 143 154
-330.9751 74.6829 1.5754 0.878 -0.236 -0.417 166 156 167
-330.7014 75.5611 1.6556 0.878 -0.236 -0.417 162 152 163
-330.1762 88.3011 2.7259 0.741 -0.360 0.568 122 114 127
-329.8225 89.1566 2.8064 0.741 -0.360 0.568 91 83 98
-328.8912 89.9099 2.8942 0.732 0.152 0.664 66 58 71
-326.2348 91.2619 3.0784 0.857 -0.417 -0.304 99 89 100
-327.1368 95.9747 3.4445 0.691 0.475 0.545 86 76 87
-328.4793 97.1446 3.5050 0.765 0.506 0.398 90 80 91
-327.7072 103.3848 4.0433 0.813 0.063 0.578 84 78 90
-326.5002 104.0425 4.1306 0.934 -0.152 -0.324 91 85 97
-324.8488 105.5067 4.2968 0.936 -0.149 -0.318 110 105 112
-323.9841 106.2247 4.3798 0.951 -0.148 -0.272 110 105 112
-324.1781 120.7794 5.5810 0.867 0.363 -0.342 101 98 105
-321.1890 133.5509 6.7208 0.920 -0.248 -0.304 68 65 74
-322.8493 134.9429 6.7911 0.955 -0.188 -0.230 64 61 70
-322.6632 135.7956 6.8668 0.955 -0.188 -0.230 73 70 76
-318.7488 144.5269 7.6969 0.940 0.167 -0.298 70 62 72
-318.2708 147.9700 7.9952 0.993 -0.111 -0.028 72 64 75
-327.8993 174.2764 9.9143 0.396 0.339 0.853 114 103 117
-323.9351 181.9064 10.6544 0.336 -0.497 0.800 84 77 93
-323.2422 190.7991 11.4104 0.818 -0.478 0.319 91 85 99
-323.9045 192.9308 11.5691 0.619 -0.743 0.254 92 86 100
-323.8506 193.8276 11.6449 0.624 -0.740 0.252 96 90 104
-301.8417 224.1285 14.7543 0.885 0.404 -0.230 83 71 83
-338.5764 268.7015 17.4513 0.963 -0.268 -0.030 66 59 75
-44.1886 -42.3004 -0.5656 0.933 0.207 -0.293 116 126 151
-44.2300 -42.0908 -0.5495 0.933 0.207 -0.293 100 110 135
-44.3723 -41.7064 -0.5218 0.931 0.209 -0.301 195 207 229
-44.7986 -41.4880 -0.5163 0.837 0.530 -0.138 170 182 206
-44.9846 -41.3614 -0.5113 0.584 0.712 0.390 180 192 216
-56.9391 -39.9571 -0.7464 0.594 0.803 0.049 171 179 200
-57.1501 -39.8015 -0.7397 0.594 0.803 0.049 199 210 230
-68.9041 -41.7765 -1.2488 0.928 0.314 -0.201 167 177 201
-68.9755 -41.5195 -1.2296 0.926 0.313 -0.211 154 164 189
-69.0566 -41.2668 -1.2110 0.926 0.313 -0.211 136 146 171
-194.3195 -89.2950 -8.8700 0.956 0.001 0.293 170 181 199
-120.2823 -49.5323 -3.4012 0.582 0.730 0.359 112 114 137
-186.5867 -74.8349 -7.4453 0.939 -0.192 0.285 137 139 159
-186.2685 -73.0429 -7.2876 0.939 -0.192 0.285 135 139 151
-327.2618 -118.0432 -15.1583 0.901 0.152 0.405 111 117 139
-100.9894 -35.0562 -1.6354 0.519 0.853 0.053 134 140 162
-101.0754 -34.7193 -1.6100 0.502 0.849 0.167 155 161 183
-299.1911 -90.9232 -12.0875 0.651 -0.759 0.008 173 181 202
-294.0807 -87.7270 -11.6726 0.804 -0.589 -0.088 121 129 150
-132.3810 -36.3320 -2.6638 0.759 0.644 -0.098 179 187 206
-132.9061 -36.0486 -2.6558 0.731 0.680 -0.049 197 201 218
-133.3337 -35.7342 -2.6423 0.764 0.646 -0.005 231 232 244
-133.7103 -35.4029 -2.6259 0.732 0.678 -0.065 87 83 97
-113.8394 -15.2756 -0.3752 0.339 -0.344 0.876 149 144 158
-338.2962 -3.8848 -6.0298 0.868 0.041 -0.495 98 90 105
-334.2760 14.6023 -4.3808 0.885 0.464 0.051 87 79 94
-335.8718 26.5063 -3.4420 0.874 0.145 0.464 85 74 90
-335.1528 28.3326 -3.2697 0.795 -0.064 0.604 100 89 105
-335.4910 29.2567 -3.2031 0.814 -0.052 0.578 88 77 93
-335.4860 30.1752 -3.1269 0.814 -0.052 0.578 72 61 77
-336.0840 31.1082 -3.0672 0.601 0.439 0.668 64 55 72
-337.7318 32.0713 -3.0359 0.609 0.433 0.665 70 61 78
-337.6689 32.9938 -2.9577 0.598 0.426 0.678 77 68 85
-341.6277 34.9728 -2.9102 0.578 -0.619 0.532 66 57 74
-335.6151 41.2181 -2.2163 0.784 0.074 0.616 79 69 80
-337.5363 42.2379 -2.1883 0.904 0.325 0.277 82 72 83
-337.6994 44.0986 -2.0390 0.747 -0.323 0.581 89 79 90
-333.0494 69.5382 0.2041 0.931 0.303 -0.203 113 101 111
-334.0171 70.5778 0.2618 0.876 0.425 -0.228 95 85 96
-333.7523 74.2343 0.5723 0.874 -0.060 -0.482 97 87 98
-332.0754 74.9307 0.6793 0.879 -0.236 -0.415 110 100 111
-328.6597 87.2388 1.7989 0.650 0.030 0.759 119 111 124
-327.3841 88.8458 1.9694 0.739 -0.366 0.565 85 77 92
-326.3079 89.5685 2.0609 0.685 0.093 0.723 70 62 75
-325.9163 91.3150 2.2170 0.801 0.068 0.595 79 69 80
-323.1002 91.7112 2.3326 0.835 0.062 0.547 97 87 96
-323.2167 92.6339 2.4056 0.835 0.062 0.547 107 97 106
-323.8516 94.5574 2.5462 0.876 0.012 0.483 106 96 107
-324.3581 95.5576 2.6141 0.844 0.058 0.534 105 95 106
-326.9566 100.6105 2.9562 0.836 -0.080 0.543 73 67 79
-326.6203 101.4533 3.0358 0.789 0.080 0.609 82 76 88
-326.7729 102.3961 3.1094 0.789 0.080 0.609 78 72 84
-327.4698 103.4540 3.1765 0.781 0.066 0.621 82 76 88
-326.5904 106.9162 3.4891 0.943 -0.099 -0.319 107 102 109
-325.6350 118.5477 4.4803 0.750 0.484 0.451 88 85 92
-326.3876 119.6493 4.5494 0.750 0.484 0.451 93 90 97
-319.6807 126.9481 5.3509 0.972 -0.098 -0.215 100 97 104
-323.1042 134.2496 5.8548 0.861 0.427 -0.275 94 91 100
-327.3401 136.4055 5.9089 0.941 0.324 -0.093 80 77 86
-317.3760 146.9239 7.0727 0.923 -0.131 -0.362 70 62 73
-321.3586 166.4185 8.5699 0.972 0.223 0.069 86 76 85
-326.4696 173.8863 9.0380 0.440 0.465 0.768 105 94 108
-328.5206 176.5468 9.1980 0.514 -0.622 -0.591 104 93 107
-320.6907 185.2946 10.1525 0.573 -0.333 0.748 128 119 136
-322.7674 190.7713 10.5450 0.953 0.020 0.304 91 85 97
-321.2135 194.6646 10.9130 0.645 -0.694 0.319 103 97 109
-74.7754 107.5823 10.9462 0.898 -0.359 -0.254 93 89 104
-74.9437 108.0198 10.9775 0.907 -0.361 -0.215 86 82 97
-264.9727 278.4872 19.5071 0.549 0.572 0.609 56 52 65
-172.5792 207.7269 16.3637 0.622 -0.771 -0.137 56 54 66
-44.4358 -41.7703 -0.7626 0.931 0.209 -0.301 191 203 227
-45.0259 -41.4116 -0.7516 0.584 0.717 0.381 176 188 212
-47.1779 -41.2279 -0.8045 0.353 0.455 0.818 165 177 201
-56.9108 -39.9656 -1.0080 0.595 0.803 0.019 164 172 193
-57.1202 -39.8091 -1.0017 0.678 0.728 -0.104 200 208 229
-57.3308 -39.6524 -0.9954 0.594 0.803 0.049 195 203 224
-68.9591 -41.8257 -1.5430 0.953 0.287 -0.093 164 175 197
-68.9962 -41.5518 -1.5215 0.952 0.285 -0.112 158 169 191
-69.0984 -41.3090 -1.5047 0.949 0.292 -0.117 138 148 173
-67.8412 -37.8109 -1.1755 0.968 0.244 -0.051 159 170 192
-121.7944 -53.0248 -4.1407 0.513 -0.267 0.816 86 87 107
-120.2767 -49.5500 -3.8053 0.586 0.730 0.353 120 120 145
-328.9362 -118.6781 -16.1242 0.894 0.175 0.413 113 120 139
-101.0413 -35.0873 -2.0005 0.519 0.853 0.059 134 142 163
-100.9868 -34.7016 -1.9669 0.502 0.849 0.167 151 159 180
-299.1337 -90.9255 -12.8858 0.654 -0.757 0.016 172 180 201
-132.3199 -36.7616 -3.1285 0.473 0.881 -0.010 191 199 220
-132.4195 -36.3526 -3.0978 0.759 0.644 -0.098 178 186 206
-132.7970 -36.0251 -3.0826 0.733 0.679 -0.043 193 197 215
-133.3303 -35.7417 -3.0761 0.764 0.646 -0.005 235 235 251
-133.6857 -35.4040 -3.0594 0.734 0.677 -0.061 102 99 113
-316.7908 -63.0173 -11.1358 0.721 0.080 0.688 70 59 75
-113.7326 -15.6504 -0.7942 0.639 -0.768 0.042 98 92 104
-114.6825 -15.4501 -0.8077 0.715 -0.691 -0.108 138 132 144
-338.8154 -2.9512 -6.8641 0.868 0.041 -0.495 115 104 120
-338.5647 0.7477 -6.5502 0.855 0.514 0.071 92 86 99
-335.5065 31.1641 -3.9375 0.613 0.432 0.662 60 51 68
-337.4188 42.3095 -3.0760 0.901 0.333 0.277 99 88 102
-332.6917 67.7513 -0.8220 0.931 0.303 -0.203 100 88 100
-332.2783 69.5408 -0.6609 0.960 0.276 -0.048 139 129 140
-333.3461 70.5919 -0.6078 0.710 0.614 0.346 124 114 125
-336.5490 72.8462 -0.5226 0.955 0.250 -0.157 99 89 100
-333.5888 73.3893 -0.3840 0.950 -0.223 -0.220 94 84 95
-333.3604 74.2817 -0.3030 0.950 -0.223 -0.220 94 84 95
-332.4538 75.0816 -0.2082 0.879 -0.236 -0.415 97 87 98
-332.1778 75.9641 -0.1264 0.879 -0.236 -0.415 92 82 93
-331.9023 76.8456 -0.0448 0.879 -0.236 -0.415 94 84 95
-332.1958 86.0964 0.7111 0.875 0.237 -0.422 94 86 99
-327.6932 89.9199 1.1698 0.687 0.086 0.722 94 83 97
-325.2802 91.3111 1.3612 0.801 0.068 0.595 100 90 101
-323.6057 91.9133 1.4640 0.865 -0.134 0.484 86 76 87
-323.5108 92.7990 1.5403 0.865 -0.134 0.484 84 74 85
-323.4160 93.6843 1.6165 0.865 -0.134 0.484 78 68 79
-323.3808 94.5807 1.6918 0.876 0.012 0.483 110 100 111
-323.8181 95.5674 1.7596 0.844 0.058 0.534 106 96 107
-326.0773 98.7287 1.9496 0.855 -0.000 0.519 104 98 110
-326.8612 99.7961 2.0131 0.837 -0.084 0.542 88 82 94
-326.8201 100.6998 2.0891 0.837 -0.084 0.542 86 80 92
-325.9562 101.4345 2.1772 0.789 0.080 0.609 92 86 98
-324.0654 103.7642 2.4298 0.699 0.201 0.686 89 83 95
-324.2506 104.7103 2.5022 0.724 0.308 0.617 90 87 96
-324.7393 105.7233 2.5705 0.724 0.308 0.617 123 120 127
-325.4881 106.7958 2.6355 0.715 0.200 0.670 111 108 115
-326.4932 108.8415 2.7729 0.720 0.195 0.666 113 108 114
-326.9739 113.5207 3.1448 0.905 -0.423 0.047 92 89 96
-327.0975 115.3802 3.2947 0.933 -0.343 0.110 80 77 86
-326.1371 116.0623 3.3815 0.984 -0.168 0.057 88 85 94
-325.9919 116.9400 3.4587 0.984 -0.168 0.057 105 104 112
-325.7019 118.6939 3.6129 0.984 -0.168 0.057 97 94 103
-318.7842 125.0392 4.3566 0.973 -0.121 -0.197 72 69 76
-319.9566 126.2578 4.4203 0.972 -0.098 -0.215 77 74 81
-319.8521 127.1299 4.4958 0.972 -0.098 -0.215 93 90 97
-321.3050 140.2050 5.5314 0.950 -0.035 -0.311 43 42 43
-321.6483 143.0335 5.7545 0.960 -0.050 -0.276 59 56 59
-321.5801 143.9197 5.8299 0.960 -0.050 -0.276 67 64 68
-319.3668 167.6430 7.8623 0.676 0.447 0.587 105 93 105
-321.9950 170.4746 8.0134 0.628 0.390 0.673 102 92 103
-320.7589 170.9068 8.0882 0.433 0.405 0.805 102 92 103
-322.1949 177.8694 8.6187 0.513 -0.635 -0.578 91 81 93
-322.8688 183.6477 9.0754 0.865 -0.217 0.452 92 83 100
-320.7465 183.6684 9.1442 0.991 -0.058 0.122 109 100 117
-320.1515 184.3285 9.2176 0.973 -0.201 -0.116 117 108 125
-319.9698 185.1627 9.2924 0.973 -0.201 -0.116 117 108 125
-320.2363 188.0139 9.5198 0.945 0.201 0.257 90 84 98
-320.5848 194.5640 10.0506 0.583 -0.740 0.335 108 102 116
-317.3471 194.0094 10.1071 0.528 -0.602 0.600 107 101 115
-316.7200 194.6304 10.1783 0.528 -0.602 0.600 103 96 112
-75.8035 107.9755 10.6316 0.923 -0.358 -0.139 100 96 111
-75.1646 107.9093 10.6464 0.742 -0.665 0.080 96 92 107
-74.7890 108.0058 10.6662 0.684 -0.728 0.043 87 83 98
-74.4654 108.1334 10.6870 0.433 -0.409 0.803 77 73 88
-196.4358 226.1723 16.5925 0.713 -0.698 -0.068 39 38 45
-172.7570 208.0384 15.8415 0.619 -0.775 -0.129 45 44 51
-44.4154 -42.2549 -1.0359 0.931 0.209 -0.301 101 111 136
-44.9903 -41.4166 -0.9861 0.737 0.674 0.051 173 185 209
-56.9083 -39.9875 -1.2718 0.593 0.805 0.015 154 162 183
-57.1304 -39.8375 -1.2669 0.678 0.728 -0.104 198 206 227
-57.3095 -39.6643 -1.2587 0.591 0.806 0.024 197 205 226
-69.0006 -41.8684 -1.8369 0.928 0.314 -0.201 161 173 195
-69.0393 -41.5950 -1.8156 0.953 0.285 -0.107 161 173 195
-69.1240 -41.3435 -1.7977 0.949 0.292 -0.117 138 150 174
-120.1002 -49.5010 -4.1986 0.586 0.730 0.353 118 118 143
-330.1556 -119.1501 -17.0698 0.992 -0.124 0.036 122 130 148
-101.2165 -35.1613 -2.3740 0.522 0.852 0.030 137 145 166
-100.8982 -34.6839 -2.3238 0.502 0.849 0.167 148 156 177
-132.4137 -36.7991 -3.5662 0.472 0.882 -0.009 194 202 223
-132.4138 -36.3599 -3.5299 0.752 0.655 -0.071 177 185 205
-132.8104 -36.0379 -3.5168 0.733 0.679 -0.043 188 194 212
-133.6933 -35.8568 -3.5317 0.731 0.679 -0.066 233 233 250
-134.2021 -35.5626 -3.5246 0.729 0.681 -0.067 115 112 126
-339.2280 0.7621 -7.4687 0.588 -0.385 0.711 120 114 128
-338.5599 2.6409 -7.2908 0.529 -0.510 0.678 85 79 91
-338.2075 3.5791 -7.2014 0.536 -0.529 0.658 72 66 78
-333.7911 14.7267 -6.1306 0.899 -0.040 0.436 79 71 86
-334.2834 40.3866 -4.0270 0.943 0.297 -0.153 86 75 89
-335.8553 41.3834 -3.9979 0.960 0.270 -0.071 77 66 80
-331.9864 66.8452 -1.7629 0.925 0.331 -0.187 70 57 67
-331.3018 69.5182 -1.5189 0.686 -0.712 0.150 113 103 114
-332.6001 70.5964 -1.4738 0.681 0.375 0.628 118 108 119
-333.2059 71.5935 -1.4119 0.681 0.375 0.628 108 98 109
-335.7251 72.8394 -1.3943 0.367 0.465 0.806 99 89 100
-333.6534 73.4967 -1.2698 0.691 0.412 0.594 99 89 100
-334.3098 74.5077 -1.2085 0.691 0.412 0.594 97 87 98
-334.0822 76.3271 -1.0504 0.947 -0.240 -0.216 97 87 98
-332.2017 76.9887 -0.9321 0.954 -0.232 -0.191 93 85 96
-331.9696 77.8765 -0.8508 0.954 -0.232 -0.191 103 95 106
-331.7714 78.7683 -0.7704 0.967 0.240 -0.086 127 119 130
-329.2254 90.2981 0.2685 0.954 0.135 -0.266 128 120 133
-325.3102 92.3344 0.5694 0.919 0.146 -0.366 96 86 97
-325.1817 93.2184 0.6468 0.918 0.153 -0.365 89 79 90
-322.9104 94.6039 0.8382 0.876 0.012 0.483 92 82 93
-323.4074 95.6018 0.9039 0.823 0.013 0.568 87 77 88
-326.7033 99.8809 1.1458 0.841 -0.006 0.541 83 77 89
-327.0991 100.8737 1.2144 0.854 0.012 0.520 92 86 98
-326.4437 101.6523 1.3010 0.871 0.039 0.490 101 95 107
-326.0942 102.4917 1.3822 0.977 -0.210 0.029 78 72 84
-325.0686 103.1873 1.4744 0.970 -0.236 0.053 81 75 87
-325.4195 107.8126 1.8447 0.920 0.058 0.387 105 100 106
-326.5333 109.8870 1.9784 0.768 0.090 0.633 96 91 97
-326.4449 111.6941 2.1307 0.755 0.104 0.647 125 120 127
-326.6389 112.6534 2.2034 0.755 0.104 0.647 122 117 124
-327.3214 113.7290 2.2691 0.908 -0.416 0.053 115 110 117
-326.9473 114.5561 2.3501 0.908 -0.416 0.053 111 106 113
-327.6187 116.5506 2.4922 0.969 -0.239 0.068 112 109 118
-327.4106 117.4170 2.5708 0.969 -0.239 0.068 130 127 136
-320.4297 124.7168 3.4105 0.962 -0.128 -0.240 109 106 113
-318.9352 125.2133 3.5022 0.973 -0.121 -0.197 91 88 95
-319.6598 126.3108 3.5683 0.971 -0.108 -0.213 82 79 86
-323.2404 132.7495 3.9790 0.862 0.424 -0.276 157 152 159
-323.7365 133.8038 4.0494 0.862 0.424 -0.276 139 134 141
-331.5419 138.8610 4.2028 0.905 -0.419 -0.078 94 89 96
-326.7660 141.1184 4.5511 0.935 -0.345 0.088 49 44 50
-322.0351 143.3023 4.8919 0.981 -0.053 -0.185 62 56 63
-322.9703 144.5098 4.9600 0.950 -0.221 0.222 69 62 70
-322.7946 145.3652 5.0366 0.968 -0.166 0.187 81 72 82
-320.1785 169.9367 7.1556 0.999 -0.013 0.033 96 86 97
-317.1396 169.6617 7.2358 0.977 0.073 0.200 96 86 97
-316.5972 170.3519 7.3112 0.967 0.079 0.241 95 85 96
-317.8086 171.7317 7.3842 0.326 0.560 0.762 95 85 96
-327.0108 179.9989 7.7555 0.561 0.585 0.585 91 81 92
-324.3860 183.5398 8.1371 0.967 -0.072 0.245 86 77 94
-324.6619 184.5781 8.2135 0.966 -0.011 0.260 84 75 92
-316.8528 184.9097 8.5055 0.993 -0.116 -0.013 82 73 90
-316.7509 185.7706 8.5800 0.993 -0.116 -0.013 84 77 93
-320.0215 188.0989 8.6616 0.945 0.201 0.257 92 86 100
-315.1153 193.1777 9.2475 0.540 -0.556 0.632 94 88 102
-314.5415 193.8182 9.3199 0.540 -0.556 0.632 91 84 100
-314.5293 194.7139 9.3943 0.697 -0.113 0.709 87 80 96
-86.1518 109.1408 10.0600 0.532 0.531 0.660 76 68 84
-75.9679 107.8267 10.2965 0.938 -0.281 -0.204 91 87 102
-75.8150 108.0661 10.3214 0.923 -0.358 -0.139 95 91 106
-75.0858 107.9431 10.3360 0.457 -0.543 0.704 88 84 99
-74.3431 107.8082 10.3500 0.306 -0.238 0.922 77 73 88
-196.8927 227.3572 16.0768 0.609 -0.776 -0.160 45 44 50
-56.8857 -39.9990 -1.5344 0.593 0.805 0.015 147 155 176
-57.1407 -39.8658 -1.5326 0.678 0.728 -0.104 194 202 223
-57.2631 -39.6635 -1.5203 0.672 0.736 0.076 200 208 229
-69.0709 -41.9250 -2.1335 0.954 0.285 -0.096 160 172 194
-69.1478 -41.6697 -2.1152 0.995 0.090 -0.043 163 175 197
-69.1397 -41.3733 -2.0905 0.952 0.289 -0.099 140 152 176
-67.6759 -37.7755 -1.7406 0.960 0.273 -0.063 157 169 191
-68.3314 -37.7840 -1.7650 0.892 0.416 0.175 159 171 193
-193.3117 -87.2514 -10.3628 0.999 -0.005 -0.038 105 117 133
-120.5053 -52.5455 -4.8681 0.326 -0.057 0.944 85 87 108
-120.0689 -49.5087 -4.6017 0.628 0.721 0.291 116 116 139
-331.5252 -119.6762 -18.0319 0.996 -0.076 -0.042 127 135 153
-331.4529 -118.7655 -17.9541 0.996 -0.076 -0.042 122 130 149
-101.1895 -35.1651 -2.7357 0.522 0.852 0.030 143 151 172
-100.8096 -34.6661 -2.6808 0.502 0.849 0.167 146 154 175
-132.5259 -36.4025 -3.9698 0.665 0.745 0.047 176 184 205
-133.1585 -36.1497 -3.9718 0.655 0.754 0.058 185 190 210
-133.7181 -35.8726 -3.9691 0.731 0.679 -0.066 231 231 248
-134.3576 -35.6162 -3.9711 0.672 -0.711 0.207 127 123 138
-333.9135 0.1759 -8.2251 0.868 0.491 0.077 130 122 137
-338.1289 0.8684 -8.3202 0.588 -0.385 0.711 113 105 120
-337.6817 2.7329 -8.1502 0.394 -0.613 0.684 80 74 86
-317.7585 8.9295 -6.9190 0.930 -0.206 0.305 85 79 91
-333.2615 22.1009 -6.3918 0.721 -0.367 -0.588 108 99 116
-341.1787 35.1779 -5.5984 0.953 0.290 0.087 78 69 86
-337.5006 38.7609 -5.1698 0.888 0.450 -0.092 103 92 107
-330.3333 69.4963 -2.3739 0.661 -0.735 0.150 101 91 102
-331.2107 70.5210 -2.3210 0.700 0.436 0.565 103 93 104
-333.3412 78.1742 -1.7662 0.945 -0.242 -0.220 111 103 114
-333.7254 79.1544 -1.6992 0.985 0.141 0.095 150 142 153
-335.0196 89.5643 -0.8867 0.869 0.217 -0.445 93 87 99
-328.2881 100.3165 0.2440 0.837 -0.284 0.467 82 76 88
-328.0589 101.1865 0.3241 0.848 -0.273 0.455 85 79 91
-325.9601 101.6706 0.4399 0.871 0.039 0.490 89 83 95
-328.3073 115.0080 1.4560 0.967 -0.254 0.016 128 123 130
-328.0817 115.8730 1.5355 0.967 -0.254 0.016 120 115 122
-327.8564 116.7371 1.6150 0.967 -0.254 0.016 130 125 132
-327.6313 117.6004 1.6944 0.967 -0.254 0.016 145 140 147
-327.4679 118.4781 1.7727 0.997 -0.080 -0.023 122 117 124
-322.5782 124.5212 2.4482 0.841 -0.398 0.366 111 106 112
-322.4614 125.3976 2.5247 0.824 -0.426 0.373 117 112 118
-319.8132 125.5854 2.6359 0.966 -0.110 -0.232 100 95 101
-320.0674 128.3618 2.8559 0.978 0.189 0.088 99 94 100
-321.9428 130.6995 2.9811 0.723 0.579 0.376 99 94 100
-323.7595 133.0387 3.1086 0.969 0.193 0.155 102 97 103
-331.0508 138.8598 3.3257 0.931 -0.359 0.063 84 79 86
-328.5917 139.9760 3.5067 0.992 0.120 -0.025 60 53 61
-326.9942 140.4135 3.6005 0.885 -0.465 -0.016 56 48 57
-317.2916 138.3529 3.7809 0.977 -0.104 0.189 52 43 53
-316.9770 139.1537 3.8583 0.972 0.017 0.235 53 44 54
-318.8236 140.6274 3.9133 0.985 0.171 0.017 59 49 60
-316.9831 140.9509 4.0065 0.986 0.168 -0.016 64 54 64
-321.9035 144.3171 4.1066 0.976 -0.161 0.149 75 64 76
-322.6124 145.4550 4.1749 0.968 -0.166 0.187 82 70 84
-320.1158 145.5582 4.2736 0.995 -0.092 0.038 76 65 79
-316.8666 146.3026 4.4524 0.953 -0.161 -0.255 91 80 94
-317.4915 147.4081 4.5211 0.960 -0.088 -0.268 95 84 98
-321.7349 150.6333 4.6340 0.375 0.755 0.538 102 91 105
-328.3009 154.6902 4.7317 0.330 0.763 0.556 108 97 111
-327.4253 169.2041 5.9614 0.734 0.381 0.562 121 109 121
-322.0156 169.9002 6.2142 0.997 -0.069 0.040 130 118 130
-321.9571 170.7923 6.2900 0.997 -0.069 0.040 91 81 92
-322.5007 182.9259 7.2719 0.988 -0.078 0.134 87 78 95
-321.7859 189.0462 7.8029 0.999 -0.036 0.034 82 76 90
-323.7125 191.7304 7.9549 0.965 0.139 0.222 105 99 111
-313.4764 192.6139 8.3976 0.524 -0.599 0.605 89 83 96
-75.9342 107.8891 9.9847 0.923 -0.358 -0.139 78 74 89
-75.8264 108.1568 10.0107 0.923 -0.358 -0.139 79 75 90
-74.7519 107.8167 10.0214 0.457 -0.543 0.704 71 67 82
-73.6560 107.4580 10.0314 0.306 -0.238 0.922 61 57 72
-108.7787 132.5130 10.8308 0.732 -0.100 0.674 60 56 71
-200.2783 230.2344 15.5919 0.617 -0.762 -0.195 42 41 47
-56.8806 -40.0196 -1.7986 0.587 0.809 0.006 138 146 167
-57.1039 -39.8700 -1.7949 0.669 0.739 -0.081 193 201 222
-57.2631 -39.6864 -1.7858 0.595 0.803 0.019 205 213 234
-57.4735 -39.5283 -1.7809 0.591 0.806 0.024 177 188 208
-69.2036 -42.0119 -2.4357 0.999 0.037 -0.005 159 171 193
-69.1580 -41.6971 -2.4080 0.995 0.090 -0.043 165 177 199
-69.1299 -41.3909 -2.3817 0.955 0.284 0.080 143 155 179
-67.6876 -37.8009 -2.0304 0.960 0.273 -0.063 157 169 191
-68.2773 -37.7794 -2.0512 0.892 0.416 0.175 159 171 193
-193.3339 -87.2950 -10.9327 0.999 -0.005 -0.038 111 120 137
-53.8466 -24.1935 -0.3772 0.838 0.343 0.425 105 106 126
-331.9513 -118.9774 -18.8640 0.981 -0.144 -0.128 125 133 152
-100.7051 -34.6429 -3.0369 0.489 0.857 0.161 146 154 175
-296.6335 -89.3967 -15.0697 0.673 -0.738 0.044 154 162 183
-294.2993 -87.8694 -14.8542 0.828 -0.560 -0.024 131 139 160
-132.4953 -36.4024 -4.4018 0.665 0.745 0.047 176 184 205
-133.1222 -36.1478 -4.4049 0.655 0.754 0.058 185 190 209
-133.5030 -35.8180 -4.3923 0.655 0.754 0.058 230 231 248
-134.1803 -35.5728 -4.3980 0.672 -0.711 0.207 143 140 156
-186.9520 -41.9234 -6.9466 0.963 0.270 -0.005 75 62 79
-337.3519 1.8782 -9.1059 0.394 -0.613 0.684 85 79 91
-320.2482 8.8977 -7.8708 0.820 -0.482 0.309 82 76 88
-327.3321 9.5594 -8.0881 0.879 0.475 -0.028 79 71 84
-335.6374 12.9735 -8.1253 0.961 0.259 -0.099 77 69 82
-335.3307 20.3279 -7.5071 0.719 -0.335 -0.609 78 69 86
-337.1247 37.8937 -6.1275 0.950 0.313 -0.011 78 70 86
-338.1534 38.8643 -6.0870 0.957 0.290 0.022 85 74 89
-334.5738 79.3808 -2.6088 0.948 -0.242 -0.207 107 99 110
-326.6355 96.4485 -0.8968 0.897 0.276 -0.345 156 146 155
-327.7990 100.3352 -0.6210 0.837 -0.284 0.467 110 107 118
-327.5879 101.2083 -0.5409 0.848 -0.273 0.455 91 88 99
-327.1340 112.1042 0.3749 0.960 -0.271 0.070 93 86 93
-326.8963 112.9653 0.4551 0.960 -0.271 0.070 114 107 114
-328.4856 114.2580 0.5007 0.741 -0.639 0.207 110 103 110
-327.9288 115.9643 0.6627 0.954 -0.278 0.112 127 120 128
-328.1520 116.9381 0.7345 0.971 -0.231 0.060 126 119 127
-328.3666 117.9109 0.8064 0.971 -0.231 0.063 124 117 125
-326.4022 121.0924 1.1441 0.626 -0.459 0.630 107 100 107
-319.9985 125.7698 1.7755 0.966 -0.110 -0.232 70 63 70
-323.1340 130.2649 2.0259 0.968 0.187 0.166 94 87 94
-324.0916 133.2743 2.2373 0.970 0.162 0.180 94 88 92
-324.2665 134.2388 2.3101 0.970 0.162 0.180 88 82 86
-330.7240 137.9777 2.3706 0.995 0.078 0.067 88 81 88
-330.9473 138.9740 2.4442 0.931 -0.359 0.063 88 81 88
-330.6310 139.8094 2.5252 0.931 -0.359 0.063 72 65 73
-330.8047 140.7919 2.5996 0.987 0.153 -0.039 69 62 71
-327.5191 140.7193 2.7196 0.885 -0.466 -0.005 67 56 69
-326.3394 141.2792 2.8111 0.889 -0.458 -0.014 62 52 63
-324.0558 142.4064 2.9917 0.912 -0.175 -0.372 76 64 76
-322.2225 144.5666 3.2401 0.967 -0.164 0.194 78 66 80
-322.4302 145.5448 3.3128 0.968 -0.166 0.187 76 64 78
-321.4099 146.1259 3.3999 0.965 -0.218 0.149 80 69 83
-321.2296 146.9768 3.4770 0.965 -0.218 0.149 88 77 91
-320.1595 147.5342 3.5640 0.981 -0.158 0.110 90 79 93
-324.2376 169.0829 5.1843 0.956 -0.073 -0.285 98 86 98
-323.4273 170.6111 5.3414 1.000 -0.010 0.002 100 88 100
-331.2011 181.1155 5.9093 0.301 0.562 0.770 109 99 108
-325.8515 194.7125 7.2357 0.517 -0.803 0.297 105 99 113
-323.9360 194.7831 7.3150 0.467 -0.827 0.313 98 92 106
-75.8379 108.2477 9.6995 0.923 -0.358 -0.139 68 64 79
-195.8073 226.8725 14.8775 0.606 -0.768 -0.207 39 38 44
-57.2245 -39.6896 -2.0485 0.595 0.803 0.013 216 224 245
-57.4487 -39.5385 -2.0452 0.591 0.806 0.024 160 171 191
-69.0105 -41.9411 -2.7127 0.979 0.199 0.051 158 170 192
-69.0253 -41.6557 -2.6898 0.955 0.284 0.080 166 178 200
-69.1028 -41.4002 -2.6719 0.955 0.284 0.080 146 158 182
-69.1803 -41.1443 -2.6540 0.955 0.284 0.080 134 146 170
-68.0480 -37.6950 -2.3239 0.961 0.274 -0.023 159 171 193
-193.3561 -87.3386 -11.5034 0.999 -0.005 -0.038 112 121 136
-53.7328 -24.1616 -0.6276 0.838 0.343 0.425 101 102 122
-120.1069 -49.1541 -5.3826 0.649 0.697 0.305 125 126 144
-333.4846 -120.4492 -19.9231 0.982 -0.134 -0.131 129 136 155
-332.0782 -119.0569 -19.7513 0.981 -0.144 -0.128 127 135 154
-296.5865 -89.4017 -15.8669 0.673 -0.738 0.044 155 163 184
-132.4646 -36.4024 -4.8342 0.665 0.745 0.047 175 183 204
-132.8356 -36.0718 -4.8221 0.665 0.745 0.047 184 190 209
-133.4668 -35.8159 -4.8266 0.655 0.754 0.058 230 232 248
-134.0424 -35.5409 -4.8274 0.663 -0.717 0.214 165 162 178
-332.1236 4.0050 -9.6167 0.396 -0.613 0.684 64 56 69
-327.7368 28.5413 -7.4175 0.958 0.288 0.001 113 102 116
-338.4955 37.0941 -7.1500 0.956 0.276 0.097 77 69 84
-338.1556 38.9400 -6.9842 0.957 0.290 0.022 99 91 106
-99.9336 30.1893 1.9724 0.688 0.719 0.101 83 75 90
-330.1901 70.5874 -4.0539 0.672 0.463 0.579 135 125 134
-331.0906 73.4573 -3.8540 0.760 0.504 0.411 95 85 94
-330.4921 74.2967 -3.7606 0.760 0.536 0.368 97 87 96
-334.2721 79.4405 -3.4905 0.984 0.164 0.070 89 79 90
-349.4474 91.2930 -3.1306 0.616 0.495 0.613 160 154 164
-327.5743 96.7435 -1.7931 0.896 0.265 -0.355 151 141 150
-327.1174 101.2301 -1.4050 0.848 -0.273 0.455 125 122 131
-331.5269 111.3958 -0.7468 0.857 -0.147 -0.494 95 85 93
-328.4673 112.5397 -0.5283 0.670 0.290 0.683 95 85 93
-327.7736 113.2974 -0.4377 0.889 0.027 0.458 100 90 98
-328.0117 114.2729 -0.3670 0.741 -0.631 0.229 97 87 95
-329.1059 115.4549 -0.3141 0.891 0.078 0.448 111 101 109
-327.7981 116.0611 -0.2111 0.954 -0.278 0.112 112 105 112
-328.1364 117.0634 -0.1423 0.970 -0.233 0.073 120 113 120
-328.2840 118.0204 -0.0694 0.971 -0.231 0.063 123 116 123
-327.7423 118.8067 0.0173 0.704 0.509 0.495 112 102 110
-320.0803 127.7335 1.0639 0.687 0.143 0.712 84 78 82
-323.1283 134.9601 1.5353 0.957 0.225 0.182 96 87 92
-331.2908 139.2219 1.5548 0.920 -0.385 0.076 97 87 95
-332.0533 141.3172 1.6964 0.983 0.178 0.053 83 73 84
-327.3634 141.7408 1.9218 0.891 -0.453 -0.021 74 64 75
-325.3287 142.9512 2.1042 0.838 -0.545 0.001 92 82 93
-321.6400 145.4388 2.4589 0.906 -0.106 -0.410 68 57 71
-319.7451 148.4541 2.7842 0.936 -0.119 -0.331 90 79 93
-334.0824 156.9754 2.9037 0.369 0.670 0.644 80 69 83
-347.4485 164.4572 2.9770 0.426 0.787 0.447 106 94 108
-319.3671 176.4919 5.1090 0.388 0.585 0.712 99 89 98
-332.8876 195.1984 6.1006 0.468 0.173 0.867 87 81 95
-76.0735 108.4792 9.3903 0.940 -0.278 -0.197 64 60 75
-57.0298 -39.8781 -2.3199 0.650 0.749 0.125 180 188 209
-57.2028 -39.7015 -2.3128 0.595 0.803 0.013 218 226 247
-57.3348 -39.5031 -2.3021 0.623 0.782 0.014 168 179 199
-69.0700 -41.9927 -3.0102 0.967 0.242 0.079 157 169 191
-68.9981 -41.6651 -2.9801 0.955 0.284 0.080 164 176 198
-69.0756 -41.4095 -2.9624 0.955 0.284 0.080 148 160 184
-69.1532 -41.1535 -2.9447 0.955 0.284 0.080 133 145 169
-54.9417 -24.3891 -0.9559 0.695 0.448 0.562 114 117 133
-120.0414 -49.1484 -5.7845 0.652 0.699 0.296 130 132 147
-332.2055 -119.1366 -20.6404 0.981 -0.144 -0.128 127 135 154
-198.5661 -64.9676 -10.4531 0.951 0.121 -0.284 168 176 197
-132.8050 -36.0716 -5.2558 0.665 0.745 0.047 184 190 209
-133.4305 -35.8139 -5.2614 0.655 0.754 0.058 224 226 243
-133.9500 -35.5223 -5.2597 0.642 -0.738 0.208 177 175 190
-339.9382 19.5071 -9.5642 0.721 -0.324 -0.612 86 75 92
-329.9850 28.6480 -8.3853 0.962 0.274 -0.001 133 122 136
-333.7991 29.6340 -8.4677 0.965 0.142 0.221 143 132 146
-334.5062 30.5684 -8.4212 0.968 0.144 0.204 138 127 141
-334.1351 31.4797 -8.3303 0.959 0.157 0.237 134 123 139
-326.8774 67.5420 -5.0518 0.577 0.461 0.674 73 61 71
-333.8781 77.6316 -4.5218 0.986 0.142 0.087 97 87 98
-333.8693 78.5577 -4.4452 0.947 -0.230 -0.223 90 80 91
-348.5191 91.2503 -4.0290 0.616 0.495 0.613 162 156 166
-327.9830 96.9371 -2.6806 0.896 0.265 -0.355 36 29 37
-328.4748 97.9503 -2.6183 0.945 0.134 -0.297 43 36 44
-326.8832 100.3848 -2.3497 0.848 -0.273 0.455 126 123 132
-326.6474 101.2519 -2.2683 0.848 -0.273 0.455 133 130 139
-330.0424 109.3344 -1.7488 0.777 -0.211 0.594 109 99 107
-326.3611 109.4278 -1.5833 0.753 0.098 0.651 118 108 116
-326.5469 110.3859 -1.5124 0.753 0.098 0.651 114 104 112
-327.0441 111.4168 -1.4489 0.670 0.290 0.683 108 98 106
-327.5565 112.4538 -1.3855 0.670 0.290 0.683 97 87 95
-331.2744 115.1751 -1.3210 0.898 0.201 0.391 88 78 86
-332.4162 116.3771 -1.2711 0.867 0.065 0.494 97 87 95
-320.0786 124.2521 -0.0941 0.798 0.413 0.439 95 88 95
-320.6305 128.0219 0.1924 0.687 0.150 0.711 86 80 84
-322.0005 135.6798 0.7638 0.911 -0.186 0.368 101 92 97
-325.0912 143.0242 1.2355 0.741 -0.146 0.656 101 91 100
-336.6327 163.6982 2.4417 0.459 0.351 0.816 92 80 94
-338.7206 166.3502 2.5704 0.847 -0.472 -0.244 95 83 97
-339.2495 167.4969 2.6421 0.905 -0.300 -0.301 99 87 101
-323.5853 180.2188 4.3605 0.590 0.311 0.745 78 70 85
-335.1301 195.4182 5.1161 0.450 0.270 0.851 80 74 86
-44.9930 -41.0734 -2.1390 0.983 0.182 -0.017 183 198 219
-45.1963 -40.7163 -2.1189 0.980 0.190 -0.057 150 165 186
-45.2569 -40.5132 -2.1049 0.883 0.402 0.243 117 132 153
-45.2913 -40.2948 -2.0885 0.981 0.183 -0.068 121 136 157
-56.9859 -39.8786 -2.5821 0.751 0.611 0.251 172 180 201
-57.1503 -39.6975 -2.5747 0.649 0.751 0.120 217 225 246
-57.2489 -39.4821 -2.5614 0.775 0.587 0.235 179 190 210
-69.0437 -42.0027 -3.3010 0.967 0.242 0.079 157 169 191
-68.9708 -41.6745 -3.2707 0.955 0.284 0.080 164 176 198
-69.0483 -41.4188 -3.2532 0.955 0.284 0.080 150 162 186
-69.1260 -41.1627 -3.2356 0.955 0.284 0.080 132 144 168
-67.9323 -37.6823 -2.8957 0.982 0.190 0.020 159 171 193
-68.0940 -37.4644 -2.8851 0.975 -0.024 -0.221 160 173 192
-114.5084 -52.9722 -6.2547 0.682 0.559 0.472 134 143 158
-54.7857 -24.3408 -1.2057 0.680 0.467 0.565 112 115 130
-119.8674 -49.1005 -6.1784 0.628 0.704 0.331 128 131 146
-132.3138 -35.9351 -5.6580 0.639 0.750 0.171 183 189 208
-132.9879 -35.6924 -5.6685 0.697 0.716 0.041 219 221 238
-133.8356 -35.4973 -5.6907 0.645 -0.738 0.198 182 180 195
-80.9608 -0.5075 -0.4282 0.892 0.313 0.326 85 79 89
-25.2305 14.5593 3.3256 0.936 0.343 0.078 154 146 159
-25.3674 14.7500 3.3351 0.990 0.108 -0.090 144 136 149
-335.8449 31.5921 -9.2943 0.926 0.378 0.012 105 94 108
-336.6521 33.4647 -9.1769 0.929 0.371 0.005 64 53 67
-337.7423 35.3551 -9.0707 0.934 0.201 0.296 65 54 68
-336.8792 36.2530 -8.9579 0.961 0.132 0.245 75 64 78
-335.0735 38.0340 -8.7300 0.671 0.491 0.555 98 87 102
-336.1207 39.0032 -8.6976 0.685 0.492 0.537 82 74 92
-336.8470 39.9627 -8.6516 0.685 0.492 0.537 94 87 105
-334.3219 76.8678 -5.5042 0.864 0.203 0.461 108 96 108
-332.9351 77.6006 -5.3814 0.933 0.153 0.325 97 85 97
-332.4564 78.4576 -5.2893 0.927 0.174 0.332 98 86 98
-332.4711 79.3847 -5.2138 0.951 0.070 -0.300 113 101 113
-324.5998 84.5846 -4.4311 0.735 -0.594 -0.327 105 99 109
-328.4738 96.2281 -3.6490 0.895 0.275 -0.351 107 100 108
-325.2150 110.2061 -2.3530 0.675 0.291 0.678 106 96 104
-325.7217 111.2369 -2.2911 0.675 0.291 0.678 118 108 116
-327.0787 112.4685 -2.2511 0.699 0.286 0.656 101 91 99
-326.0370 113.1418 -2.1488 0.567 0.250 0.785 93 83 91
-328.7895 115.6357 -2.0680 0.884 0.095 0.458 140 130 138
-328.0582 116.3815 -1.9737 0.927 -0.286 0.241 126 116 124
-328.2234 117.3435 -1.9021 0.942 -0.294 0.163 111 101 109
-319.7144 123.3840 -1.0215 0.822 0.363 0.439 93 86 93
-319.0456 125.0101 -0.8577 0.561 -0.410 0.719 80 73 80
-318.5864 125.7869 -0.7731 0.561 -0.410 0.719 84 77 84
-325.4191 133.1615 -0.4754 0.516 0.753 0.409 92 86 90
-323.9134 135.4741 -0.2173 0.780 -0.620 -0.086 99 93 95
-322.2180 135.8861 -0.1070 0.765 -0.632 -0.127 100 91 96
-317.9063 138.2123 0.2789 0.813 -0.535 -0.231 104 94 105
-316.0907 139.4516 0.4627 0.956 -0.180 0.233 106 96 107
-314.5036 139.8520 0.5672 0.912 0.037 0.408 100 90 101
-314.4611 140.7330 0.6415 0.915 0.035 0.402 95 85 96
-334.1252 162.9687 1.5816 0.455 0.366 0.812 99 87 101
-338.3131 165.4151 1.5937 0.421 0.391 0.818 104 92 106
-338.6451 166.4892 1.6670 0.947 -0.199 -0.251 107 95 109
-323.1049 181.1169 3.5707 0.601 0.333 0.727 73 64 81
-325.5967 191.4337 4.3062 0.914 0.026 0.406 92 86 98
-326.5909 193.7327 4.4503 0.745 -0.014 0.667 96 88 99
-318.7473 191.1767 4.5942 0.582 -0.005 0.813 88 80 92
-318.8433 192.1333 4.6685 0.582 -0.005 0.813 98 90 101
-44.9924 -41.0989 -2.3783 0.983 0.182 -0.017 175 192 210
-56.9115 -39.8634 -2.8418 0.751 0.611 0.251 161 170 191
-57.0680 -39.6783 -2.8340 0.780 0.588 0.214 215 224 245
-57.1793 -39.4693 -2.8221 0.775 0.587 0.235 187 198 218
-69.0175 -42.0128 -3.5921 0.967 0.242 0.079 156 168 190
-68.9436 -41.6839 -3.5616 0.955 0.284 0.080 162 174 196
-69.0211 -41.4281 -3.5442 0.955 0.284 0.080 153 165 189
-69.0987 -41.1719 -3.5269 0.955 0.284 0.080 134 146 170
-68.2018 -37.5332 -3.1856 0.972 0.104 -0.210 160 173 192
-191.2047 -87.6600 -13.1313 0.874 -0.023 0.486 158 167 185
-114.4386 -52.9659 -6.6442 0.857 0.390 0.336 127 136 151
-119.9475 -49.1514 -6.5921 0.664 0.706 0.248 128 131 145
-132.3760 -35.9623 -6.0983 0.703 0.708 0.074 182 188 207
-132.9614 -35.6932 -6.1040 0.697 0.716 0.041 214 217 233
-133.7328 -35.4756 -6.1227 0.649 -0.733 0.205 185 183 199
-80.3477 -0.7320 -0.7397 0.584 0.324 0.745 82 76 86
-337.4749 35.4192 -9.9586 0.934 0.201 0.296 77 65 79
-335.2201 36.2660 -9.7822 0.958 0.164 0.235 88 76 90
-334.7854 39.9443 -9.4596 0.686 0.527 0.501 103 95 116
-46.5191 28.2176 3.2406 0.269 0.782 0.562 81 73 93
-329.4227 71.6989 -6.5982 0.834 0.368 0.410 118 108 117
-331.4953 73.8079 -6.5232 0.833 0.432 0.345 104 94 103
-332.4854 76.7138 -6.3316 0.624 0.185 0.759 108 96 108
-332.8516 77.6910 -6.2687 0.624 0.185 0.759 99 87 99
-333.2186 78.6702 -6.2057 0.624 0.185 0.759 104 92 104
-332.2742 79.4593 -6.0962 0.498 0.176 0.849 126 114 126
-330.7030 81.9946 -5.8135 0.630 -0.742 -0.229 104 90 103
-331.1180 107.9681 -3.7006 0.839 -0.053 0.541 117 110 118
-331.1090 108.8939 -3.6242 0.839 -0.053 0.541 115 105 113
-331.1000 109.8199 -3.5477 0.839 -0.053 0.541 106 96 104
-324.8342 111.1568 -3.1410 0.675 0.291 0.678 117 107 115
-330.3421 113.3563 -3.2214 0.906 -0.110 0.410 107 97 105
-329.5698 115.9519 -2.9717 0.884 0.074 0.462 132 122 130
-323.4992 134.5789 -1.1546 0.763 -0.626 -0.163 105 99 103
-323.8994 135.6119 -1.0887 0.780 -0.620 -0.086 104 98 100
-321.6659 136.7749 -0.8874 0.766 -0.629 -0.135 102 92 100
-320.8521 137.4402 -0.7942 0.817 -0.546 -0.184 95 85 94
-313.4904 139.6776 -0.2616 0.998 0.048 0.043 100 90 101
-314.1970 140.7937 -0.2034 0.912 0.037 0.408 95 85 96
-319.6720 143.4330 -0.2462 0.994 0.023 -0.106 89 79 90
-321.8406 146.8631 -0.0674 0.893 -0.160 -0.420 73 62 76
-336.3282 165.8182 0.8023 0.946 -0.217 -0.243 113 101 115
-242.0135 198.2938 7.9390 0.583 0.767 -0.269 73 62 79
-56.8370 -39.8482 -3.1015 0.751 0.611 0.251 150 163 182
-57.0127 -39.6730 -3.0958 0.775 0.589 0.228 206 219 238
-57.1097 -39.4566 -3.0829 0.775 0.587 0.235 187 200 219
-57.2010 -39.2369 -3.0694 0.752 0.580 0.313 146 159 176
-68.9163 -41.6933 -3.8527 0.955 0.284 0.080 160 172 194
-69.0257 -41.4527 -3.8384 0.951 0.302 0.056 157 169 191
-69.0776 -41.1840 -3.8189 0.953 0.296 0.069 136 148 172
-190.9013 -87.5640 -13.6729 0.874 -0.023 0.486 147 155 173
-116.2147 -51.3336 -6.9923 0.827 0.546 0.131 63 73 85
-56.9458 -24.6796 -1.8628 0.653 0.677 0.340 128 131 146
-57.1916 -24.5061 -1.8608 0.651 0.673 0.351 133 136 153
-132.9348 -35.6940 -6.5399 0.697 0.716 0.041 211 214 230
-133.5269 -35.4239 -6.5472 0.650 -0.733 0.201 193 191 206
-82.8484 1.5460 -0.9982 0.776 0.449 0.443 79 70 87
-26.1613 14.7056 2.8963 0.844 0.288 -0.452 73 65 76
-26.4473 14.8878 2.8971 0.847 0.301 -0.439 64 56 67
-25.4097 15.3721 2.9883 0.257 0.757 0.600 54 46 61
-335.5644 35.4266 -10.7696 0.939 0.252 0.235 125 114 128
-329.4559 71.8007 -7.4829 0.842 0.362 0.400 110 100 109
-332.1443 77.6929 -7.1332 0.622 0.174 0.764 101 89 101
-332.1666 78.6215 -7.0581 0.624 0.185 0.759 108 96 108
-334.5908 86.4258 -6.5384 0.797 0.292 0.529 90 85 95
-326.9056 87.0017 -6.1095 0.722 0.461 0.517 77 74 83
-329.9785 93.0522 -5.7659 0.933 0.004 -0.361 89 82 90
-331.2744 94.2140 -5.7349 0.931 -0.025 -0.363 67 60 68
-328.7129 102.0305 -4.9666 0.909 0.303 -0.285 131 128 139
-330.4774 104.2450 -4.8726 0.876 0.429 -0.221 152 149 158
-332.4963 106.5315 -4.7854 0.843 0.409 -0.350 125 122 131
-327.6771 106.4160 -4.5555 0.764 0.024 0.645 120 114 124
-330.2457 108.8266 -4.4854 0.847 -0.056 0.529 118 108 116
-333.4045 110.4616 -4.5081 0.869 0.010 0.495 119 109 117
-322.1538 136.1512 -1.8424 0.969 -0.224 -0.099 85 78 85
-321.4677 137.7694 -1.6756 0.811 -0.555 -0.187 95 85 96
-319.7676 138.1626 -1.5589 0.817 -0.525 -0.237 100 90 101
-323.1005 146.5071 -1.0400 0.906 -0.106 -0.410 99 88 102
-326.5793 155.0392 -0.5130 0.610 0.007 0.793 102 91 105
-325.8146 192.8258 2.6242 0.166 -0.021 0.986 96 86 95
-320.8697 192.4853 2.8418 0.173 0.002 0.985 100 90 99
-316.1535 191.2921 2.9782 0.590 -0.013 0.807 106 96 105
-316.2338 192.2372 3.0517 0.590 -0.013 0.807 104 94 103
-31.2096 74.8979 7.5825 0.762 -0.072 0.643 82 71 88
-27.5797 73.7055 7.6650 0.872 0.078 -0.483 77 66 83
-27.5898 73.9295 7.6828 0.872 0.078 -0.483 79 68 85
-27.5884 74.1468 7.7007 0.869 0.069 -0.490 79 68 85
-160.4854 165.2022 8.5690 0.568 -0.269 0.778 58 56 70
-161.9729 166.7070 8.6186 0.443 -0.700 0.560 58 56 70
-56.7325 -39.8174 -3.3584 0.636 0.755 0.161 143 156 175
-56.9966 -39.6877 -3.3614 0.733 0.629 0.261 200 213 232
-57.0843 -39.4665 -3.3479 0.757 0.604 0.250 176 189 208
-57.1813 -39.2496 -3.3351 0.749 0.613 0.251 165 178 195
-68.9386 -41.7267 -4.1486 0.951 0.308 0.034 159 172 191
-69.0798 -41.5012 -4.1375 0.898 0.415 -0.142 160 172 194
-69.1065 -41.2201 -4.1158 0.898 0.416 -0.144 137 149 173
-190.5499 -87.4472 -14.2097 0.878 -0.044 0.476 148 156 174
-114.3365 -52.5724 -7.3947 0.852 0.410 0.325 197 206 220
-56.8536 -24.6567 -2.1225 0.645 0.675 0.358 127 130 145
-57.1285 -24.4945 -2.1235 0.655 0.670 0.350 133 136 151
-57.3281 -24.3022 -2.1181 0.655 0.670 0.350 211 214 229
-184.9092 -72.7808 -12.7151 0.664 -0.717 0.211 209 212 227
-203.9658 -67.4382 -13.2670 0.769 0.407 0.492 158 166 187
-294.0481 -87.0981 -19.5556 0.831 -0.554 -0.044 142 149 168
-133.0583 -35.7389 -6.9877 0.696 0.716 0.047 209 211 227
-133.4578 -35.4120 -6.9817 0.789 0.614 0.030 204 202 217
-133.7713 -35.0584 -6.9690 0.789 0.615 -0.011 53 47 61
-327.4619 79.8748 -7.6106 0.189 0.012 0.982 75 63 75
-334.5754 91.1999 -7.0522 0.950 0.123 -0.287 125 119 129
-332.2367 93.5765 -6.7360 0.933 -0.032 -0.358 118 111 119
-332.1750 94.4941 -6.6576 0.933 -0.032 -0.358 84 77 85
-327.6148 100.0845 -5.9628 0.988 -0.073 0.139 88 82 92
-329.5767 102.3273 -5.8809 0.606 0.640 0.472 75 72 81
-334.6113 108.9836 -5.5970 0.911 -0.060 0.408 104 97 105
-334.5844 109.9150 -5.5193 0.911 -0.060 0.408 116 106 114
-321.8458 129.8177 -3.2272 0.959 -0.218 -0.183 105 99 103
-321.6366 130.6698 -3.1465 0.959 -0.218 -0.183 106 100 104
-321.8472 131.6413 -3.0778 0.948 -0.281 -0.149 105 99 103
-321.5859 132.4777 -2.9957 0.948 -0.281 -0.149 105 99 103
-322.6455 138.2694 -2.5762 0.970 -0.238 -0.057 95 85 94
-322.9892 139.2892 -2.5105 0.964 0.182 0.193 100 88 98
-324.4918 146.1875 -2.0234 1.000 -0.021 0.001 88 78 88
-323.9857 146.9441 -1.9351 0.830 -0.231 0.509 90 80 91
-323.1440 147.5888 -1.8386 0.843 -0.356 0.404 87 77 88
-324.8108 149.0548 -1.8050 0.823 -0.266 0.502 86 76 86
-322.8699 149.3336 -1.6814 0.943 -0.264 0.201 89 77 89
-320.3704 170.4272 0.1766 0.949 -0.109 -0.297 112 102 111
-323.1312 181.6524 0.9529 0.902 -0.317 -0.295 75 66 83
-320.5370 182.4116 1.1498 0.691 0.415 0.592 75 66 83
-321.3469 183.6715 1.2110 0.691 0.415 0.592 76 67 84
-322.1602 184.9370 1.2724 0.691 0.415 0.592 79 70 87
-316.1861 190.5784 2.0449 0.242 -0.191 0.951 111 101 110
-315.5354 191.1960 2.1293 0.615 -0.000 0.788 123 113 122
-314.7606 191.7547 2.2153 0.611 -0.031 0.791 118 108 117
-30.9202 74.7861 7.3716 0.858 -0.316 0.404 82 71 88
-31.0060 75.0613 7.3896 0.811 -0.045 0.583 82 71 88
-30.9485 75.2548 7.4085 0.759 -0.027 0.651 82 71 88
-27.7573 73.8599 7.4599 0.868 0.061 -0.493 82 71 88
-27.7035 74.0473 7.4781 0.866 0.060 -0.496 82 71 88
-27.7085 74.2689 7.4960 0.866 0.060 -0.496 83 72 89
-329.6672 267.7145 7.6646 0.331 -0.045 0.943 63 61 75
-161.7202 166.1368 8.0636 0.608 -0.127 0.784 61 59 73
-56.6743 -39.8106 -3.6196 0.636 0.755 0.161 137 150 169
-56.9186 -39.6707 -3.6214 0.733 0.629 0.261 204 217 236
-57.0008 -39.4467 -3.6075 0.792 0.583 0.184 178 191 210
-57.1064 -39.2342 -3.5958 0.749 0.613 0.251 163 176 193
-69.0234 -41.7904 -4.4509 0.898 0.387 -0.209 156 169 186
-69.2442 -41.6028 -4.4476 0.904 0.343 -0.256 158 171 190
-69.3478 -41.0633 -4.4090 0.895 0.391 -0.215 139 151 173
-190.2518 -87.3534 -14.7504 0.878 -0.044 0.476 148 158 175
-114.2053 -52.5403 -7.7796 0.852 0.410 0.325 184 193 208
-56.7421 -24.6263 -2.3806 0.645 0.675 0.358 125 129 141
-57.0198 -24.4654 -2.3824 0.655 0.670 0.350 133 137 149
-57.3237 -24.3131 -2.3864 0.656 0.674 0.340 208 212 224
-184.2020 -71.9804 -13.1644 0.698 -0.692 0.184 130 133 148
-294.2022 -87.1637 -20.3690 0.831 -0.554 -0.045 142 149 168
-133.0290 -35.7389 -7.4247 0.696 0.716 0.047 206 208 224
-133.4387 -35.4148 -7.4204 0.789 0.614 0.030 212 211 226
-133.7711 -35.0664 -7.4099 0.789 0.615 -0.011 60 54 68
-134.0547 -34.7024 -7.3955 0.789 0.615 -0.011 45 41 56
-92.9119 -20.0648 -3.9676 0.928 0.201 0.313 64 51 65
-93.7007 -19.9219 -3.9987 0.936 0.122 0.330 70 56 71
-331.3853 -22.9307 -17.1273 0.856 0.091 -0.508 82 71 85
-330.4039 -21.9150 -16.9910 0.841 0.101 -0.532 83 72 86
-331.2824 92.5887 -7.6674 0.952 0.154 -0.263 120 113 121
-340.9088 106.6855 -7.0354 0.243 0.644 0.726 83 80 89
-332.6643 105.8806 -6.6544 0.831 0.355 0.428 80 77 86
-331.3141 107.4525 -6.4526 0.865 0.306 0.398 75 70 77
-331.4407 109.3410 -6.3049 0.927 -0.066 0.368 94 84 92
-332.0918 110.4181 -6.2520 0.904 -0.032 0.425 106 96 104
-325.3713 122.6718 -4.8849 0.921 -0.381 -0.081 91 84 91
-321.5536 128.9619 -4.1632 0.853 -0.412 -0.322 108 102 106
-321.3627 129.8194 -4.0827 0.856 -0.410 -0.315 101 95 99
-322.8266 131.1465 -4.0534 0.965 -0.250 -0.082 103 97 101
-322.3728 132.8448 -3.8898 0.965 -0.250 -0.082 106 97 102
-322.3138 136.4839 -3.5888 0.969 -0.231 -0.085 117 108 113
-322.8684 137.5651 -3.5304 0.930 -0.298 -0.215 106 97 102
-322.5837 138.3948 -3.4470 0.930 -0.298 -0.215 98 87 94
-319.3871 139.2414 -3.2045 0.734 -0.515 -0.442 109 98 107
-318.8193 139.9734 -3.1138 0.734 -0.515 -0.442 114 103 111
-317.3406 140.4179 -2.9973 0.842 -0.485 -0.234 117 106 114
-324.2905 149.0356 -2.6687 0.823 -0.266 0.502 105 94 103
-324.8574 150.1450 -2.6086 0.825 -0.249 0.508 111 98 108
-328.4474 153.1989 -2.5532 0.987 -0.115 0.114 98 85 95
-317.0065 150.2534 -2.1742 0.841 -0.537 -0.067 97 86 95
-322.0872 168.5022 -0.9561 0.954 -0.089 -0.287 94 87 94
-320.5816 168.8434 -0.8465 0.940 -0.138 -0.312 90 83 90
-319.6443 169.3973 -0.7504 0.945 -0.020 -0.327 86 79 86
-321.7037 171.1127 -0.7216 0.950 -0.086 -0.300 105 95 104
-316.3379 169.9316 -0.5275 0.806 -0.446 -0.388 111 101 110
-322.0886 181.3947 0.0990 0.948 0.307 -0.081 75 66 83
-314.0909 190.7285 1.2964 0.654 0.124 0.746 137 127 136
-317.6424 211.5482 2.8078 0.956 0.259 0.139 80 67 84
-30.8218 74.7829 7.1602 0.858 -0.316 0.404 82 71 87
-30.8762 75.0402 7.1783 0.753 -0.026 0.657 83 72 88
-30.8845 75.2712 7.1968 0.753 -0.026 0.657 84 73 89
-30.6737 75.3760 7.2168 0.837 0.341 0.428 93 82 98
-28.4176 74.2943 7.2505 0.529 -0.739 -0.417 97 86 102
-28.1294 74.3471 7.2704 0.636 -0.730 -0.253 94 83 99
-27.8350 74.3948 7.2903 0.866 0.060 -0.496 89 78 94
-327.3107 266.4733 6.7790 0.331 -0.045 0.943 62 60 74
-329.3990 268.7401 6.8513 0.612 0.637 0.469 63 61 75
-171.4675 173.7074 7.6335 0.881 0.253 0.399 68 64 79
-56.8364 -39.6516 -3.8809 0.793 0.582 0.179 199 212 231
-56.9443 -39.4408 -3.8698 0.792 0.583 0.184 181 194 213
-57.0311 -39.2187 -3.8565 0.747 0.626 0.225 163 176 193
-69.0730 -41.8371 -4.7506 0.898 0.387 -0.209 155 168 184
-69.2334 -41.6201 -4.7420 0.896 0.394 -0.204 158 171 188
-69.3379 -41.3756 -4.7279 0.896 0.394 -0.204 150 163 182
-69.4277 -41.1235 -4.7123 0.904 0.375 -0.204 141 154 173
-67.9010 -37.7685 -4.3518 0.971 0.174 -0.162 155 168 187
-56.9987 -24.4700 -2.6489 0.661 0.671 0.336 131 135 147
-57.2177 -24.2850 -2.6462 0.656 0.674 0.340 197 201 213
-176.3374 -66.3226 -12.8100 0.926 0.226 -0.301 87 90 105
-302.6276 -96.3778 -22.3991 0.688 0.236 0.687 217 225 246
-295.4684 -88.3810 -21.3411 0.977 0.047 -0.206 141 148 167
-132.3551 -35.9917 -7.8465 0.758 0.652 -0.022 178 185 203
-132.8551 -35.6964 -7.8506 0.697 0.716 0.041 200 203 219
-133.4878 -35.4375 -7.8652 0.789 0.615 -0.011 221 219 234
-133.6280 -35.0330 -7.8400 0.741 0.671 0.041 72 66 80
-134.0546 -34.7101 -7.8377 0.789 0.615 -0.011 41 37 52
-95.4111 -20.7412 -4.5134 0.792 0.547 0.272 64 50 64
-24.1362 16.8925 2.5885 0.671 0.633 0.386 86 75 91
-46.2183 28.5407 2.2937 0.314 0.784 0.535 72 63 80
-171.9731 56.2406 -2.5435 0.625 0.772 0.117 111 99 111
-172.8096 56.9168 -2.5354 0.625 0.772 0.117 116 104 116
-330.6530 96.2950 -8.2300 0.983 0.149 0.106 115 108 116
-326.8928 98.3365 -7.8508 0.981 -0.089 0.169 42 35 43
-326.8238 99.2415 -7.7729 0.981 -0.089 0.169 59 54 61
-330.3296 106.4330 -7.3830 0.885 0.208 0.417 82 77 84
-329.6986 108.1505 -7.2069 0.892 -0.032 0.451 102 95 102
-327.4970 113.1987 -6.6699 0.898 0.013 0.439 129 119 127
-331.6331 116.9680 -6.5953 0.731 -0.253 0.634 128 118 126
-327.9071 123.4665 -5.8536 0.867 0.335 -0.368 129 122 129
-325.1924 126.4366 -5.4575 0.935 -0.349 0.067 117 110 117
-321.9555 129.2117 -5.0478 0.935 -0.345 -0.074 94 88 92
-322.3008 130.2220 -4.9847 0.917 -0.392 -0.080 121 115 119
-322.1394 132.0037 -4.8299 0.951 -0.309 0.012 119 113 117
-322.4083 132.9953 -4.7640 0.965 -0.250 -0.082 125 116 121
-321.7086 168.5233 -1.8200 0.973 -0.064 -0.223 97 90 97
-320.8522 169.1133 -1.7234 0.957 -0.112 -0.268 86 79 86
-319.9410 169.6782 -1.6257 0.945 -0.020 -0.327 80 73 80
-318.8756 195.8128 0.5711 0.882 0.452 -0.130 88 78 87
-29.8467 74.2797 6.9576 0.808 0.585 0.072 97 86 102
-30.2381 74.7278 6.9721 0.813 0.579 0.062 98 87 103
-30.5613 75.1386 6.9875 0.885 0.218 0.412 99 88 102
-28.6102 74.2372 7.0240 0.530 -0.737 -0.420 118 107 121
-28.4209 74.3484 7.0437 0.529 -0.738 -0.418 116 105 119
-28.1208 74.3942 7.0644 0.612 -0.763 -0.209 102 91 105
-27.8468 74.4539 7.0848 0.637 -0.728 -0.253 87 76 90
-27.7656 74.6255 7.1034 0.640 -0.724 -0.256 75 64 78
-56.4962 -39.7650 -4.1361 0.633 0.756 0.168 121 134 153
-56.7811 -39.6462 -4.1432 0.793 0.582 0.179 192 205 224
-56.8878 -39.4348 -4.1322 0.792 0.583 0.184 183 196 215
-68.7286 -41.6933 -5.0123 0.839 0.512 0.183 156 169 185
-69.1511 -41.6031 -5.0297 0.850 0.514 -0.116 157 170 187
-69.2880 -41.3741 -5.0191 0.850 0.514 -0.116 151 164 183
-69.4225 -41.1432 -5.0081 0.854 0.508 -0.113 141 154 173
-57.3848 -24.3620 -2.9305 0.663 0.699 0.268 185 189 201
-57.5970 -24.1729 -2.9275 0.660 0.687 0.304 231 235 246
-185.8505 -65.3635 -13.8262 0.914 0.374 0.159 203 210 229
-301.5076 -96.8641 -23.1936 0.736 0.147 0.661 146 154 175
-301.9341 -96.1769 -23.1625 0.688 0.236 0.687 212 220 241
-295.0905 -88.2839 -22.1159 0.976 0.038 -0.216 137 144 163
-131.6519 -36.6740 -8.2991 0.544 0.830 0.122 180 187 206
-132.1971 -35.9538 -8.2723 0.740 0.670 -0.067 178 185 203
-132.8284 -35.6972 -8.2885 0.697 0.716 0.041 196 199 215
-133.2834 -35.3862 -8.2898 0.741 0.671 0.041 230 228 241
-133.6030 -35.0338 -8.2798 0.741 0.671 0.041 86 80 94
-133.9163 -34.6782 -8.2691 0.738 0.674 0.033 38 34 49
-327.0012 -11.5863 -17.7271 0.800 0.579 -0.154 84 76 91
-331.8774 -9.2695 -17.8243 0.771 -0.096 0.629 77 69 84
