ply
format ascii 1.0
element vertex 868
property float x
property float y
property float z
property float nx
property float ny
property float nz
property uchar diffuse_red
property uchar diffuse_green
property uchar diffuse_blue
end_header
-113.1941 238.8499 -27.1045 0.976 0.189 -0.110 44 18 27
-114.8845 252.2222 -27.6177 0.369 -0.904 0.214 33 31 33
-177.2629 331.8766 -38.5819 0.648 -0.375 -0.663 33 34 31
-159.7043 314.8357 -35.5993 0.667 -0.580 -0.468 33 34 30
-119.8302 172.8280 -27.5106 0.986 0.056 -0.159 71 65 59
-82.7486 182.5725 -22.0514 0.637 -0.404 0.656 140 123 139
-83.3656 222.7573 -22.9943 0.388 -0.046 0.921 35 36 31
-116.1681 309.0587 -29.8280 0.946 0.290 -0.145 56 62 44
-117.0180 311.7336 -30.0143 0.946 0.290 -0.145 56 62 44
-86.5016 178.5419 -23.1720 0.860 0.071 0.505 83 65 81
-82.4290 182.3506 -22.6308 0.534 -0.625 0.569 117 100 116
-168.8044 214.6903 -37.5395 0.043 -0.812 -0.582 66 58 56
-133.0225 199.4186 -31.5792 0.580 -0.563 0.589 67 46 51
-138.7301 204.9393 -32.6066 0.536 -0.550 0.641 63 42 47
-131.9941 202.3098 -31.4906 0.382 -0.921 0.078 63 42 47
-81.1128 182.8892 -23.0721 0.228 -0.807 0.545 70 54 67
-112.7387 163.9675 -28.1835 0.954 0.179 -0.240 78 71 65
-90.8180 179.9958 -25.1568 0.756 -0.207 0.620 72 52 68
-84.1093 179.0218 -24.0737 -0.359 -0.933 -0.002 68 50 66
-112.8627 231.2144 -29.9973 0.660 -0.358 0.660 77 52 58
-87.7978 179.0712 -25.2928 0.030 -0.949 0.315 79 61 77
-84.1840 179.1595 -24.7200 -0.282 -0.959 0.037 95 77 93
-134.2495 193.3088 -33.8318 -0.265 -0.922 0.282 58 43 46
-128.6940 189.8992 -32.8348 -0.280 -0.953 0.115 58 37 42
-89.9337 183.5515 -26.4094 0.563 -0.268 0.782 89 71 87
-143.4815 153.4396 -34.7836 0.495 -0.402 0.770 63 67 50
-86.8640 178.3860 -26.3933 0.089 -0.984 0.152 102 84 100
-89.8999 181.1366 -27.6200 0.711 -0.195 0.676 111 94 111
-82.3231 184.3929 -26.4884 0.437 -0.604 0.667 41 26 40
-140.9192 195.0053 -37.2142 0.113 -0.742 -0.661 59 47 52
-89.1880 181.4148 -28.1574 0.638 -0.730 0.246 103 89 108
-82.7188 181.4475 -27.0872 0.853 -0.489 0.181 116 106 122
-82.4414 183.7259 -27.1232 0.432 -0.615 0.660 39 27 44
-102.5855 246.5753 -32.7206 0.959 -0.182 0.215 60 61 48
-122.7911 151.8471 -33.3033 0.200 -0.970 0.136 53 52 47
-120.1721 152.3284 -32.8835 0.286 -0.888 0.359 63 62 58
-119.6735 152.7247 -32.8151 0.292 -0.891 0.348 63 62 57
-116.0820 168.2430 -32.8017 0.985 -0.004 -0.171 62 51 55
-122.9904 174.0437 -34.1765 0.953 -0.255 0.164 64 53 57
-123.4825 175.2142 -34.3031 0.939 -0.325 0.112 62 51 55
-120.1348 175.1966 -33.7425 0.941 -0.314 0.123 62 51 55
-82.3898 182.0587 -27.6900 0.695 -0.516 0.501 56 48 63
-82.0351 182.5746 -27.6502 0.695 -0.516 0.501 32 21 37
-81.1749 182.6205 -27.5081 0.688 -0.565 0.456 39 28 44
-81.6272 183.8915 -27.6318 0.707 -0.510 0.490 33 22 38
-169.6917 152.6634 -41.8991 0.667 0.094 0.739 57 70 50
-176.4082 157.7381 -43.2347 0.810 0.088 0.580 70 82 62
-137.2339 151.3863 -36.3681 0.667 -0.281 0.690 46 46 36
-119.7777 152.8381 -33.4783 0.285 -0.894 0.346 57 56 52
-133.7954 165.7080 -36.3561 0.135 -0.622 -0.771 55 51 48
-122.1446 173.4876 -34.6978 0.950 -0.273 0.154 64 53 57
-124.8798 188.1431 -35.7415 0.364 -0.922 -0.132 60 45 50
-88.3978 176.7228 -29.1282 0.107 -0.250 0.962 47 37 45
-87.6062 177.6704 -29.0322 0.097 -0.257 0.961 104 93 111
-80.7893 182.3352 -28.0664 0.695 -0.540 0.474 39 28 44
-139.2912 151.1990 -37.3783 0.505 -0.427 0.751 62 62 52
-136.6290 150.3533 -36.8894 0.528 -0.366 0.766 52 52 42
-136.3096 150.8820 -36.8569 0.528 -0.366 0.766 46 46 36
-125.7527 158.9555 -35.3930 0.711 -0.617 0.337 50 49 45
-79.7952 182.3251 -28.5305 0.026 -0.971 -0.236 33 22 38
-143.6921 153.0892 -38.8884 0.466 -0.865 -0.187 70 70 62
-138.8683 150.9936 -37.9673 0.514 -0.423 0.747 57 57 47
-137.0349 150.6350 -37.6363 0.684 -0.294 0.667 52 52 42
-125.6586 158.1982 -36.0072 0.688 -0.669 0.281 52 51 47
-125.7243 158.9859 -36.0527 0.730 -0.609 0.311 50 49 45
-142.3869 153.1000 -39.3439 0.361 -0.813 -0.457 53 53 43
-137.1191 150.7273 -38.3215 0.677 -0.297 0.673 53 53 43
-146.9500 162.5989 -40.5668 -0.467 -0.768 0.438 53 52 50
-143.0972 160.9980 -39.8251 -0.463 -0.760 0.457 48 47 45
-99.4116 230.0742 -35.3666 0.952 0.044 -0.302 50 45 42
-147.5469 163.0128 -41.3961 -0.457 -0.763 0.458 50 49 47
-136.1107 158.9800 -39.2011 -0.067 -0.789 0.611 35 34 30
-119.3785 191.9657 -37.8238 0.178 -0.685 -0.707 55 43 47
-90.4227 215.3542 -33.8509 -0.006 -0.807 0.591 64 54 53
-143.5302 151.6651 -40.8364 0.153 -0.981 -0.122 66 67 56
-145.1400 153.3284 -41.2027 0.092 -0.984 -0.150 67 68 57
-119.5221 192.1538 -38.5743 0.359 -0.605 -0.711 54 43 47
-80.5582 173.4264 -30.7625 0.155 -0.083 0.984 95 83 103
-80.3210 174.0192 -30.7496 0.155 -0.083 0.984 113 101 122
-88.3422 213.2590 -34.0929 0.242 -0.800 0.549 64 55 53
-90.0653 218.1318 -34.6367 -0.045 -0.758 0.651 61 56 51
-145.2360 153.4270 -41.9107 0.092 -0.984 -0.150 63 67 52
-144.3241 153.6305 -41.7582 0.392 -0.920 -0.009 62 65 51
-115.4086 154.5925 -36.6447 -0.535 -0.778 0.329 45 45 50
-81.3196 184.1288 -32.0621 0.181 -0.770 -0.611 50 43 61
-169.7514 166.9196 -47.7259 0.338 -0.826 0.451 59 67 48
-138.1291 154.4099 -41.3687 -0.134 -0.776 0.616 48 55 36
-127.5370 152.3055 -39.3494 -0.413 -0.771 0.485 44 53 32
-130.0311 162.0500 -40.3130 -0.501 -0.762 0.410 43 38 40
-105.4695 155.1166 -35.5222 0.619 0.028 0.785 40 34 46
-80.4557 180.0201 -32.3302 0.996 0.056 0.065 93 86 105
-122.6939 125.6705 -37.6696 0.982 -0.041 0.185 52 73 40
-125.7748 128.5116 -38.3849 0.988 -0.120 -0.099 57 76 46
-117.0982 139.7846 -37.4238 0.714 -0.046 0.699 54 63 42
-124.5563 148.3784 -39.2491 0.181 -0.510 0.841 42 52 29
-124.9945 150.7734 -39.4597 -0.410 -0.769 0.490 49 58 37
-127.4955 155.2329 -40.1580 0.715 -0.280 -0.640 55 53 49
-128.6980 160.4702 -40.6628 -0.469 -0.691 0.549 67 64 60
-115.9048 154.2933 -37.9997 -0.502 -0.752 0.427 54 56 56
-81.6059 183.6934 -33.3718 0.019 -0.890 -0.456 53 47 60
-80.9024 183.8876 -33.2545 0.024 -0.892 -0.452 52 46 58
-123.9783 126.9846 -38.5782 0.984 -0.049 0.172 50 71 38
-116.9975 139.1014 -37.9828 0.664 -0.439 0.605 62 72 48
-136.1918 153.3321 -42.3074 -0.134 -0.776 0.616 69 79 55
-127.0432 149.9421 -40.4380 -0.089 -0.918 0.387 54 64 39
-132.0448 155.1925 -41.6520 0.078 -0.674 0.734 55 65 41
-138.9579 161.0013 -43.2482 0.907 -0.253 -0.337 57 63 47
-96.9229 146.4985 -34.7194 0.407 -0.146 0.901 39 39 39
-107.0212 160.7322 -37.3759 0.878 0.250 0.409 45 37 39
-79.9644 172.3711 -33.0717 0.557 -0.584 -0.590 53 46 55
-83.0297 185.9626 -34.4021 0.102 -0.969 -0.225 52 47 54
-117.8040 139.6172 -38.7773 0.192 -0.769 0.609 64 73 52
-129.7626 149.5025 -41.5671 -0.043 -0.776 0.629 73 83 59
-104.7608 157.6859 -37.4193 0.814 0.117 0.569 61 60 56
-111.7464 166.4919 -39.2260 0.805 0.003 0.594 56 55 49
-126.2579 180.4068 -42.7235 0.487 -0.167 0.858 54 54 47
-107.3964 172.6913 -38.7832 0.209 -0.632 0.746 51 50 45
-101.5291 145.6042 -36.7183 -0.465 -0.756 0.460 66 70 54
-102.7180 155.5575 -37.5402 0.707 0.004 0.707 65 65 55
-125.4906 179.8982 -43.2576 0.487 -0.167 0.858 61 65 53
-119.5418 119.9831 -39.1200 -0.118 -0.365 0.924 55 76 43
-88.0939 122.1362 -33.3333 -0.140 -0.790 -0.597 64 73 52
-104.7530 156.3200 -38.5942 0.829 -0.142 0.541 66 67 51
-104.6312 156.9643 -38.6113 0.829 -0.142 0.541 65 66 50
-124.7276 179.3925 -43.7887 0.487 -0.167 0.858 63 70 53
-80.6455 199.1401 -36.7170 0.558 0.078 0.826 64 57 54
-111.8244 138.8138 -39.4447 0.827 -0.374 0.419 63 73 49
-53.4373 189.7282 -35.2736 0.959 -0.064 -0.275 60 52 63
-34.4980 174.6655 -35.3313 0.987 -0.005 -0.162 40 38 43
-15.4414 145.2894 -29.4685 0.982 -0.123 -0.144 75 78 60
-33.6646 171.3830 -35.9432 0.670 0.092 -0.736 67 68 71
-34.5080 174.0154 -36.3798 0.657 0.155 -0.738 46 47 52
-43.1376 193.0696 -44.9326 0.925 -0.109 -0.364 49 42 45
-62.8039 86.9681 -38.5320 0.745 -0.466 0.478 55 75 47
-25.6378 158.9965 -38.1259 0.602 -0.742 0.294 73 76 51
-26.7764 158.8569 -38.8917 0.750 -0.535 0.389 89 91 71
-61.4399 87.6470 -39.1643 0.797 -0.327 0.508 61 79 53
-23.4804 153.8123 -38.5255 0.947 0.047 0.318 69 69 59
-49.8257 192.3231 -49.4799 0.948 0.002 -0.317 63 59 58
-49.6621 197.7673 -50.0990 0.885 -0.325 -0.335 40 34 34
-60.9990 87.4757 -39.9117 0.791 -0.348 0.503 53 69 43
-58.1429 83.2007 -39.1228 0.932 0.100 0.349 54 72 50
-58.9378 84.4000 -39.4651 0.944 0.107 0.311 56 74 51
-58.9641 84.8301 -39.5251 0.939 0.114 0.325 65 81 56
-29.9474 173.3623 -44.6343 0.787 -0.366 0.496 71 58 68
-38.7853 130.6200 -41.7943 0.924 0.053 -0.378 69 81 56
-40.4478 132.6406 -42.4691 0.923 0.047 -0.383 73 81 57
-31.3431 175.9845 -45.8723 0.813 -0.410 0.413 80 64 75
-38.4053 130.9526 -42.2272 0.595 -0.065 0.801 71 76 57
-37.8637 132.3176 -42.2731 0.598 -0.057 0.799 69 70 55
-32.0917 176.9838 -46.7494 0.956 -0.293 -0.004 89 73 84
-34.0534 119.3205 -40.0578 0.136 -0.746 -0.652 50 64 41
-26.7371 161.7879 -43.9278 0.863 0.331 0.381 96 83 93
-26.2284 161.9728 -43.8251 0.846 0.292 0.446 96 83 93
-35.8699 127.7045 -42.1130 0.604 0.026 0.796 102 95 91
-25.8307 160.0551 -43.9870 0.868 0.331 0.369 98 85 95
-26.4579 161.5438 -44.3481 0.863 0.331 0.381 102 89 99
-34.1081 184.0231 -49.3412 0.988 -0.154 -0.028 117 102 109
-38.4039 120.0585 -42.1743 0.210 -0.677 0.705 55 64 43
-32.2765 117.9917 -40.3324 0.633 0.260 0.729 74 74 54
-25.0306 157.7031 -43.9784 0.468 -0.763 0.445 105 92 102
-40.0775 117.5273 -42.7115 0.617 0.193 0.763 67 80 60
-37.5336 119.4245 -42.3268 0.243 -0.570 0.785 62 72 51
-31.2720 117.7770 -40.4951 0.686 0.224 0.692 110 104 88
-22.4970 130.1905 -39.9905 0.118 -0.991 -0.069 51 42 47
-36.6293 118.7636 -42.4617 0.206 -0.424 0.882 125 131 112
-15.0677 142.4096 -40.2710 0.872 -0.490 -0.018 109 94 102
-40.0451 106.6545 -42.0624 0.482 0.074 0.873 53 64 41
-37.5047 108.4024 -41.6560 0.700 -0.248 0.670 47 56 40
-37.0991 108.6208 -41.5824 0.838 0.139 0.527 46 55 40
-38.2100 115.1322 -42.8073 0.681 -0.238 0.692 110 115 105
-54.2335 75.3081 -41.6302 -0.182 -0.628 0.757 66 80 55
-53.7266 75.8548 -41.5778 -0.204 -0.756 0.622 57 71 46
-52.5385 75.7235 -41.2490 -0.262 -0.827 0.498 55 69 44
-40.9559 102.8913 -42.1925 0.708 0.102 0.699 52 65 43
-40.8538 103.3069 -42.2265 0.698 0.093 0.710 54 65 45
-37.9156 114.9523 -43.1592 0.681 -0.238 0.692 127 120 124
-27.8374 128.0788 -42.4468 0.985 -0.135 -0.109 72 53 64
-28.5751 129.3383 -42.8228 0.876 -0.381 0.296 73 54 65
-28.5456 130.5179 -42.9872 0.945 -0.147 0.291 65 46 57
-21.8920 150.0879 -44.1073 -0.019 -0.813 0.583 120 105 110
-51.6953 72.7508 -40.9915 -0.275 -0.733 0.622 53 67 44
-53.2855 74.9195 -41.7291 -0.314 -0.626 0.714 71 85 60
-52.7489 75.0693 -41.6105 -0.277 -0.590 0.758 73 87 62
-52.9091 75.5182 -41.7189 -0.204 -0.756 0.622 56 70 45
-39.5117 103.9088 -42.4001 0.455 0.096 0.885 57 57 54
-39.2599 105.6955 -42.5981 0.486 0.075 0.871 40 37 39
-37.3078 114.5388 -43.3929 0.671 -0.249 0.698 90 79 88
-37.6967 116.9779 -43.8554 0.622 0.166 0.766 95 77 88
-36.7157 118.4070 -43.8093 -0.022 -0.658 0.753 75 58 69
-18.4563 116.9867 -38.8092 0.981 0.052 -0.187 74 57 67
-27.7820 128.0797 -42.8952 0.986 -0.136 -0.096 80 57 73
-28.5146 129.3352 -43.2729 0.843 -0.412 0.347 81 58 74
-28.5054 129.9287 -43.3582 0.942 -0.131 0.308 81 58 74
-28.4230 130.4585 -43.4149 0.945 -0.147 0.291 86 63 79
-46.7958 157.8798 -52.2874 0.889 -0.122 0.441 101 86 93
-48.4309 160.9869 -53.1756 0.973 -0.044 0.227 100 85 92
-50.4027 163.7042 -54.0945 0.965 0.021 0.261 101 86 93
-51.7676 73.1665 -41.4689 -0.266 -0.653 0.709 58 72 47
-51.6787 74.2497 -41.6076 -0.316 -0.627 0.712 71 85 60
-51.9957 75.1402 -41.8246 -0.203 -0.757 0.621 55 69 44
-51.2299 75.1880 -41.6296 -0.243 -0.810 0.534 54 68 43
-40.2156 95.9576 -41.8314 0.263 -0.078 0.962 65 71 55
-38.3521 96.6296 -41.4400 0.707 -0.122 0.697 56 58 48
-40.3721 98.3381 -42.2291 0.518 -0.160 0.841 59 61 51
-38.1658 98.8043 -41.7165 0.611 -0.418 0.672 59 54 51
-37.8608 99.5387 -41.7459 0.788 0.064 0.613 43 37 36
-33.4361 112.2114 -42.4751 0.958 0.206 0.198 87 75 85
-34.1483 114.3222 -42.9791 0.949 -0.209 0.236 87 70 80
-27.3983 127.7862 -43.2129 0.951 -0.159 -0.264 85 64 79
-51.2252 72.9537 -41.6898 -0.259 -0.649 0.715 59 73 48
-39.3717 94.5786 -41.8201 0.370 -0.929 0.007 57 62 39
-38.9872 94.7938 -41.7505 0.297 -0.951 -0.085 57 62 40
-37.9438 95.0558 -41.5131 0.331 -0.092 0.939 63 64 56
-37.7985 95.4150 -41.5289 0.331 -0.092 0.939 63 64 56
-35.3454 110.5608 -43.1741 0.424 -0.470 0.774 80 68 78
-33.8086 112.5290 -43.0643 0.964 0.186 0.192 75 65 73
-34.9663 114.4520 -43.6635 0.959 0.003 0.283 59 46 55
-35.7459 115.5762 -44.0411 0.937 -0.238 0.257 55 39 49
-33.7517 115.1218 -43.4424 0.924 -0.286 0.252 44 27 37
-33.9651 115.8208 -43.6051 0.975 -0.152 0.161 45 28 38
-33.9919 116.3793 -43.6969 0.977 -0.170 0.128 47 27 38
-29.5892 131.6246 -44.8392 0.959 -0.230 0.164 107 87 99
-37.5690 92.6467 -41.4596 0.481 0.017 0.877 50 58 37
-37.4824 93.0331 -41.4958 0.479 0.014 0.878 49 57 37
-37.2740 95.5698 -41.8296 0.331 -0.086 0.940 73 74 66
-36.8086 100.3229 -42.4352 0.491 -0.093 0.866 132 130 125
-32.4063 107.9577 -42.4309 0.452 -0.377 0.808 62 50 60
-33.6697 109.8869 -43.0649 0.471 -0.454 0.756 60 48 58
-29.9042 115.9006 -42.9818 -0.397 -0.850 -0.346 51 39 49
-27.6792 114.6614 -42.1966 -0.396 -0.844 -0.362 52 39 49
-21.7423 110.4291 -39.9594 -0.369 -0.890 -0.267 54 41 51
-26.4341 115.7879 -42.0368 0.174 -0.681 -0.712 57 44 54
-24.4177 116.8134 -41.6552 -0.038 -0.993 0.116 66 48 60
-54.7391 51.5032 -40.0919 0.110 -0.898 -0.426 40 55 32
-57.3754 53.4684 -41.1067 0.620 -0.364 -0.695 42 56 33
-57.9109 53.9327 -41.3230 0.664 -0.341 -0.665 42 56 33
-46.8521 66.9108 -40.3663 0.940 0.062 0.335 46 60 38
-47.6660 67.5782 -40.6890 0.886 0.061 0.459 47 62 38
-46.9325 67.6363 -40.5007 0.894 0.075 0.442 47 63 37
-46.9348 67.9861 -40.5557 0.894 0.075 0.442 48 64 38
-40.2859 87.8032 -41.8489 0.480 -0.376 0.793 62 72 50
-40.0090 89.7644 -42.0794 -0.031 -0.718 0.696 59 68 48
-39.3490 89.8178 -41.9102 -0.033 -0.713 0.700 60 69 49
-38.8816 89.9789 -41.8095 -0.032 -0.712 0.702 59 68 49
-38.4836 90.1789 -41.7335 -0.023 -0.720 0.693 61 68 51
-38.0742 90.3716 -41.6534 0.031 -0.660 0.751 51 58 40
-38.0545 90.7893 -41.7130 0.112 -0.166 0.980 34 42 24
-37.8100 91.0779 -41.6921 0.112 -0.166 0.980 33 40 23
-37.4796 91.3165 -41.6404 0.120 -0.153 0.981 32 38 22
-37.1345 91.9797 -41.6506 0.203 -0.144 0.968 47 53 38
-36.9761 92.3208 -41.6611 0.480 0.016 0.877 54 60 45
-36.9093 92.7174 -41.7048 0.480 0.016 0.877 59 66 52
-37.4624 93.4872 -41.9733 0.238 -0.069 0.969 64 70 56
-37.9544 96.9227 -42.6399 0.683 0.152 0.714 153 156 145
-36.2627 100.9376 -42.8092 0.487 -0.091 0.869 33 32 28
-35.1642 105.9783 -43.2976 0.820 0.054 0.570 60 48 57
-32.5373 108.0885 -42.9191 0.686 -0.089 0.722 52 40 50
-36.7684 118.6152 -45.6944 0.839 -0.094 -0.536 52 34 46
-26.1960 118.8900 -42.8930 -0.043 -0.903 0.428 74 56 68
-46.8754 67.2788 -40.8082 0.897 0.081 0.434 59 77 49
-46.4160 67.4441 -40.7099 0.936 0.037 0.349 58 77 49
-38.2294 83.4370 -41.0119 0.330 -0.463 0.823 57 64 47
-39.4840 87.3851 -41.9731 0.390 -0.426 0.816 61 68 54
-39.4349 87.7760 -42.0214 0.393 -0.405 0.825 60 69 54
-39.8729 88.8616 -42.3109 0.483 0.027 0.875 62 70 55
-39.9110 89.3072 -42.3914 0.480 0.023 0.877 59 67 52
-39.9535 89.7573 -42.4737 0.459 -0.001 0.888 45 53 39
-39.1267 89.7160 -42.2434 0.411 -0.344 0.844 45 53 40
-37.5967 90.1213 -41.8931 0.031 -0.660 0.751 66 71 61
-37.2780 90.3647 -41.8451 0.122 -0.152 0.981 85 91 81
-37.0457 90.6583 -41.8285 0.122 -0.152 0.981 101 107 96
-36.7562 90.9187 -41.7911 0.120 -0.153 0.981 119 124 115
-36.5198 91.2104 -41.7731 0.112 -0.193 0.975 134 139 131
-36.5031 91.6324 -41.8350 0.203 -0.144 0.968 140 146 138
-36.6555 92.1564 -41.9587 0.483 0.020 0.875 142 148 139
-36.8211 93.1291 -42.1567 0.238 -0.069 0.969 141 147 139
-36.9402 93.6408 -42.2695 0.267 -0.074 0.961 139 144 136
-37.6893 96.7864 -42.9676 0.676 0.147 0.723 36 37 29
-37.7069 97.2530 -43.0458 0.676 0.147 0.723 31 32 24
-32.0830 107.7954 -43.1834 0.675 -0.103 0.730 43 31 41
-31.3828 108.7905 -43.1505 0.648 -0.082 0.758 42 30 40
-37.1863 118.4305 -46.2393 0.828 -0.124 -0.547 58 41 51
-23.2187 114.3039 -41.8086 0.952 0.255 0.171 76 60 71
2.6957 113.8232 -34.7180 0.525 -0.576 -0.626 132 117 122
-54.7565 49.4370 -40.4897 0.941 -0.300 0.158 44 59 36
-55.0335 49.8059 -40.6239 0.990 -0.143 0.007 45 60 37
-45.4351 66.3795 -40.6512 0.938 0.052 0.344 58 77 49
-44.5634 67.0651 -40.5231 0.954 -0.065 0.292 58 77 49
-34.5749 77.6926 -39.4964 0.906 0.203 -0.370 59 70 53
-37.0892 84.4600 -41.2599 0.517 -0.158 0.841 62 68 57
-37.1540 85.3069 -41.4125 0.516 -0.160 0.842 63 68 59
-37.2898 85.7897 -41.5264 0.525 -0.103 0.845 65 70 61
-38.9043 87.5056 -42.2397 0.482 0.015 0.876 67 75 66
-39.2439 88.1128 -42.4290 0.501 0.043 0.864 67 74 65
-39.4137 88.6287 -42.5574 0.483 0.027 0.875 63 73 64
-37.1219 89.8724 -42.1314 0.031 -0.660 0.751 150 156 151
-36.3296 90.2664 -41.9785 0.122 -0.152 0.981 137 144 138
-36.0979 90.5588 -41.9619 0.122 -0.152 0.981 120 127 121
-35.9396 90.8947 -41.9724 0.109 -0.195 0.975 106 113 108
-36.1990 91.9112 -42.2050 0.483 0.020 0.875 75 79 76
-36.1220 92.2998 -42.2460 0.481 0.017 0.877 61 66 63
-37.2783 96.1067 -43.1677 0.681 0.147 0.717 26 27 19
-37.3114 97.4911 -43.3974 0.621 -0.412 0.666 40 41 33
-27.4652 104.9691 -41.9075 -0.152 -0.575 0.804 52 40 50
-60.0126 54.2428 -43.0629 0.881 -0.163 -0.444 56 70 47
-47.1180 72.3941 -42.4575 0.664 -0.105 0.740 54 68 43
-37.6754 80.0384 -41.1030 0.988 0.125 -0.089 66 77 60
-37.5491 82.7213 -41.5012 0.320 -0.323 0.891 42 48 43
-36.9393 83.1960 -41.4106 0.295 -0.441 0.848 59 64 60
-36.8039 83.5238 -41.4264 0.129 -0.944 0.303 69 74 70
-36.8450 83.9472 -41.5060 0.517 -0.158 0.841 91 95 92
-36.7145 84.2797 -41.5239 0.517 -0.158 0.841 94 99 95
-36.7779 85.1242 -41.6775 0.516 -0.160 0.842 101 106 102
-39.0506 88.4494 -42.8368 0.484 0.032 0.875 144 153 149
-36.5838 89.5869 -42.3442 0.029 -0.663 0.748 88 93 93
-35.8507 89.5875 -42.1434 0.122 -0.152 0.981 70 76 76
-35.6199 89.8781 -42.1271 0.122 -0.152 0.981 57 63 63
-35.3889 90.1690 -42.1107 0.122 -0.152 0.981 44 49 50
-35.1248 90.4407 -42.0821 0.111 -0.196 0.974 36 41 42
-36.0560 93.6007 -42.8471 0.390 -0.002 0.921 48 49 42
-36.4682 94.7385 -43.1436 0.907 -0.327 0.266 43 44 36
-35.4245 96.7877 -43.1882 0.930 -0.277 0.242 32 30 26
-9.9060 99.6942 -36.6639 0.968 -0.248 -0.040 79 64 72
-19.7326 111.0041 -41.1814 0.890 0.223 0.397 92 75 83
-22.4471 114.8094 -42.5392 0.936 0.121 0.331 89 69 76
-13.1747 151.4354 -45.9067 0.842 -0.078 0.534 82 70 74
-56.2460 49.8437 -41.6821 0.526 -0.525 -0.669 54 69 46
-56.0410 51.2845 -41.8608 0.631 -0.662 -0.404 56 71 48
-56.0860 51.5990 -41.9245 0.767 -0.634 0.094 57 72 49
-55.8840 51.8456 -41.9091 0.767 -0.634 0.094 57 72 49
-38.6673 75.9838 -41.1030 0.721 -0.129 -0.681 61 65 49
-38.9824 77.6394 -41.4601 0.193 -0.896 -0.400 64 68 53
-38.0754 80.2607 -41.6380 0.991 0.080 -0.107 64 75 56
-38.1592 80.6928 -41.7317 0.571 -0.709 0.414 32 43 26
-37.9241 80.9636 -41.7110 0.098 -0.874 0.476 39 50 33
-37.8463 81.3156 -41.7471 0.492 -0.720 0.489 51 64 45
-37.6262 81.5950 -41.7320 0.902 0.006 0.432 67 80 63
-37.2446 81.7908 -41.6587 0.387 -0.233 0.892 82 92 81
-37.0925 82.1061 -41.6683 0.379 -0.259 0.888 91 98 93
-36.9015 82.4016 -41.6638 0.379 -0.259 0.888 101 106 106
-36.7795 82.7342 -41.6845 0.316 -0.328 0.890 113 117 119
-36.5260 82.9977 -41.6576 0.295 -0.441 0.848 123 127 129
-36.3320 83.2932 -41.6524 0.286 -0.442 0.850 131 134 135
-36.4947 83.7807 -41.7769 0.504 -0.176 0.845 136 139 140
-36.5086 84.1904 -41.8476 0.517 -0.161 0.841 138 140 143
-36.3763 84.5225 -41.8653 0.517 -0.161 0.841 139 140 143
-36.4034 84.9423 -41.9413 0.516 -0.160 0.842 138 139 142
-36.5203 85.4131 -42.0504 0.525 -0.103 0.845 134 137 139
-37.9450 86.6066 -42.6381 0.423 -0.050 0.905 128 131 134
-38.0596 87.0844 -42.7477 0.481 0.022 0.877 109 113 116
-36.2829 89.4380 -42.6421 -0.204 -0.802 0.561 50 52 56
-35.5374 89.4307 -42.4353 -0.142 -0.791 0.595 54 56 60
-34.2481 89.1039 -42.0265 0.122 -0.194 0.973 48 50 54
-35.7690 102.6373 -44.6553 0.822 0.217 0.526 44 33 41
-10.7551 100.4024 -37.3936 0.960 -0.207 -0.191 85 68 74
-22.6382 115.0112 -43.0551 0.973 0.228 0.047 99 80 85
-35.7935 131.3378 -49.3478 0.970 0.241 0.024 118 99 103
-2.7263 113.0263 -37.2409 0.688 -0.580 0.436 122 111 108
-41.7608 77.8553 -42.6527 0.992 0.108 0.072 72 76 59
-38.2254 78.0474 -41.7038 0.388 -0.785 -0.482 75 80 65
-37.6032 78.1212 -41.5433 0.678 -0.494 -0.544 71 78 63
-37.6729 78.5368 -41.6313 0.953 -0.175 -0.249 56 64 49
-37.8162 78.9909 -41.7461 0.985 0.161 -0.060 64 72 56
-37.8145 79.3746 -41.8090 0.969 0.247 0.017 74 83 67
-37.9082 79.8078 -41.9066 0.974 0.225 -0.027 84 94 78
-38.0127 80.2485 -42.0084 0.974 0.225 -0.027 90 99 84
-37.9108 80.5860 -42.0359 0.470 -0.663 0.583 89 98 84
-37.6389 80.8374 -42.0020 0.098 -0.874 0.476 103 112 97
-36.6320 81.8857 -41.8958 0.413 -0.242 0.878 154 157 156
-36.4764 82.1988 -41.9044 0.379 -0.259 0.888 151 152 155
-36.3386 82.5220 -41.9196 0.316 -0.328 0.890 144 144 149
-36.1147 82.8003 -41.9034 0.295 -0.441 0.848 136 136 141
-35.8396 83.0515 -41.8686 0.295 -0.441 0.848 121 120 125
-36.1375 84.0119 -42.1099 0.517 -0.161 0.841 79 78 83
-36.0051 84.3431 -42.1279 0.517 -0.161 0.841 75 74 79
-36.0305 84.7611 -42.2040 0.516 -0.160 0.842 70 69 74
-36.1408 85.2275 -42.3117 0.514 -0.147 0.845 64 63 69
-38.1272 86.7298 -43.1108 0.923 -0.378 -0.071 54 53 59
-36.2924 89.0447 -42.9843 -0.196 -0.786 0.586 60 58 65
-35.1803 89.2483 -42.7094 -0.141 -0.792 0.594 46 44 50
-36.5115 94.3746 -43.9256 0.813 -0.156 -0.561 47 40 42
-36.4874 94.8052 -43.9900 0.879 -0.069 -0.471 49 41 43
-37.6053 96.8480 -44.6376 0.980 0.064 -0.190 50 42 44
-10.7795 100.4575 -37.7925 0.962 -0.198 -0.185 91 74 80
-11.0465 101.1329 -37.9781 0.956 -0.220 -0.194 97 80 86
-22.5773 113.9444 -43.2932 0.955 0.248 0.162 111 90 97
-22.4795 114.3916 -43.3400 0.973 0.228 0.047 112 91 98
-23.5142 116.8598 -44.0347 0.974 0.220 0.054 111 92 98
-16.6197 147.7175 -47.2199 0.269 -0.906 -0.327 71 71 60
-15.0388 150.1687 -47.1863 0.950 0.268 0.157 68 71 54
-37.4478 81.1505 -42.3914 0.492 -0.720 0.489 145 148 141
-37.3031 81.4683 -42.4041 0.902 0.006 0.432 135 136 132
-36.4013 81.3927 -42.1398 0.413 -0.242 0.878 125 124 123
-36.2241 81.6928 -42.1405 0.413 -0.242 0.878 115 112 115
-35.8649 82.2925 -42.1405 0.348 -0.299 0.889 88 84 91
-35.7055 82.6039 -42.1480 0.295 -0.441 0.848 79 74 81
-35.4310 82.8545 -42.1133 0.295 -0.441 0.848 72 67 73
-35.6935 83.3935 -42.2767 0.322 -0.381 0.867 65 60 66
-37.8621 86.6066 -43.4189 0.837 -0.535 -0.114 40 35 42
-35.2968 89.3405 -43.1600 0.141 -0.981 -0.131 54 47 55
-35.4519 89.8551 -43.2893 0.069 -0.984 -0.162 50 43 51
-34.0341 101.0652 -44.7673 0.780 0.236 0.580 58 41 51
-12.4215 98.1165 -38.2428 0.928 0.344 0.142 99 80 84
-10.8259 100.5300 -38.2009 0.992 0.071 0.103 98 79 85
-9.0513 100.0382 -37.6235 0.995 0.076 0.071 108 91 97
-11.2444 102.2633 -38.6074 0.991 0.069 0.119 109 92 98
-21.8162 113.3590 -43.4123 0.957 0.153 0.247 119 100 106
-22.2634 115.3173 -43.8644 0.944 0.102 0.315 120 100 109
-38.0122 72.4354 -41.4672 0.509 -0.081 0.857 54 63 43
-38.4485 72.9944 -41.6842 0.331 -0.040 0.943 54 62 44
-38.3763 73.6873 -41.7811 0.801 0.071 -0.594 61 67 51
-38.7824 74.6078 -42.0507 0.784 0.021 -0.620 50 55 40
-37.9749 79.8803 -42.7155 0.975 0.217 -0.040 161 154 158
-38.0771 80.3204 -42.8186 0.975 0.217 -0.040 150 143 148
-37.6361 80.4855 -42.7227 0.636 -0.635 0.439 113 108 114
-37.0712 80.5862 -42.5811 0.098 -0.874 0.476 101 96 102
-37.2491 81.0683 -42.7126 0.492 -0.720 0.489 86 80 86
-35.5841 86.6036 -43.1811 0.893 -0.377 -0.244 47 37 46
-40.8496 68.7393 -42.0116 -0.187 -0.804 0.565 53 66 43
-39.9596 68.7118 -41.7555 -0.187 -0.804 0.565 53 65 45
-39.5779 68.8974 -41.6795 -0.160 -0.789 0.594 53 65 45
-38.9244 68.9663 -41.5067 -0.072 -0.657 0.750 54 66 46
-37.1167 71.3328 -41.4009 0.539 0.022 0.842 54 57 46
-37.8853 72.0351 -41.7381 0.566 0.069 0.821 53 56 47
-37.6174 72.2720 -41.7029 0.505 -0.082 0.859 54 58 49
-37.9278 72.7728 -41.8762 0.331 -0.040 0.943 65 67 60
-37.9349 73.1374 -41.9406 0.334 -0.038 0.942 69 70 66
-37.6101 73.7134 -41.9474 0.420 -0.042 0.907 86 88 83
-37.5164 74.0343 -41.9758 0.420 -0.042 0.907 101 102 99
-39.2056 75.5631 -42.7143 0.465 0.138 0.875 127 122 127
-39.3441 76.0015 -42.8284 0.470 0.136 0.872 135 128 134
-39.3374 76.3728 -42.8900 0.470 0.136 0.872 144 138 143
-39.5062 76.8295 -43.0158 0.475 0.139 0.869 147 141 146
-39.2868 77.1017 -43.0004 0.476 0.140 0.868 162 156 161
-38.7309 77.2112 -42.8621 0.451 0.123 0.884 170 164 171
-38.8964 77.6704 -42.9874 0.667 0.151 0.730 162 156 163
-37.6973 78.9886 -42.8742 0.969 0.247 0.017 98 86 97
-37.8078 79.4288 -42.9807 0.969 0.247 0.017 92 80 91
-37.4710 80.4210 -43.0552 0.636 -0.635 0.439 68 56 69
-34.8391 81.7915 -42.5463 0.822 -0.345 0.453 62 50 60
-34.5159 82.4077 -42.5604 0.324 -0.616 0.718 62 50 60
-36.1318 84.4778 -43.3708 0.971 -0.122 -0.205 50 37 47
-37.3869 91.4661 -44.9205 0.482 -0.114 0.869 49 39 48
-33.4911 94.3713 -44.3170 0.748 0.201 0.632 52 41 47
-33.5384 94.8451 -44.4114 0.748 0.201 0.632 52 41 47
-29.1481 95.6087 -43.3020 0.906 0.228 0.356 87 71 84
-34.6419 102.4872 -46.0301 0.898 0.235 0.373 94 81 88
-35.5932 103.6116 -46.4911 0.918 0.218 0.332 88 75 82
2.9131 110.2992 -36.7592 0.988 -0.141 -0.067 97 91 79
3.1474 110.5794 -36.7410 0.984 -0.004 -0.179 95 88 78
2.9175 111.3235 -36.9332 0.987 0.010 -0.157 88 81 71
1.2430 115.1184 -38.0551 0.979 0.037 -0.198 95 90 86
1.0137 116.4327 -38.3447 0.782 -0.342 0.521 99 94 89
-10.2714 136.1227 -44.8995 -0.508 -0.808 0.298 75 77 50
-10.7594 137.3066 -45.2398 -0.501 -0.804 0.320 75 78 49
-38.8088 69.9784 -42.0191 0.814 0.057 -0.578 71 74 69
-37.8181 72.0204 -42.0909 0.573 0.072 0.816 95 93 95
-38.5471 72.7099 -42.4172 0.462 -0.074 0.884 103 102 104
-39.0578 75.1395 -42.9826 0.473 0.147 0.869 160 155 162
-38.4969 77.8739 -43.2962 0.550 -0.803 0.228 87 80 88
-37.8967 77.9598 -43.1405 0.497 -0.832 0.247 80 73 81
-36.3266 79.8567 -43.0225 0.071 -0.954 0.290 67 56 70
-36.8638 89.4708 -44.8381 0.318 -0.944 -0.093 53 43 52
-34.3845 88.8851 -44.0324 0.497 -0.437 0.750 46 36 44
-36.7553 91.5539 -45.1676 0.278 -0.218 0.936 36 26 35
-29.5157 95.4305 -43.7812 0.860 0.308 0.407 93 76 92
-1.6917 105.2285 -37.5707 0.832 -0.495 0.251 109 93 96
-8.0422 111.4660 -40.4538 0.703 -0.068 0.708 114 99 100
-7.9938 111.9387 -40.5218 0.698 -0.068 0.712 120 104 106
-8.7677 113.1657 -40.9540 0.681 -0.031 0.731 123 108 110
2.4663 112.3426 -37.6198 0.960 -0.201 0.194 77 70 62
-15.3020 144.4229 -48.2170 0.708 -0.630 0.320 74 80 48
-39.6579 63.5474 -41.5091 0.432 -0.614 -0.660 45 53 44
-42.0567 67.8801 -42.9525 0.331 -0.462 0.823 58 64 55
-39.0119 70.0813 -42.4674 0.425 -0.395 0.814 97 99 96
-38.1872 70.0732 -42.2302 0.456 -0.744 0.488 97 97 95
-38.2164 70.4377 -42.3023 0.339 -0.833 0.436 95 95 95
-38.1068 70.7423 -42.3243 0.302 -0.861 0.409 79 77 78
-38.1352 72.5387 -42.6466 0.462 -0.074 0.884 121 119 122
-36.8963 72.3339 -42.2567 0.331 -0.040 0.943 148 146 149
-36.9652 72.7246 -42.3447 0.333 -0.039 0.942 148 146 149
-36.9692 73.0870 -42.4093 0.333 -0.037 0.942 143 143 145
-36.5292 79.9798 -43.4892 0.090 -0.874 0.477 62 50 62
-36.2435 91.2779 -45.3837 0.278 -0.218 0.936 41 31 40
-33.1384 92.8872 -44.7778 0.872 -0.111 0.476 68 57 63
-32.9126 94.5093 -44.9970 0.741 0.197 0.643 80 69 75
-27.1768 93.0688 -43.1057 0.703 -0.265 0.660 93 77 90
-44.5011 115.5165 -51.9834 0.421 -0.843 0.334 101 86 93
1.0484 115.9564 -39.0423 0.979 0.039 -0.202 76 74 66
-46.9148 56.5549 -42.7200 0.003 -0.755 0.656 52 61 42
-41.2368 62.5260 -42.1437 0.976 -0.209 -0.062 57 62 55
-41.1743 62.8293 -42.1794 0.976 -0.209 -0.062 55 60 56
-41.4858 65.2738 -42.7013 0.929 0.109 0.355 57 60 55
-41.5011 65.6169 -42.7664 0.929 0.109 0.355 57 60 55
-41.7142 66.0404 -42.9025 0.938 0.090 0.336 59 62 56
-42.0833 66.5289 -43.0950 0.213 -0.326 0.921 59 62 56
-42.3309 66.9711 -43.2444 0.028 -0.610 0.792 61 64 58
-42.2192 67.2694 -43.2651 0.016 -0.611 0.791 58 61 55
-41.9738 67.5139 -43.2377 0.036 -0.606 0.795 57 59 54
-40.0164 69.1261 -42.9602 0.005 -0.586 0.810 101 101 99
-39.5433 69.2734 -42.8502 0.420 -0.201 0.885 110 110 108
-39.3922 69.5584 -42.8572 0.420 -0.201 0.885 127 127 125
-39.2410 69.8438 -42.8642 0.420 -0.201 0.885 125 125 123
-38.6631 69.9443 -42.7158 0.425 -0.395 0.814 122 124 121
-37.9857 69.9998 -42.5309 0.456 -0.744 0.488 119 119 117
-38.1562 70.4261 -42.6553 0.309 -0.846 0.435 117 117 117
-37.8941 70.6633 -42.6219 0.301 -0.859 0.415 87 85 86
-36.3792 70.3437 -42.1299 0.803 -0.297 -0.517 78 76 79
-37.7053 72.3594 -42.8676 0.457 -0.083 0.886 101 99 102
-36.0863 73.7795 -42.6533 0.339 -0.033 0.940 56 51 58
-35.8199 74.0179 -42.6189 0.337 -0.036 0.941 59 52 60
-35.3726 75.6386 -42.7769 0.744 -0.241 0.623 75 68 76
-34.9248 76.1619 -42.7408 0.710 -0.333 0.620 58 51 59
-34.7760 76.4609 -42.7509 0.710 -0.333 0.620 51 44 52
-40.8966 80.6454 -45.2505 0.976 -0.000 0.220 59 47 57
-41.3590 81.2716 -45.4942 0.972 -0.000 0.237 62 50 60
-33.5552 88.8727 -44.5951 0.601 -0.083 0.795 56 46 55
-34.7839 92.1693 -45.5314 -0.137 -0.878 -0.459 63 52 60
-31.3918 92.2747 -44.5748 0.672 0.169 0.721 81 72 77
-32.6572 93.9349 -45.2322 0.746 0.207 0.633 85 76 81
-5.0942 111.4302 -40.4025 0.863 0.246 0.441 91 88 75
-5.1982 112.0445 -40.5411 0.863 0.246 0.441 73 71 57
-5.5073 112.8548 -40.7732 0.873 0.247 0.420 72 72 55
-46.4039 56.3967 -42.9041 0.003 -0.755 0.656 52 58 45
-40.2625 59.9249 -41.7591 0.535 -0.791 0.297 48 55 40
-41.3053 60.6226 -42.1854 0.432 -0.776 0.460 43 49 39
-42.5358 63.0280 -42.9713 0.592 -0.438 -0.677 52 57 52
-41.2177 63.8456 -42.7364 0.430 -0.599 -0.676 51 53 50
-39.4627 64.1543 -42.2841 0.305 -0.408 0.861 48 48 44
-41.6607 66.0316 -43.2554 0.231 -0.315 0.920 47 49 46
-41.5606 66.3313 -43.2800 0.219 -0.322 0.921 53 55 52
-41.3176 66.5740 -43.2531 0.219 -0.322 0.921 63 65 62
-41.1868 66.8624 -43.2669 0.158 -0.435 0.886 76 78 75
-41.0904 67.1656 -43.2932 0.152 -0.459 0.875 95 97 94
-40.8760 67.4210 -43.2769 0.348 -0.244 0.905 115 115 113
-40.7292 67.7046 -43.2851 0.330 -0.277 0.902 130 130 128
-40.4867 67.9489 -43.2587 0.336 -0.277 0.900 135 135 133
-40.1702 68.1624 -43.2053 0.299 -0.329 0.896 139 139 137
-40.1431 68.4975 -43.2574 0.001 -0.581 0.814 141 141 139
-39.7158 68.6644 -43.1637 -0.009 -0.588 0.809 142 142 140
-39.4480 68.8984 -43.1281 0.005 -0.586 0.810 139 139 137
-39.0996 69.0979 -43.0630 0.414 -0.206 0.887 137 137 135
-38.9458 69.3808 -43.0692 0.414 -0.206 0.887 136 136 134
-38.7919 69.6641 -43.0753 0.414 -0.206 0.887 124 124 122
-38.3628 69.8283 -42.9806 0.420 -0.400 0.815 105 107 104
-37.8566 69.9580 -42.8574 0.446 -0.750 0.489 88 88 86
-37.9471 70.3491 -42.9535 0.309 -0.846 0.435 73 73 73
-36.7279 70.1627 -42.5676 0.803 -0.297 -0.517 68 66 67
-36.4319 70.7338 -42.5842 0.845 -0.171 -0.507 62 60 63
-35.2437 75.9642 -43.1758 0.795 -0.255 0.550 53 46 54
-41.4421 79.3713 -45.5774 0.983 0.039 0.179 53 46 54
-33.3474 80.6957 -43.4735 0.989 -0.149 -0.016 54 42 52
-34.9897 81.9546 -44.1735 0.998 -0.047 -0.046 53 41 51
-36.0203 84.1011 -44.8553 0.821 -0.412 0.396 51 39 49
-32.4388 88.6643 -44.6356 0.639 -0.157 0.753 82 72 81
-34.7065 92.5852 -45.9924 -0.138 -0.885 -0.445 95 84 92
-1.6706 101.9911 -38.1213 0.866 -0.236 0.441 89 80 87
-2.1151 102.8512 -38.4036 0.979 0.173 -0.104 80 71 72
-3.2369 107.2415 -39.5131 0.337 -0.623 0.706 70 68 54
-3.9803 109.4227 -40.1180 0.887 0.263 0.379 84 82 69
-4.7647 111.6853 -40.7495 0.883 0.254 0.394 65 68 49
-46.4373 56.1060 -43.2205 0.054 -0.781 0.622 61 67 56
-44.7883 56.4948 -42.8112 0.005 -0.776 0.630 48 51 44
-47.9010 58.1539 -44.0164 0.593 -0.792 0.143 48 51 41
-40.7161 58.5243 -41.9936 0.324 -0.245 0.914 52 59 40
-42.5172 62.0486 -43.1545 0.152 -0.592 0.791 58 62 61
-42.5837 62.4001 -43.2374 0.155 -0.605 0.781 58 63 59
-42.5577 62.7184 -43.2873 0.451 -0.431 0.781 55 60 56
-42.2836 62.9439 -43.2484 0.545 -0.235 0.805 40 45 41
-42.0794 63.1959 -43.2346 0.568 -0.210 0.796 42 47 41
-41.7871 63.4145 -43.1890 0.555 -0.216 0.803 45 50 44
-41.2547 63.5407 -43.0570 0.552 -0.232 0.801 50 55 49
-41.6815 64.0366 -43.2708 0.269 -0.550 0.791 55 60 54
-40.0501 67.7808 -43.4731 0.336 -0.277 0.900 149 149 147
-39.7948 68.0190 -43.4419 0.295 -0.335 0.895 136 136 134
-39.5676 68.2691 -43.4210 0.001 -0.581 0.814 118 118 116
-39.2164 68.4669 -43.3546 0.002 -0.588 0.809 98 98 96
-38.8835 68.6722 -43.2949 0.005 -0.586 0.810 83 83 81
-38.5613 69.2297 -43.3020 0.419 -0.203 0.885 34 34 32
-38.1134 69.7344 -43.2629 0.447 -0.381 0.810 24 26 23
-37.7198 69.9129 -43.1807 0.434 -0.757 0.488 22 22 20
-37.7452 70.2751 -43.2536 0.795 -0.231 -0.561 20 20 20
-36.8830 70.9507 -43.1249 0.843 -0.166 -0.511 31 29 32
-37.0831 79.1607 -44.6671 0.803 0.253 0.540 60 49 63
-33.5029 80.7981 -43.9218 0.988 -0.151 -0.026 57 45 55
-36.3849 84.3203 -45.3967 0.426 -0.892 0.151 62 50 60
-36.2910 84.6746 -45.4334 0.404 -0.769 0.496 67 55 65
-33.4579 84.7387 -44.6210 0.706 -0.072 0.705 74 62 72
-30.7548 92.3685 -45.2139 0.773 0.189 0.606 99 84 91
-10.8597 103.6357 -41.4640 -0.138 -0.443 0.886 118 107 111
-3.6710 107.1816 -40.0140 0.825 -0.285 -0.489 76 74 59
-2.9565 107.5254 -39.8684 0.433 -0.626 0.649 64 62 49
-45.6184 56.1573 -43.3493 0.071 -0.934 0.351 53 56 49
-40.4457 55.3722 -41.6926 0.554 -0.250 0.794 53 56 49
-40.3659 55.6475 -41.7196 0.539 -0.276 0.796 53 56 48
-39.8987 58.8694 -42.1716 0.298 -0.291 0.909 58 64 51
-39.4423 60.2800 -42.2958 0.571 -0.293 0.767 34 39 35
-42.7467 61.8185 -43.5435 0.438 -0.468 0.767 33 37 36
-42.3069 61.9813 -43.4446 0.151 -0.592 0.791 35 40 37
-42.0694 62.2189 -43.4185 0.157 -0.597 0.787 36 41 37
-40.9545 63.1076 -43.2548 0.912 0.071 0.403 90 96 92
-40.9365 63.4299 -43.3084 0.552 -0.232 0.801 102 107 103
-41.3086 63.9041 -43.5039 0.287 -0.546 0.787 112 117 113
-37.6495 64.7825 -42.5939 0.320 -0.293 0.901 113 115 110
-37.3424 70.8173 -43.6067 0.851 -0.183 -0.493 26 24 27
-37.0091 71.0224 -43.5466 0.910 -0.115 -0.399 31 29 32
-35.4446 74.6212 -43.7465 0.962 0.054 0.268 50 43 51
-36.2532 75.7466 -44.1887 -0.250 -0.864 0.437 54 47 55
-36.5149 78.1301 -44.7007 0.873 0.215 0.438 55 44 56
-32.4514 79.8789 -43.8315 0.837 -0.180 0.516 73 60 69
-33.2740 80.6979 -44.2218 0.985 -0.170 -0.008 74 61 70
-35.5739 83.1015 -45.3337 0.721 -0.693 0.026 74 61 71
-37.5481 86.6168 -46.5535 0.998 -0.043 0.042 112 99 109
-30.3045 83.0104 -43.7756 0.640 -0.135 0.756 105 93 103
-30.2088 83.3534 -43.8102 0.666 -0.125 0.735 100 88 98
-3.8509 107.3865 -40.4905 0.801 -0.343 -0.491 79 77 63
-47.9565 41.1420 -41.6224 0.719 -0.133 0.682 43 58 37
-48.0800 41.4331 -41.7125 0.732 -0.121 0.671 43 58 37
-52.2687 53.9246 -45.2516 -0.192 -0.561 0.805 76 86 61
-46.9972 53.2487 -43.5757 0.946 -0.092 0.309 58 68 43
-45.0102 56.2755 -43.5500 0.158 -0.706 0.691 58 61 54
-40.1421 55.2797 -41.9338 0.554 -0.250 0.794 58 61 54
-39.9697 56.4331 -42.0960 0.734 -0.095 0.672 49 55 45
-41.4732 57.8724 -42.8042 0.932 0.163 0.324 50 56 45
-42.4567 58.5264 -43.2143 0.280 -0.293 0.914 51 57 46
-42.2731 58.7767 -43.2065 0.289 -0.301 0.909 53 59 48
-39.7431 58.2004 -42.3557 0.314 -0.280 0.907 61 66 58
-39.5549 58.4447 -42.3455 0.314 -0.280 0.907 62 67 59
-39.2261 58.9514 -42.3423 0.439 -0.297 0.848 65 70 62
-39.2034 59.5707 -42.4500 0.583 -0.164 0.796 80 85 79
-39.0690 60.1532 -42.5180 0.572 -0.295 0.765 97 101 99
-41.8577 61.8252 -43.6473 0.151 -0.592 0.791 117 122 118
-38.3404 63.0933 -42.8465 0.291 -0.256 0.922 141 146 142
-38.2707 63.3930 -42.8814 0.295 -0.251 0.922 129 131 128
-38.1254 63.6639 -42.8886 0.304 -0.381 0.873 112 114 109
-37.8594 63.8875 -42.8516 0.303 -0.400 0.865 93 95 90
-37.6144 64.1194 -42.8224 0.320 -0.293 0.901 71 73 68
-37.7032 68.1978 -43.6016 0.007 -0.582 0.813 25 25 23
-37.7369 72.0779 -44.3280 0.706 -0.269 -0.655 39 37 40
-37.4826 72.3216 -44.2982 0.682 -0.277 -0.677 41 39 42
-34.0398 73.2448 -43.4557 0.664 -0.196 0.722 47 37 46
-33.8575 73.5192 -43.4528 0.687 -0.201 0.698 46 36 45
-34.8645 76.5772 -44.3137 0.615 -0.346 0.708 56 45 55
-33.2009 80.6798 -44.5818 0.972 -0.218 -0.083 83 70 79
-33.8421 81.4089 -44.9051 0.938 -0.246 -0.244 85 72 81
-37.6809 86.7132 -47.0141 0.995 -0.068 0.068 117 104 113
-29.1277 82.3789 -43.6971 0.621 -0.139 0.772 112 99 108
-29.9280 83.2189 -44.0877 0.666 -0.125 0.735 107 94 103
-30.9153 84.1700 -44.5538 0.662 -0.205 0.721 103 90 99
-10.2298 102.2482 -41.8058 -0.088 -0.496 0.864 128 119 122
-9.8890 102.4430 -41.7416 -0.088 -0.496 0.864 122 113 116
-9.1548 102.7879 -41.5892 0.731 0.211 0.648 111 102 107
-9.0886 103.2082 -41.6473 0.732 0.210 0.648 106 99 103
-47.9172 43.5332 -42.3897 0.623 0.012 0.782 51 67 40
-45.5428 55.5333 -43.9264 0.138 -0.298 0.945 62 65 56
-45.0030 56.2814 -43.9063 0.142 -0.292 0.946 62 65 56
-44.5363 56.4368 -43.7971 0.916 -0.052 0.399 62 65 57
-42.0928 58.0961 -43.3837 0.306 -0.271 0.913 67 72 65
-41.9917 58.3738 -43.4056 0.280 -0.293 0.914 69 74 67
-41.8174 58.6265 -43.4012 0.289 -0.301 0.909 78 83 77
-39.2557 58.0380 -42.5333 0.304 -0.292 0.907 91 96 91
-39.1180 58.2994 -42.5414 0.314 -0.280 0.907 106 111 106
-39.0075 58.5710 -42.5594 0.298 -0.291 0.909 126 131 127
-38.7654 59.1083 -42.5880 0.439 -0.292 0.849 160 165 162
-37.7013 63.1819 -43.0333 0.292 -0.257 0.921 35 38 31
-37.6119 63.4736 -43.0613 0.308 -0.383 0.871 26 29 22
-37.3057 63.6803 -43.0092 0.302 -0.390 0.870 21 22 16
-26.0835 75.8449 -41.9584 0.986 0.000 0.164 90 74 84
-28.7121 80.2319 -43.5549 0.842 -0.254 0.476 111 95 105
-11.8333 98.4602 -41.9618 0.837 -0.213 -0.503 118 106 111
-9.3775 102.0633 -41.9074 -0.088 -0.496 0.864 114 104 107
-9.1134 102.3187 -41.8769 0.737 0.209 0.643 101 93 95
-9.1624 102.8320 -41.9872 0.737 0.209 0.643 89 83 87
-47.0306 41.9905 -42.1725 0.579 -0.663 0.474 101 113 93
-47.4671 43.4285 -42.5735 0.637 -0.048 0.769 41 56 27
-50.6938 51.6575 -45.0855 0.757 0.209 0.619 46 55 35
-51.2472 52.7204 -45.4506 0.080 -0.430 0.899 42 51 33
-49.3008 53.3551 -44.9910 -0.224 -0.558 0.799 48 56 39
-48.2153 53.3306 -44.6634 -0.201 -0.558 0.805 48 56 39
-45.0264 52.9604 -43.6445 0.172 -0.847 0.502 48 56 41
-39.3304 55.3268 -42.3956 0.565 -0.244 0.788 78 81 74
-38.8174 57.8929 -42.7268 0.304 -0.292 0.907 161 165 167
-38.6925 58.1580 -42.7396 0.312 -0.285 0.907 161 165 167
-37.4775 62.7806 -43.2496 0.403 -0.215 0.890 19 24 18
-37.3863 63.0703 -43.2771 0.291 -0.260 0.921 26 28 23
-37.1294 63.2955 -43.2431 0.302 -0.390 0.870 26 28 23
-34.4721 66.5130 -43.0590 0.840 -0.411 0.353 26 25 23
-34.2883 66.7711 -43.0530 0.969 -0.150 0.198 25 25 23
-13.8466 97.3086 -42.7277 0.984 0.159 -0.083 119 103 114
-14.5292 99.1839 -43.2844 0.971 0.177 -0.159 134 119 127
-3.9735 99.9656 -40.2904 0.986 0.017 0.167 86 89 92
-4.0897 100.5246 -40.4303 0.997 0.039 0.070 85 90 92
-46.9585 43.3096 -42.7354 0.660 -0.020 0.751 46 60 34
-45.0990 45.8340 -42.6598 0.342 -0.026 0.939 51 63 40
-49.9483 51.7476 -45.2378 0.027 -0.374 0.927 48 56 41
-49.1610 52.4156 -45.1295 0.026 -0.379 0.925 54 62 50
-48.9808 52.6626 -45.1226 -0.150 -0.512 0.846 57 65 52
-45.0428 53.2708 -44.0598 -0.008 -0.927 0.374 61 67 58
-44.5294 54.0110 -44.0472 0.121 -0.433 0.893 70 73 66
-43.2883 55.4305 -43.9462 0.091 -0.740 0.666 94 97 90
-43.0423 55.6549 -43.9153 0.026 -0.755 0.655 93 96 89
-38.5509 56.2793 -42.6900 0.618 -0.149 0.772 144 148 153
-38.2883 57.7157 -42.8851 0.310 -0.290 0.905 111 114 121
-38.2602 58.0142 -42.9335 0.312 -0.285 0.907 94 97 104
-38.1257 58.2756 -42.9431 0.298 -0.291 0.909 71 74 81
-37.9693 58.5297 -42.9447 0.277 -0.290 0.916 55 58 65
-38.0564 58.8721 -43.0360 0.439 -0.292 0.849 47 50 56
-38.2892 59.2689 -43.1812 0.583 -0.164 0.796 25 29 29
-40.2864 61.5959 -44.2223 0.170 -0.598 0.783 25 29 26
-40.4925 62.3224 -44.4224 0.543 -0.255 0.800 24 29 25
-37.7636 63.2298 -43.7786 0.954 -0.123 0.273 40 40 38
-35.0059 65.4138 -43.3693 0.770 -0.631 0.091 28 25 24
-33.5450 66.1337 -43.0692 0.953 -0.091 0.288 23 20 18
-32.6694 71.9356 -43.9125 0.866 0.051 0.498 66 57 62
-32.7280 72.3184 -44.0030 0.866 0.047 0.497 76 65 73
-33.0358 73.5397 -44.3278 0.075 -0.551 0.831 81 68 77
-14.1210 96.6492 -43.0694 0.909 -0.067 0.410 132 116 126
-3.6716 99.7503 -40.5327 0.973 -0.011 0.232 78 84 85
-4.1172 100.5853 -40.8252 0.995 0.047 0.084 78 84 84
-45.4831 43.4926 -42.6624 0.755 -0.068 0.652 49 63 40
-52.4106 46.5917 -45.3440 0.563 -0.054 0.825 52 66 44
-55.0628 48.1328 -46.4389 -0.076 -0.768 0.636 54 66 47
-47.0986 48.3290 -44.0796 0.371 -0.038 0.928 57 66 51
-42.0846 47.2399 -42.3608 0.264 -0.115 0.958 61 69 56
-42.0203 47.4991 -42.3913 0.265 -0.112 0.958 62 70 57
-48.5840 50.1829 -44.8835 -0.199 -0.647 0.736 63 74 62
-49.1520 50.6365 -45.1417 -0.118 -0.480 0.870 68 76 65
-48.5936 51.0666 -45.0565 -0.121 -0.434 0.893 56 63 54
-48.0397 51.2021 -44.9158 -0.121 -0.434 0.893 58 65 56
-44.4141 52.4904 -44.0725 0.321 -0.133 0.938 83 89 85
-42.9906 53.5352 -43.8452 0.972 0.170 0.165 66 69 61
-38.1790 56.1607 -42.9023 0.542 -0.256 0.801 60 62 75
-38.2904 56.5022 -43.0015 0.628 -0.162 0.761 43 45 58
-37.6408 58.1122 -43.1159 0.312 -0.285 0.907 17 19 30
-39.8148 61.1086 -44.3470 0.475 -0.783 0.401 24 25 23
-39.4309 61.2867 -44.2657 0.420 -0.317 0.850 23 24 22
-39.6426 61.6883 -44.4067 0.619 -0.193 0.762 23 23 21
-36.5705 65.0724 -44.1334 0.984 -0.164 -0.073 26 21 22
-36.1192 65.2205 -44.0261 0.711 -0.703 -0.034 26 21 23
-35.8843 65.4569 -44.0009 0.711 -0.703 -0.034 27 21 23
-37.5266 66.4714 -44.6904 0.093 -0.787 0.610 33 27 29
-36.9980 66.5900 -44.5542 0.987 -0.079 0.143 40 34 36
-32.4959 73.2987 -44.4903 0.096 -0.547 0.832 92 79 88
-28.3027 72.3488 -43.0454 -0.397 -0.702 0.591 82 69 78
-6.9987 100.2331 -42.0001 0.615 -0.249 0.748 57 56 50
-7.5394 101.1400 -42.3374 0.775 0.212 0.596 57 57 51
-47.5091 41.3168 -43.1866 0.910 -0.027 0.414 44 56 36
-45.6558 42.4717 -42.8502 0.584 -0.644 0.494 56 70 48
-44.0351 42.8781 -42.4386 0.566 -0.054 0.823 59 72 54
-49.6585 46.1810 -44.7829 0.606 0.070 0.792 56 69 53
-53.8010 47.8119 -46.3539 -0.112 -0.287 0.951 58 69 54
-47.0901 49.1907 -44.5907 0.187 -0.262 0.947 70 76 70
-47.3800 50.1401 -44.8630 -0.104 -0.480 0.871 55 61 58
-44.0326 53.2714 -44.4586 0.270 -0.181 0.946 98 102 101
-39.6740 59.1613 -44.2845 0.873 0.009 0.488 21 21 29
-37.3615 64.4096 -44.6050 0.625 -0.098 0.775 33 24 29
-37.2622 64.7010 -44.6316 0.623 -0.100 0.776 35 26 31
-37.2611 65.0330 -44.6958 0.585 -0.122 0.802 35 26 31
-36.9650 65.9153 -44.7778 0.429 -0.570 0.701 38 29 34
-41.8441 74.7581 -47.9739 0.740 -0.275 -0.614 59 53 55
-25.6628 71.7794 -42.4970 -0.355 -0.793 0.494 109 96 105
-151.3641 342.5333 -133.1871 0.763 0.009 -0.646 69 79 53
-158.6173 353.7002 -137.5537 0.859 -0.265 -0.439 69 79 52
-48.4679 41.5367 -43.8549 0.972 -0.046 0.232 55 67 47
-42.2249 43.7615 -42.3916 0.545 0.049 0.837 63 74 64
-46.4498 48.7321 -44.6538 0.168 -0.266 0.949 77 83 82
-43.8178 51.7347 -44.4423 0.062 -0.335 0.940 127 135 138
-38.2019 54.9830 -43.3709 0.898 0.045 0.438 33 34 30
-38.8022 56.6963 -43.8901 0.885 -0.038 0.465 27 27 34
-36.8200 60.0159 -43.9387 0.902 -0.209 0.379 27 23 24
-36.9184 60.6849 -44.1000 0.888 -0.342 0.308 29 24 28
-37.5370 61.2370 -44.3967 0.835 -0.521 0.179 31 26 30
-38.7301 62.0116 -44.9120 0.939 -0.160 0.305 31 26 30
-38.0772 62.4095 -44.7914 0.310 -0.710 0.632 32 27 31
-38.1577 62.7656 -44.8859 0.222 -0.720 0.658 33 27 31
-37.6435 62.8916 -44.7541 0.665 -0.221 0.713 36 30 34
-37.4873 63.1567 -44.7586 0.780 0.191 0.596 39 30 35
-33.7275 66.5867 -44.2878 0.518 -0.725 0.455 61 55 57
-33.0883 66.9852 -44.1715 -0.148 -0.987 -0.059 49 43 45
-14.2640 84.6615 -41.9133 0.302 -0.817 0.492 97 84 91
-14.8747 85.8492 -42.3325 0.515 -0.732 0.446 97 84 91
-10.9026 99.2814 -43.7614 -0.170 -0.775 0.608 70 75 61
-8.0182 98.8329 -42.7954 -0.385 -0.821 0.422 54 61 40
-50.0914 47.1479 -45.8004 -0.152 -0.325 0.933 83 92 90
-40.8914 57.4250 -45.0230 0.918 0.030 0.395 31 29 31
-37.1015 58.8773 -44.1511 0.636 -0.380 0.672 30 25 29
-36.6421 59.0212 -44.0390 0.698 -0.344 0.628 31 26 30
-39.4982 62.6412 -45.6312 0.483 -0.545 -0.686 37 32 36
-38.7296 62.6722 -45.4021 0.500 -0.550 -0.669 39 33 37
-37.0452 63.3215 -45.0153 0.791 0.194 0.580 52 43 48
-36.8910 63.9161 -45.0861 0.779 0.161 0.606 53 43 51
-37.1007 64.3297 -45.2323 0.590 -0.132 0.797 55 46 51
-10.8380 99.2661 -44.1236 -0.280 -0.835 0.473 61 69 54
-11.7199 100.4189 -44.6222 -0.120 -0.816 0.566 61 70 54
3.1581 95.4846 -39.0898 0.973 0.223 -0.059 75 80 60
-41.6216 43.3533 -42.7831 0.919 0.181 0.349 43 53 53
-47.7770 45.1617 -45.0398 0.360 -0.051 0.931 42 52 52
-47.6246 46.7920 -45.3194 -0.158 -0.333 0.930 88 93 96
-47.0735 46.9281 -45.1771 -0.158 -0.333 0.930 96 101 105
-46.9585 47.1787 -45.1919 -0.158 -0.333 0.930 103 108 112
-43.2270 50.4095 -44.6906 -0.007 -0.396 0.918 104 104 112
-42.4494 51.3365 -44.6370 -0.017 -0.507 0.862 35 35 40
-39.7878 54.0314 -44.3576 0.141 -0.516 0.845 34 29 32
-40.9797 55.6240 -45.0435 0.528 -0.849 -0.008 34 29 32
-40.4916 55.7650 -44.9215 0.116 -0.387 0.915 33 29 30
-40.5996 56.1055 -45.0230 0.134 -0.394 0.909 32 28 29
-37.0646 63.0146 -45.3189 0.796 0.164 0.583 59 50 55
-32.0348 66.5586 -44.4808 -0.142 -0.989 -0.030 60 54 56
-25.6258 64.7580 -42.1477 -0.173 -0.945 -0.277 62 56 58
-27.3602 68.1741 -43.3657 0.500 -0.493 0.712 79 73 75
-28.2871 68.9385 -43.8042 0.994 -0.071 -0.080 79 73 75
-28.6782 69.4608 -44.0291 0.997 0.038 0.064 80 74 76
-6.6886 94.2993 -42.2368 0.092 -0.761 0.643 60 68 51
-46.9932 46.0737 -45.3236 -0.186 -0.388 0.903 124 131 135
-40.1445 46.1878 -43.2273 0.287 -0.457 0.842 158 162 168
-40.0082 46.4228 -43.2326 0.221 -0.500 0.837 147 151 157
-44.5926 48.2351 -45.0179 0.177 -0.248 0.952 126 128 135
-43.7665 48.8542 -44.8875 -0.038 -0.455 0.890 89 90 97
-43.2107 49.5501 -44.8562 -0.007 -0.357 0.934 50 49 55
-40.9958 53.5363 -44.9771 -0.007 -0.391 0.920 32 27 31
-37.7942 53.3928 -43.9573 0.082 -0.555 0.828 33 28 34
-37.3779 55.0302 -44.1597 0.646 -0.750 -0.141 34 29 31
-36.7070 59.6907 -44.8947 0.672 -0.020 0.740 41 36 40
-33.6791 62.9819 -44.6234 -0.049 -0.511 0.858 63 52 58
-33.0183 63.0389 -44.4305 -0.040 -0.523 0.852 68 57 63
-32.6147 63.1985 -44.3379 -0.050 -0.542 0.839 68 59 62
-31.9838 65.8837 -44.6857 0.967 0.221 -0.124 72 63 66
-31.9069 66.1834 -44.7226 0.970 0.210 -0.121 70 61 64
-27.1029 68.0713 -43.6178 0.500 -0.493 0.712 86 80 82
-40.9790 41.3793 -42.8361 0.613 -0.730 0.302 77 86 91
-40.9436 43.1918 -43.1952 0.729 0.076 0.680 129 136 143
-46.2685 45.3394 -45.2907 -0.183 -0.373 0.910 169 175 178
-45.9232 45.5263 -45.2215 -0.183 -0.371 0.910 174 178 182
-41.2461 49.5571 -44.5894 0.101 -0.327 0.940 33 28 34
-40.5760 51.0739 -44.6907 0.039 -0.365 0.930 31 26 32
-37.9797 50.5718 -43.7803 0.355 -0.239 0.904 31 26 32
-38.2196 50.9299 -43.9280 0.367 -0.232 0.901 31 26 32
-36.5679 62.5188 -45.7809 0.800 0.299 0.521 61 52 57
-35.8712 62.5701 -45.5746 0.788 0.293 0.542 63 54 59
-35.4085 66.3428 -46.2011 0.930 0.017 0.366 81 75 77
-32.4301 67.0933 -45.4276 0.991 0.075 0.111 81 75 77
-32.4121 67.4231 -45.4894 0.869 -0.485 -0.097 82 76 80
-32.2609 67.6957 -45.4980 0.869 -0.485 -0.097 83 77 79
-32.1095 67.9687 -45.5067 0.869 -0.485 -0.097 77 71 73
-27.1480 67.4360 -43.8541 0.503 -0.464 0.729 84 78 80
-24.0016 66.6652 -42.7176 0.892 -0.331 -0.307 93 84 85
-25.3139 67.5993 -43.3167 0.794 -0.296 0.531 92 83 86
-8.6156 92.3680 -43.1795 0.949 0.278 0.152 61 62 57
-41.1695 41.4275 -43.2290 0.412 -0.880 0.237 116 123 129
-40.9556 41.6346 -43.2048 0.531 -0.676 0.511 136 142 149
-40.6711 42.6040 -43.3157 0.731 0.099 0.676 134 138 143
-40.7290 42.8797 -43.3906 0.729 0.076 0.680 129 133 138
-40.7114 43.1376 -43.4383 0.729 0.076 0.680 126 129 134
-46.0858 45.0226 -45.5084 0.312 -0.008 0.950 109 111 117
-44.4517 46.5279 -45.3076 0.438 -0.040 0.898 29 26 33
-44.5195 46.8236 -45.3897 0.425 -0.038 0.905 27 24 31
-43.1805 46.7421 -44.9540 -0.140 -0.385 0.912 27 25 30
-42.8306 47.2017 -44.9393 -0.127 -0.367 0.922 40 38 43
-42.1615 47.2963 -44.7495 -0.149 -0.393 0.907 40 38 43
-40.6820 49.6821 -44.7786 0.106 -0.336 0.936 33 28 34
-40.0940 50.0769 -44.6760 -0.141 -0.651 0.746 32 27 33
-40.3394 54.2336 -45.6099 0.794 0.251 0.554 34 29 33
-40.4662 55.1759 -45.8439 0.801 0.237 0.550 33 28 32
-34.9188 60.2995 -45.1648 -0.353 -0.795 0.493 60 55 59
-33.9623 63.7699 -45.5811 0.755 -0.128 0.643 88 79 84
-33.8792 64.0628 -45.6155 0.673 -0.159 0.722 88 79 84
-32.5113 67.1425 -45.8226 0.953 -0.281 -0.115 90 84 86
