ply
format ascii 1.0
element vertex 847
property float x
property float y
property float z
property float nx
property float ny
property float nz
property uchar diffuse_red
property uchar diffuse_green
property uchar diffuse_blue
end_header
332.9983 92.0878 -29.5656 -0.364 -0.621 0.694 88 80 78
352.8869 69.0656 -33.8075 -0.421 -0.788 0.450 103 97 99
345.7547 61.3724 -33.6356 -0.915 -0.089 -0.394 115 109 113
368.8922 55.5745 -36.7951 -0.094 -0.558 0.825 70 66 67
367.7058 27.8186 -39.0064 0.078 -0.758 0.647 87 85 86
359.4948 -6.0441 -40.9240 -0.417 0.800 0.432 84 88 99
354.7406 -7.8061 -40.5246 -0.412 0.799 0.438 82 84 96
301.2135 -14.5128 -34.9173 -0.690 0.717 0.094 174 183 200
175.9335 -29.0181 -21.6926 -0.381 -0.107 0.918 145 154 161
139.2746 -35.6426 -18.0242 -0.982 -0.191 -0.009 77 89 103
139.2314 -35.9448 -18.0448 -0.982 -0.190 -0.010 107 119 133
277.6711 243.4012 -11.1265 -0.680 0.682 0.270 48 49 51
260.4678 179.4303 -14.4889 -0.811 -0.179 -0.557 81 83 82
360.7558 243.8291 -20.8632 -0.962 -0.169 -0.215 80 80 78
371.3533 247.0484 -21.8386 -0.822 -0.517 0.240 75 75 75
374.6048 247.1529 -22.2123 -0.938 -0.300 -0.173 77 77 77
372.3431 206.3926 -25.3780 -0.965 0.161 -0.206 68 68 68
389.6534 213.3317 -26.8299 -0.642 -0.735 0.219 74 72 73
394.2487 209.4240 -27.6994 -0.804 0.594 -0.036 61 61 63
365.8623 189.3409 -26.0514 -0.966 0.193 0.172 75 75 77
357.2421 182.5930 -25.6056 -0.394 -0.712 0.581 79 80 82
303.0306 130.4991 -23.6150 -0.768 -0.439 -0.467 71 67 66
306.4391 130.4650 -24.0187 -0.761 -0.413 -0.500 76 72 71
321.6516 128.1255 -26.0051 -0.727 0.024 0.686 58 54 55
391.1812 145.3168 -32.7360 -0.602 0.733 0.317 84 79 83
382.2476 111.8661 -34.5015 -0.528 0.020 0.849 76 68 66
285.8906 77.1539 -26.0902 -0.643 -0.701 0.307 93 85 83
351.6412 67.9973 -34.5950 -0.432 -0.771 0.467 87 78 81
384.0607 66.1067 -38.5674 -0.953 -0.270 -0.138 64 58 60
322.1561 16.4265 -35.4687 -0.795 -0.587 0.153 100 96 95
391.3317 9.3857 -44.1982 -0.223 -0.724 0.652 88 80 78
300.1751 -14.4894 -35.4862 -0.747 0.665 0.020 174 183 200
180.2243 -31.3619 -22.7977 -0.526 0.849 0.059 77 89 101
179.0939 -32.0689 -22.7242 -0.527 0.848 0.058 130 143 152
178.3017 -32.3973 -22.6587 -0.685 0.727 0.057 118 131 140
139.2784 -35.6468 -18.3422 -0.982 -0.191 -0.009 82 94 108
139.2356 -35.9493 -18.3626 -0.982 -0.190 -0.010 114 126 140
356.0614 279.7952 -18.2211 -0.875 0.481 -0.052 65 65 73
245.8941 171.7934 -14.0618 -0.317 0.205 0.926 80 84 85
371.0486 247.1071 -22.7568 -0.822 -0.517 0.240 86 86 86
321.0786 193.6364 -21.2458 -0.822 -0.015 0.569 85 84 81
377.8167 209.8538 -26.6896 -0.890 0.331 -0.313 64 64 64
395.7054 210.4825 -28.7817 -0.805 0.592 -0.037 41 41 43
385.3090 203.5367 -28.1172 -0.805 0.593 -0.008 53 53 55
382.9282 139.1046 -33.2303 -0.626 0.767 0.140 120 116 115
300.9748 97.6739 -26.8759 -0.519 0.807 0.283 99 91 89
346.1433 73.7242 -34.2980 -0.349 -0.799 0.489 87 76 80
343.8672 70.5612 -34.2902 -0.897 0.149 0.417 82 73 76
299.2662 -14.4658 -36.0669 -0.740 0.672 -0.016 175 184 201
236.0659 -20.1205 -28.9633 -0.470 0.821 0.324 172 179 195
180.7491 -24.8624 -22.7284 -0.530 0.590 0.609 180 186 198
179.0587 -32.0633 -23.1291 -0.527 0.848 0.058 130 143 152
178.2731 -32.3925 -23.0625 -0.685 0.727 0.057 110 123 132
139.7239 -34.7821 -18.6409 -0.585 0.749 0.312 162 174 188
139.2504 -35.3376 -18.6306 -0.992 0.008 0.126 75 87 103
139.3380 -35.6588 -18.6680 -0.878 -0.282 0.388 88 100 114
139.2397 -35.9538 -18.6810 -0.982 -0.190 -0.010 122 134 149
366.5833 289.8425 -19.6085 -0.831 0.555 0.041 58 58 68
365.9261 287.0936 -19.7575 -0.759 0.603 -0.244 73 73 83
356.1516 274.8145 -19.5871 -0.874 0.411 -0.259 45 45 53
366.7279 273.4691 -20.9914 -0.479 -0.736 0.478 47 47 57
368.5323 245.6162 -23.5342 -0.815 -0.527 0.240 86 86 86
343.0990 210.9722 -23.3157 -0.685 0.089 0.723 103 104 98
340.8241 208.5132 -23.2428 -0.713 0.043 0.700 109 108 102
338.9059 206.2988 -23.1931 -0.712 0.013 0.702 104 103 97
324.2606 89.6533 -31.1297 -0.287 0.169 0.943 103 95 92
381.0977 70.3997 -39.6788 -0.198 -0.267 0.943 84 78 80
367.3682 66.4262 -38.3328 0.088 -0.097 0.991 79 73 75
357.2567 48.3767 -38.6025 -0.877 0.342 -0.337 101 92 95
347.5175 38.2026 -38.2610 -0.690 -0.397 0.605 85 79 81
353.8569 23.0204 -40.3013 -0.983 0.172 0.060 77 73 72
349.6562 21.7347 -39.8953 -0.972 0.086 0.217 80 76 75
355.6561 -7.6749 -43.0805 -0.619 0.644 0.449 73 77 88
348.9955 -9.4335 -42.4134 -0.448 0.827 0.340 157 161 173
236.4077 -19.5681 -29.5036 -0.477 0.818 0.321 124 131 149
197.5204 -21.6405 -24.9256 -0.860 -0.502 -0.093 177 186 195
197.7977 -22.1017 -24.9979 -0.860 -0.502 -0.093 173 182 190
180.5974 -24.8465 -23.1255 -0.453 0.830 0.326 169 175 189
176.9817 -33.0652 -23.3690 -0.569 0.792 0.222 90 103 112
177.7943 -33.9400 -23.5412 -0.631 0.768 -0.112 111 121 131
139.1504 -35.3272 -18.9358 -0.980 -0.087 0.177 76 88 104
139.2004 -35.6432 -18.9682 -0.878 -0.282 0.388 94 107 123
139.2248 -35.9556 -18.9973 -0.981 -0.193 -0.022 129 140 158
265.2713 217.9724 -13.9330 -0.942 0.336 0.029 35 38 43
373.1896 298.9938 -20.6406 -0.869 0.494 -0.018 46 46 54
352.9560 259.8735 -21.3685 -0.768 -0.639 -0.041 86 90 93
353.0725 258.9139 -21.4626 -0.448 -0.705 0.550 77 81 81
232.7391 137.1404 -16.5912 -0.331 -0.143 0.933 78 75 68
377.5277 185.0055 -30.6383 -0.554 -0.831 -0.053 101 93 91
374.0412 181.1211 -30.5267 -0.832 -0.444 -0.334 89 81 79
414.7743 160.9556 -37.2690 0.068 -0.627 0.776 96 91 95
314.8839 92.4486 -30.5221 -0.689 -0.140 -0.711 73 64 65
221.6792 45.5142 -22.8172 -0.933 0.360 -0.014 90 81 84
241.3603 33.8905 -26.2309 -0.664 -0.718 0.210 98 93 97
350.0800 54.0582 -38.0875 -0.256 -0.440 0.861 106 101 105
367.5872 6.3177 -44.2273 0.070 -0.806 0.587 60 52 50
349.3540 -2.9132 -42.7242 -0.801 -0.594 0.081 73 70 76
349.0988 -4.5448 -42.8278 -0.718 0.500 0.485 52 54 66
318.3203 -13.6072 -39.7494 -0.104 0.607 0.788 172 181 198
235.0497 -18.4481 -29.7882 -0.522 0.819 0.238 128 135 151
181.5723 -24.4730 -23.6330 -0.408 0.829 0.384 224 230 242
178.2708 -33.9873 -24.0116 -0.613 0.789 -0.046 111 121 131
139.0940 -35.3229 -19.2469 -0.980 -0.087 0.177 79 91 107
139.1965 -35.6464 -19.2865 -0.885 -0.283 0.370 97 108 126
139.0044 -36.8528 -19.3627 -0.853 0.357 0.382 37 46 61
375.3360 304.5312 -21.4450 -0.822 0.178 0.542 65 66 71
375.6966 303.6931 -21.5599 -0.925 0.356 -0.133 93 94 99
375.1949 302.1319 -21.6252 -0.928 0.347 -0.133 86 86 94
354.9020 266.9553 -21.9578 -0.878 -0.263 -0.401 49 49 59
358.1165 267.3447 -22.3331 -0.851 -0.439 -0.286 77 77 88
355.9113 264.5611 -22.2834 -0.719 -0.648 -0.253 94 94 106
339.7501 208.2806 -24.8820 -0.855 -0.068 0.515 100 99 94
338.7638 206.6684 -24.8902 -0.784 -0.061 0.618 75 75 67
336.3392 127.1721 -31.1464 -0.817 0.491 0.300 94 89 93
314.8108 94.9923 -31.0750 -0.713 -0.082 -0.697 82 73 74
318.9094 76.7557 -33.1001 -0.867 -0.456 0.202 98 89 92
357.8067 71.6451 -38.4515 -0.366 -0.651 0.665 90 81 84
437.8275 84.3846 -47.5406 0.063 0.112 0.992 102 96 98
400.7168 74.9990 -43.6125 0.061 0.087 0.994 90 84 86
249.4095 35.5761 -27.6923 -0.632 -0.725 -0.274 88 83 87
352.6186 15.4632 -42.4325 -0.392 -0.894 -0.217 95 89 89
140.3041 -34.2428 -19.6300 -0.606 0.774 0.186 166 178 194
139.0375 -35.3185 -19.5583 -0.980 -0.087 0.177 81 92 110
139.0659 -35.6317 -19.5877 -0.885 -0.283 0.370 101 112 130
139.3640 -35.9832 -19.6545 -0.836 0.400 0.376 128 140 156
138.9003 -36.8419 -19.6667 -0.690 0.596 0.410 34 43 58
373.8290 304.7303 -22.2326 -0.744 0.653 -0.143 62 63 68
374.1693 303.8788 -22.3464 -0.800 0.210 0.562 72 73 78
376.0967 304.3614 -22.5554 -0.925 0.356 -0.133 90 91 96
361.0484 267.7750 -23.6197 -0.840 -0.459 -0.289 80 80 88
359.5027 264.4340 -23.6948 -0.817 -0.451 -0.360 88 92 94
362.3897 246.3442 -25.5534 -0.184 -0.699 0.691 79 79 77
358.4240 233.0759 -26.1318 -0.709 0.496 0.502 85 85 85
340.0781 210.6801 -25.6048 -0.840 -0.094 0.534 42 43 37
338.9286 207.0068 -25.7583 -0.811 0.038 0.584 54 53 48
224.7756 123.9464 -17.8547 -0.089 0.139 0.986 108 104 101
280.0116 121.7990 -25.1574 -0.546 -0.375 0.750 106 101 98
393.8392 152.4981 -37.3207 0.064 -0.664 0.745 100 94 95
391.7775 147.4709 -37.4677 -0.846 0.325 -0.424 68 63 66
378.5800 141.0350 -36.2938 -0.832 0.555 0.005 73 68 72
384.9367 142.6173 -36.9839 -0.859 0.487 0.157 89 83 85
359.7650 105.1274 -36.8164 -0.143 0.513 0.847 102 93 94
360.7683 96.1924 -37.6799 -0.903 0.097 0.418 78 68 69
371.8503 68.6470 -41.3726 0.063 0.093 0.994 97 91 93
356.8625 -6.7087 -45.6297 -0.485 0.726 0.488 80 82 94
234.7200 -20.0277 -30.9658 -0.503 0.825 0.258 180 188 201
197.8117 -23.4258 -26.4832 -0.846 0.157 0.510 185 194 203
181.5983 -24.4568 -24.4762 -0.574 0.805 0.149 223 230 240
176.7750 -32.6434 -24.5265 -0.570 0.791 0.223 74 84 94
140.3551 -34.2519 -19.9599 -0.610 0.770 0.189 172 184 200
139.1954 -34.7233 -19.8490 -0.594 0.751 0.288 90 102 116
138.8652 -35.2982 -19.8536 -0.883 -0.277 0.378 79 90 108
138.9354 -35.6171 -19.8889 -0.885 -0.283 0.370 111 122 140
139.1841 -35.9616 -19.9493 -0.813 0.438 0.384 127 136 153
138.7407 -36.8228 -19.9628 -0.690 0.596 0.410 36 45 60
97.2907 -31.5281 -14.1802 -0.899 -0.369 0.234 77 86 101
97.4428 -31.7701 -14.2197 -0.903 -0.366 0.226 78 87 102
376.4986 305.0323 -23.5549 -0.925 0.356 -0.133 83 84 89
376.3326 303.7471 -23.6382 -0.925 0.355 -0.134 82 85 90
375.6989 302.0728 -23.6918 -0.925 0.355 -0.134 49 52 57
375.0678 300.4057 -23.7452 -0.925 0.355 -0.134 86 89 94
365.0026 286.4897 -23.5612 -0.823 0.568 -0.007 120 123 128
363.5948 271.1323 -24.6317 -0.880 -0.413 -0.236 57 58 63
355.5932 252.2155 -25.1274 -0.756 -0.338 0.560 72 74 73
358.5818 253.3807 -25.4246 -0.711 0.072 0.699 73 75 74
390.5329 247.4753 -30.1026 -0.783 0.510 -0.357 68 69 63
390.2825 246.1850 -30.1752 -0.787 0.506 -0.353 64 65 59
350.5385 217.7968 -27.2773 -0.856 -0.047 0.515 61 62 56
341.6872 116.1756 -34.4221 -0.644 -0.174 -0.745 73 64 65
367.8821 116.5386 -37.8319 -0.618 -0.561 0.551 93 85 83
366.8719 115.2258 -37.8066 -0.657 -0.532 0.534 93 85 83
358.4316 110.3885 -37.0938 -0.243 0.450 0.859 93 85 83
319.5692 78.7874 -34.5742 -0.977 -0.200 -0.067 99 89 90
366.1894 69.3058 -41.4707 0.062 0.119 0.991 88 82 84
245.0606 34.8271 -28.3845 -0.570 -0.817 -0.086 77 72 76
338.8603 5.5632 -43.0929 0.044 -0.663 0.747 107 99 97
236.1569 -18.9508 -31.6114 -0.503 0.826 0.255 121 129 142
179.3272 -25.1593 -24.6570 -0.473 0.833 0.286 143 152 161
140.1405 -34.2267 -20.2529 -0.608 0.771 0.189 177 189 205
139.6412 -34.4741 -20.2075 -0.567 0.768 0.298 210 222 238
138.6411 -34.9616 -20.1161 -0.588 0.733 0.342 50 61 79
138.8049 -35.6025 -20.1900 -0.885 -0.283 0.370 115 126 143
139.0500 -35.9464 -20.2503 -0.813 0.438 0.384 124 133 150
97.2560 -31.3086 -14.3834 -0.795 -0.603 0.058 105 114 129
97.3538 -31.5420 -14.4154 -0.986 -0.055 0.158 75 84 99
97.3629 -31.7615 -14.4345 -0.986 -0.055 0.158 84 93 108
375.6211 302.3381 -24.6611 -0.925 0.356 -0.133 61 64 69
368.4218 294.0722 -24.3716 -0.575 0.328 0.749 121 124 129
366.4211 282.4334 -25.0510 -0.900 -0.290 -0.324 59 60 63
308.5867 221.1378 -22.3099 -0.535 -0.791 0.296 75 76 78
354.2769 252.5617 -25.8581 -0.729 -0.331 0.599 65 66 68
352.2921 250.0345 -25.7985 -0.750 -0.359 0.555 58 60 59
354.7047 249.7352 -26.1452 -0.752 -0.350 0.559 72 74 73
389.9745 250.7541 -30.7742 -0.971 0.121 -0.206 82 83 77
378.6282 140.3915 -38.2347 -0.845 0.526 0.094 52 45 40
312.7525 72.9227 -34.9215 -0.976 -0.201 0.086 80 72 72
338.1401 28.9432 -41.8902 -0.692 -0.585 0.422 80 74 74
339.7175 20.9860 -42.7482 0.092 -0.561 0.823 73 67 67
344.7375 10.0403 -44.3091 -0.923 -0.208 -0.322 92 84 82
309.5958 -13.5458 -41.5326 -0.211 0.594 0.776 175 182 198
198.8210 -21.1601 -27.3528 -0.396 0.559 0.729 181 188 198
179.5171 -25.1612 -25.0993 -0.463 0.834 0.299 143 152 159
175.3636 -28.5407 -24.8193 -0.696 0.506 0.509 150 155 161
179.2399 -30.8508 -25.5251 -0.412 -0.572 0.710 111 120 129
140.1807 -34.2344 -20.5821 -0.624 0.763 0.168 183 195 211
139.7747 -34.4944 -20.5490 -0.625 0.762 0.169 205 217 231
138.6744 -35.5879 -20.4910 -0.885 -0.283 0.370 121 133 150
138.3646 -36.7761 -20.5462 -0.717 0.576 0.394 42 51 66
377.3069 306.3821 -25.5657 -0.925 0.356 -0.133 72 73 78
365.3587 290.7360 -25.2082 -0.580 0.329 0.745 139 142 147
365.3753 285.2120 -25.6575 -0.802 -0.514 -0.303 110 113 118
367.0671 285.4794 -25.8657 -0.889 -0.457 -0.013 70 74 77
364.8979 281.5175 -25.8916 -0.888 -0.326 -0.324 59 60 63
350.3939 264.5700 -25.2920 -0.938 -0.300 -0.174 71 72 74
352.2729 264.9970 -25.5128 -0.936 -0.308 -0.169 94 96 95
338.2745 219.9947 -27.2523 -0.621 0.778 0.098 85 85 85
398.2400 152.7878 -40.8398 -0.733 0.475 -0.487 70 61 56
328.2345 104.4404 -35.2390 -0.604 0.522 0.602 90 81 85
332.6491 97.3751 -36.4106 -0.553 -0.311 0.773 90 82 80
390.7933 83.9757 -45.3963 0.160 -0.347 0.924 79 73 73
360.4880 47.6952 -44.2140 -0.466 0.596 0.654 96 87 87
359.2245 44.8394 -44.2734 -0.785 0.596 -0.170 91 85 89
340.0618 15.3988 -44.0518 -0.386 -0.004 0.922 84 76 73
365.2205 15.0578 -47.4983 -0.703 -0.484 -0.521 94 84 82
319.4371 10.5049 -41.6451 -0.764 -0.641 -0.074 94 84 82
314.5692 5.6409 -41.3772 -0.346 -0.938 0.004 70 61 62
331.3110 2.8494 -43.8782 -0.533 -0.782 -0.325 91 82 83
342.4506 -8.5434 -46.3139 -0.228 0.778 0.586 100 102 114
197.7193 -23.3893 -27.8474 -0.744 -0.184 0.642 183 190 200
177.9723 -29.9357 -25.6937 -0.355 -0.614 0.705 164 170 176
178.6029 -30.7943 -25.8488 -0.412 -0.572 0.710 96 106 115
178.3323 -31.1750 -25.8429 -0.527 0.813 0.250 103 113 123
140.2324 -34.2436 -20.9137 -0.625 0.762 0.171 203 215 231
139.9367 -34.5185 -20.8958 -0.723 0.673 0.153 192 204 218
377.5150 305.7407 -26.6560 -0.934 0.336 -0.125 62 65 70
377.3859 303.3307 -26.8322 -0.917 0.399 -0.029 60 63 68
366.5594 286.4899 -26.6920 -0.889 -0.457 -0.013 113 116 121
366.9630 285.7084 -26.8107 -0.889 -0.457 -0.013 75 78 83
367.8107 285.2846 -26.9619 -0.889 -0.459 -0.015 54 57 61
356.1035 268.3071 -26.7110 -0.938 -0.307 -0.160 71 72 74
383.3286 276.0313 -29.8514 -0.537 -0.838 0.099 77 78 80
361.5764 254.3087 -28.5943 -0.874 0.210 0.437 60 60 58
354.3150 245.8135 -28.2748 -0.630 -0.582 0.514 71 71 69
359.2448 248.3492 -28.7519 -0.630 -0.706 0.323 69 69 67
359.8888 247.7575 -28.8886 -0.586 -0.731 0.349 74 74 72
358.7117 235.3558 -29.7244 -0.616 0.703 0.355 70 70 70
344.2172 216.3444 -29.2520 -0.288 -0.597 0.749 73 74 68
346.8820 212.1201 -29.9603 -0.455 0.333 0.826 80 77 72
326.7675 107.4703 -35.6062 -0.632 -0.264 -0.729 89 79 87
217.8067 41.5596 -25.8553 -0.627 0.551 0.551 59 55 54
341.1289 68.1314 -40.7581 0.074 -0.465 0.882 60 56 53
325.2110 62.6402 -39.0005 -0.714 0.457 -0.531 66 62 59
355.3909 43.4146 -44.7190 -0.480 0.808 0.342 79 72 79
364.7735 20.2887 -47.8775 0.045 -0.560 0.827 76 66 65
351.6513 1.5332 -47.5742 -0.840 -0.486 -0.241 111 103 100
347.2917 -7.6020 -47.7072 -0.340 0.830 0.442 33 37 46
340.0160 -8.5573 -46.7787 -0.222 0.746 0.628 106 108 120
234.5358 -19.9567 -33.1199 -0.508 0.823 0.256 190 198 209
178.3310 -29.9600 -26.1582 -0.590 -0.486 0.644 168 175 181
176.4150 -32.2041 -26.0741 -0.600 0.789 0.131 69 79 89
140.1391 -34.2341 -21.2245 -0.526 0.771 0.358 207 219 235
139.8752 -34.5132 -21.2105 -0.723 0.673 0.153 185 197 211
385.8351 320.1772 -27.6803 -0.526 0.145 0.838 52 53 58
387.3394 320.2829 -27.8832 -0.528 0.134 0.838 52 53 58
385.7134 316.5231 -27.9559 -0.556 0.088 0.826 49 50 55
380.2844 310.7349 -27.6568 -0.694 -0.025 0.720 50 51 56
380.4786 308.5729 -27.8572 -0.917 0.399 -0.021 73 76 81
366.4550 286.7196 -27.6374 -0.889 -0.457 -0.013 79 82 87
366.8589 285.9378 -27.7568 -0.889 -0.457 -0.013 65 69 72
368.3884 286.0658 -27.9614 -0.888 -0.460 0.003 51 55 58
358.3666 252.2194 -29.2645 -0.843 -0.006 0.537 80 80 78
349.9000 243.8971 -28.7416 -0.501 -0.517 0.694 66 66 64
346.5797 239.4182 -28.6339 -0.485 -0.425 0.764 61 61 59
368.2946 240.1052 -31.6297 -0.578 0.816 0.010 64 63 61
343.7312 217.2577 -30.0087 -0.302 -0.596 0.744 70 69 65
373.1199 198.6942 -35.6246 -0.902 -0.432 0.015 80 81 76
297.2785 104.4916 -32.5148 -0.028 -0.619 0.785 93 87 89
354.8604 89.5552 -41.8012 -0.891 -0.035 0.452 65 56 49
352.1935 86.0763 -41.7052 -0.915 -0.398 0.066 87 80 74
336.2305 67.0441 -40.9869 -0.687 -0.401 0.605 66 65 61
342.6678 67.7448 -41.8352 -0.857 -0.513 -0.057 57 53 50
269.5052 40.0502 -33.7745 -0.449 0.340 0.826 77 67 68
396.3103 15.8776 -53.5263 -0.856 -0.319 -0.406 94 84 82
373.1793 13.1772 -50.4928 -0.799 -0.060 -0.599 93 85 82
347.3839 -4.3231 -48.2704 -0.678 -0.733 -0.043 98 103 115
338.8965 -8.5448 -47.4161 -0.233 0.744 0.626 109 113 124
139.9649 -34.2140 -21.5232 -0.526 0.771 0.358 205 217 233
139.3321 -34.4445 -21.4528 -0.548 0.732 0.404 180 192 207
382.3630 306.9978 -29.2732 -0.901 0.332 -0.278 68 71 76
382.0514 302.0865 -29.6200 -0.978 0.157 -0.136 60 63 68
376.8765 296.6863 -29.3114 -0.971 0.212 -0.107 56 59 64
362.3154 282.5568 -28.3579 -0.907 -0.420 0.041 48 51 56
362.1275 274.7452 -28.9536 -0.911 -0.198 -0.362 55 56 58
383.8500 288.4988 -30.9596 -0.861 -0.508 0.023 69 70 72
389.1671 291.4979 -31.4799 -0.851 -0.414 -0.323 74 75 77
393.2901 293.5379 -31.9062 -0.848 -0.350 -0.398 73 74 76
376.9541 277.4513 -30.8552 -0.739 -0.640 0.210 83 84 86
362.6437 265.3668 -29.7746 -0.761 -0.361 -0.539 83 84 86
357.3876 252.8340 -30.0227 -0.871 -0.047 0.488 130 130 130
356.7330 251.2909 -30.0522 -0.840 0.011 0.543 113 113 111
355.2232 249.1230 -30.0094 -0.850 0.002 0.527 88 88 86
343.2790 217.1981 -30.8477 -0.351 -0.623 0.699 85 84 80
379.4807 238.1559 -34.3473 -0.190 0.320 0.928 95 94 90
399.0241 96.5171 -48.4249 -0.699 -0.704 0.127 61 54 48
383.8073 86.4452 -47.0545 -0.585 -0.579 0.568 62 58 57
435.4128 22.1134 -59.5503 -0.659 0.500 0.562 79 69 67
346.9259 1.3947 -48.5651 -0.623 -0.689 -0.369 94 86 84
344.3186 -0.3489 -48.3318 -0.834 -0.472 -0.287 94 86 84
351.2209 -1.6949 -49.4247 -0.181 -0.972 0.148 94 87 86
300.1253 -13.4952 -43.0684 -0.368 0.658 0.658 170 177 193
262.2415 -16.1869 -37.8730 -0.604 0.796 0.039 129 137 150
189.1796 -21.7184 -27.8803 -0.411 0.752 0.516 168 175 185
139.7162 -34.1844 -21.8102 -0.526 0.772 0.356 206 218 232
139.2498 -34.4364 -21.7637 -0.557 0.376 0.741 174 186 197
137.9736 -36.4289 -21.7402 -0.994 0.007 0.112 38 48 60
392.9219 323.3692 -30.5342 -0.568 0.091 0.818 82 83 88
383.7133 313.1565 -30.0075 -0.571 -0.079 0.817 84 85 90
359.7345 277.4961 -29.3548 -0.999 0.053 0.006 57 58 62
386.0951 297.5557 -31.5899 -0.858 -0.474 -0.197 68 69 71
383.8618 293.4469 -31.5915 -0.868 -0.451 -0.208 65 66 68
318.1881 106.3570 -36.8926 -0.674 0.098 -0.732 65 56 61
340.5550 78.6434 -42.3352 -0.835 -0.393 -0.385 87 82 78
367.1441 11.0864 -51.5491 -0.504 0.766 0.398 92 83 86
351.4963 8.2976 -49.4995 -0.825 -0.171 -0.539 81 72 73
339.6045 5.0894 -48.0282 -0.552 -0.748 -0.367 84 75 78
330.4788 3.7604 -46.8092 -0.599 -0.751 -0.277 84 75 76
347.0781 -6.6866 -50.0462 -0.336 0.823 0.458 81 85 96
343.7242 -7.5732 -49.6298 -0.338 0.827 0.450 36 40 51
299.1582 -13.4738 -43.6304 -0.368 0.658 0.658 170 177 193
235.0710 -19.9155 -34.8412 -0.799 0.601 -0.018 178 186 197
178.4429 -30.7672 -27.4839 -0.600 0.788 0.140 90 98 109
139.9909 -33.9079 -22.1530 -0.541 0.738 0.404 140 150 162
139.4289 -34.1497 -22.0906 -0.556 0.733 0.390 211 221 233
138.9625 -34.4013 -22.0429 -0.565 0.385 0.730 148 158 170
138.6871 -34.6762 -22.0247 -0.541 0.729 0.420 55 64 77
137.9380 -36.4281 -22.0549 -0.994 0.007 0.112 23 33 45
390.6944 319.4220 -31.5765 -0.867 -0.098 0.489 68 69 73
351.1730 279.4460 -28.9025 -0.965 0.249 -0.083 80 83 88
352.5774 273.1019 -29.6098 -0.995 0.096 -0.035 38 39 43
383.6824 294.7854 -32.4856 -0.789 -0.581 -0.202 65 66 68
381.6447 287.4025 -32.7674 -0.858 -0.514 0.013 63 64 66
389.0883 274.6666 -34.8691 -0.411 -0.516 0.751 91 91 89
379.1585 253.9306 -35.0404 -0.541 0.752 0.375 81 80 78
383.7393 220.5995 -38.3442 -0.540 0.744 0.392 97 96 92
376.3299 215.0194 -37.6919 -0.495 0.765 0.412 96 95 91
341.1678 78.0532 -43.3090 -0.839 -0.390 -0.380 78 74 73
339.4790 75.8688 -43.2323 -0.977 -0.212 -0.032 55 51 50
330.5813 71.8228 -42.2396 -0.931 -0.195 0.310 53 49 48
353.1351 66.1349 -46.0132 -0.265 0.709 0.653 61 47 46
336.9721 47.3390 -45.1125 -0.793 -0.236 -0.562 90 80 79
338.3330 33.4815 -46.4060 -0.486 0.738 0.468 78 70 68
390.1618 21.1534 -55.0191 0.087 -0.656 0.750 92 82 80
356.6714 -2.2333 -51.9260 -0.033 -0.780 0.624 76 73 75
363.7876 -2.8230 -53.0216 -0.026 -0.734 0.679 71 72 79
346.1826 -6.6717 -50.7296 -0.336 0.823 0.458 80 84 95
139.7215 -33.8759 -22.4368 -0.453 0.551 0.701 151 161 171
139.1366 -34.1144 -22.3694 -0.450 0.542 0.710 216 226 236
138.6961 -34.3690 -22.3246 -0.566 0.387 0.728 108 118 128
138.6084 -34.6687 -22.3353 -0.546 0.732 0.407 58 68 78
138.1229 -34.9137 -22.2830 -0.852 -0.010 0.524 80 90 102
137.9024 -36.4273 -22.3699 -0.994 0.007 0.112 22 32 44
393.0279 321.7540 -32.7974 -0.851 -0.032 0.524 52 53 55
389.9409 317.9361 -32.6346 -0.854 -0.052 0.517 90 91 95
388.4946 315.5213 -32.6075 -0.833 -0.029 0.553 101 102 106
356.8531 275.7839 -30.9864 -0.995 0.102 -0.000 43 44 48
382.5030 295.3228 -33.2947 -0.773 -0.594 -0.220 57 58 60
383.6942 295.1194 -33.4890 -0.789 -0.581 -0.202 61 62 64
386.1254 295.8993 -33.7919 -0.872 -0.443 -0.206 56 57 59
384.6674 290.0951 -34.0289 -0.774 -0.628 0.076 62 63 65
362.6468 265.1646 -32.6871 -0.531 -0.845 -0.058 79 80 82
381.4866 271.6198 -35.0019 -0.754 -0.615 -0.231 125 125 125
384.3758 272.6294 -35.3553 -0.638 -0.762 -0.116 115 115 113
386.8075 273.2851 -35.6680 -0.635 -0.763 -0.120 99 99 97
345.5512 216.4470 -33.9487 -0.197 0.326 0.925 102 101 97
340.1520 211.8796 -33.4984 -0.323 0.346 0.881 98 97 93
368.8004 199.2120 -38.7821 -0.104 -0.900 0.422 97 94 89
390.0066 151.4652 -45.7031 -0.432 0.887 0.162 92 85 79
378.9425 49.5687 -52.0395 -0.945 -0.061 0.321 65 55 63
383.9372 14.2289 -55.5596 -0.570 0.595 0.566 94 84 80
357.5192 2.0433 -52.5595 -0.635 -0.627 -0.451 82 74 72
344.8661 -6.6676 -51.3480 -0.337 0.824 0.455 79 83 94
311.0692 -11.1613 -46.6396 -0.193 0.644 0.740 115 123 136
303.3259 -11.9763 -45.5440 -0.189 0.638 0.747 150 159 174
233.8481 -17.6904 -35.5882 -0.912 -0.201 -0.358 123 129 141
195.3013 -20.9738 -30.0736 -0.276 0.751 0.600 179 186 196
177.6408 -31.5005 -28.2548 -0.633 0.764 0.125 145 153 166
177.7882 -33.5271 -28.4358 -0.641 0.761 0.099 115 123 136
139.2406 -33.8170 -22.6862 -0.519 0.457 0.722 163 173 183
138.8435 -34.0789 -22.6473 -0.494 0.534 0.686 213 223 232
138.3732 -34.3292 -22.5965 -0.566 0.387 0.728 98 108 117
138.0411 -34.5958 -22.5677 -0.527 0.747 0.405 61 71 81
137.8354 -34.8778 -22.5590 -0.839 -0.028 0.543 79 89 99
137.8420 -35.1880 -22.5843 -0.843 -0.026 0.537 118 128 138
137.8071 -36.4177 -22.6756 -0.990 0.007 0.139 26 36 48
395.3578 337.5210 -32.9838 -0.635 -0.773 0.007 48 52 51
351.2739 292.0309 -29.8296 -0.490 -0.835 0.249 52 54 53
351.2497 290.9246 -29.9122 -0.506 -0.823 0.257 54 56 55
392.7729 320.6841 -33.9045 -0.820 -0.089 0.566 69 70 72
390.3955 317.4723 -33.7936 -0.849 -0.042 0.527 73 74 76
390.3961 316.2758 -33.8870 -0.849 -0.042 0.527 75 76 78
383.5463 297.6506 -34.2987 -0.850 -0.463 -0.250 46 47 49
382.4717 294.4642 -34.3839 -0.775 -0.593 -0.218 57 58 60
366.1533 272.5399 -33.6131 -0.631 -0.411 0.659 85 86 88
384.0517 254.5637 -37.7375 -0.622 -0.128 0.772 95 94 92
395.7067 229.5246 -41.4637 -0.550 0.741 0.385 89 88 84
376.3662 201.6799 -40.6953 -0.169 -0.949 0.268 94 93 89
397.5060 146.3369 -48.2283 -0.990 -0.023 -0.136 118 110 108
308.6747 100.7035 -38.2806 -0.598 -0.250 -0.761 88 82 84
367.3337 90.0720 -48.0303 -0.896 0.018 -0.444 83 76 70
331.6337 73.9938 -43.8561 -0.942 -0.156 0.297 54 50 49
394.8753 80.8659 -52.9368 -0.349 -0.582 0.735 121 117 114
356.0615 67.0071 -48.1159 -0.210 0.637 0.741 93 79 79
365.4770 60.0276 -50.0923 -0.785 0.568 -0.249 63 53 54
329.5448 47.7651 -45.5850 -0.717 0.697 -0.000 90 80 79
365.1546 26.8474 -52.6322 -0.796 0.554 0.246 86 78 76
379.1624 10.3165 -56.0523 0.009 -0.413 0.911 82 76 78
235.6340 -19.8742 -36.5820 -0.915 -0.203 -0.349 189 195 207
188.2689 -21.6428 -29.5173 -0.395 0.758 0.519 176 183 191
177.5336 -23.7666 -28.0505 -0.275 0.558 0.783 229 238 247
177.5719 -31.4917 -28.6591 -0.633 0.764 0.125 145 153 166
139.0751 -33.7982 -22.9850 -0.520 0.455 0.723 175 185 195
138.5111 -34.0384 -22.9180 -0.494 0.534 0.686 208 218 228
137.8520 -34.2634 -22.8353 -0.526 0.743 0.414 86 96 106
137.8492 -34.5731 -22.8590 -0.527 0.747 0.405 67 77 87
137.5802 -35.1553 -22.8636 -0.879 -0.310 0.363 121 131 141
137.7547 -36.1060 -22.9643 -0.998 0.019 0.054 92 102 114
137.7476 -36.4134 -22.9872 -0.998 0.019 0.054 29 39 51
390.7436 320.5173 -34.6672 -0.821 -0.082 0.564 50 52 51
388.3173 299.4806 -35.9253 -0.863 -0.359 -0.355 52 52 54
365.8312 272.5908 -34.5406 -0.643 -0.419 0.641 83 83 85
363.4579 269.6490 -34.4025 -0.634 -0.516 0.576 84 84 84
360.5457 266.3060 -34.2123 -0.837 -0.539 0.094 81 81 81
397.6516 232.1110 -42.5951 -0.565 0.737 0.372 60 59 55
398.4552 231.4689 -42.7690 -0.550 0.767 0.331 58 57 53
353.9366 200.1198 -38.3287 -0.509 0.793 0.334 93 92 88
340.3762 190.9845 -36.9441 -0.490 0.753 0.440 99 98 93
320.5046 160.0900 -36.2739 -0.953 0.099 -0.285 92 85 77
364.7915 139.1654 -44.7355 -0.490 0.868 0.083 98 87 85
405.9960 149.9397 -50.2609 -0.957 -0.073 -0.282 108 100 98
297.9762 100.8013 -37.3972 -0.625 -0.183 -0.759 70 64 66
340.6060 75.6279 -45.9327 -0.495 0.270 0.826 57 52 49
342.6366 63.1672 -47.2133 -0.223 0.645 0.731 86 74 74
340.3794 31.4988 -49.3227 -0.096 -0.062 0.993 94 86 83
354.1742 15.4358 -52.6992 0.038 -0.399 0.916 91 81 79
359.5728 15.0431 -53.5631 0.004 -0.264 0.965 84 74 72
370.4119 11.5402 -55.5085 -0.839 0.168 0.517 81 75 80
371.6640 10.7470 -55.7634 -0.882 0.087 0.463 81 74 80
346.1939 -5.7475 -53.1111 -0.482 0.720 0.499 74 78 89
259.0805 -17.2732 -40.5560 -0.672 0.740 0.015 154 160 172
235.8424 -19.3138 -37.1266 -0.815 0.579 0.014 171 177 189
188.7008 -21.2074 -29.9952 -0.394 0.757 0.521 173 180 188
176.9754 -24.1408 -28.4126 -0.567 0.646 0.511 152 161 170
176.9966 -33.0455 -29.1070 -0.798 -0.594 0.103 124 131 147
138.9131 -33.7799 -23.2841 -0.629 0.670 0.394 186 196 206
138.4518 -34.0332 -23.2326 -0.827 0.078 0.556 203 213 223
137.6016 -35.1617 -23.1889 -0.887 -0.282 0.365 126 136 146
137.7375 -36.1078 -23.2833 -0.998 0.019 0.054 74 84 96
137.7901 -36.4241 -23.3160 -0.999 0.007 0.047 38 48 60
381.5090 317.7133 -34.4963 -0.695 -0.701 0.161 60 61 63
354.0155 292.8625 -32.1058 -0.478 -0.832 0.282 63 64 66
388.4849 320.1428 -35.4020 -0.569 -0.050 0.821 74 75 77
394.9026 309.9021 -37.1983 -0.982 0.187 0.025 64 64 66
392.4413 303.1241 -37.3358 -0.978 0.209 0.021 52 52 54
358.3570 262.7542 -35.1105 -0.562 -0.827 -0.023 97 97 95
376.6791 271.1802 -37.3315 -0.889 0.039 -0.456 69 70 71
374.6825 265.2085 -37.4796 -0.452 -0.891 0.037 89 90 85
346.5425 195.8897 -38.4205 -0.510 0.795 0.329 115 114 110
315.7101 144.5230 -37.5536 -0.966 0.136 0.222 98 85 75
281.9299 117.5480 -34.3419 -0.661 0.744 0.097 87 82 78
309.1853 88.1553 -40.8824 -0.251 0.493 0.833 89 79 78
370.0798 93.0002 -50.0519 -0.301 -0.541 0.786 45 40 34
332.0799 79.4211 -45.1447 0.032 -0.696 0.717 49 44 38
359.0996 83.3793 -49.0737 -0.811 0.126 0.571 58 53 50
327.8152 70.6801 -45.1511 -0.917 0.241 0.319 58 53 50
324.9114 66.6242 -45.0091 -0.905 0.394 0.163 82 72 70
370.0485 30.2327 -54.8923 -0.068 -0.624 0.779 78 73 70
362.6826 11.0350 -55.2199 -0.917 -0.345 -0.200 70 65 72
363.1593 9.3415 -55.4254 -0.919 -0.367 -0.144 70 64 73
366.0724 0.8731 -56.5356 -0.709 -0.684 -0.171 96 94 104
177.4282 -33.0857 -29.5924 -0.805 -0.585 0.097 123 130 147
138.7696 -33.7639 -23.5861 -0.635 0.666 0.392 195 205 215
138.1631 -33.9984 -23.5092 -0.766 -0.592 0.250 188 198 210
138.2102 -34.3161 -23.5411 -0.891 0.453 0.025 61 71 83
137.7204 -36.1095 -23.6028 -0.998 0.019 0.054 45 55 67
137.9595 -36.4534 -23.6668 -0.998 0.011 0.057 54 64 76
360.3611 274.3751 -35.4989 -0.982 0.190 0.016 54 53 58
362.5803 268.4728 -36.3051 -0.808 -0.590 0.005 86 85 83
370.5785 264.6689 -37.8693 -0.833 0.326 -0.447 69 68 65
398.0409 230.5978 -44.8532 -0.546 0.820 0.175 88 89 84
379.9874 218.4644 -42.9133 -0.542 0.790 0.288 90 91 86
371.3418 211.0791 -42.1052 -0.737 -0.476 -0.480 103 102 98
377.8716 212.8678 -43.0065 -0.678 -0.628 -0.382 97 94 87
375.0508 207.9846 -42.9327 -0.695 -0.561 -0.451 99 96 89
362.1891 196.2987 -41.7842 -0.826 -0.564 0.004 87 87 79
366.4983 197.7544 -42.3578 -0.827 -0.562 0.025 91 91 83
320.2988 106.2731 -42.0333 -0.703 -0.467 0.537 75 69 69
307.1427 96.4619 -40.6941 -0.457 -0.822 0.340 72 65 61
336.1402 81.5434 -46.4517 0.082 -0.650 0.755 77 73 64
358.5296 83.3409 -49.8748 -0.811 0.126 0.571 64 59 56
320.4946 64.8059 -45.2482 -0.823 0.566 -0.040 95 84 82
429.5863 71.3362 -62.0984 -0.093 -0.397 0.913 92 80 84
334.7329 -5.2074 -52.8884 -0.066 -0.578 0.813 74 76 91
333.9986 -8.3646 -53.0140 -0.411 0.786 0.462 168 171 184
330.2179 -9.9910 -52.5375 -0.348 0.828 0.440 138 147 159
298.5231 -11.2173 -47.5905 -0.433 0.618 0.656 120 131 143
184.7041 -22.3526 -30.3420 -0.446 0.751 0.487 191 198 206
177.3742 -33.0789 -29.9997 -0.805 -0.585 0.097 120 127 143
140.3454 -33.3325 -24.1295 -0.595 0.577 0.560 111 121 131
138.6051 -33.7452 -23.8844 -0.635 0.666 0.392 197 207 217
138.0922 -33.9917 -23.8218 -0.787 -0.592 0.173 184 194 204
138.2413 -34.3229 -23.8709 -0.892 0.452 0.029 58 68 78
137.6704 -36.1065 -23.9170 -0.998 0.019 0.067 38 48 60
137.7784 -36.4313 -23.9592 -1.000 0.021 -0.006 56 66 78
383.8073 331.1535 -35.9204 -0.446 -0.722 0.529 33 39 35
386.6584 331.2868 -36.3703 -0.428 -0.722 0.544 41 45 44
388.9640 320.0576 -37.5999 -0.493 -0.042 0.869 91 93 92
378.4557 278.7993 -39.0544 -0.874 -0.485 0.036 82 81 79
384.5324 280.0103 -39.9427 -0.871 -0.489 0.036 74 73 71
375.4992 213.8301 -43.5383 -0.725 -0.474 -0.501 84 83 79
304.2814 124.9331 -38.8325 -0.725 0.390 0.568 79 74 70
343.6596 80.2785 -48.5976 -0.792 -0.081 0.605 55 50 46
371.7873 87.0768 -52.6181 -0.529 -0.201 0.824 55 50 47
319.5039 70.3535 -45.4570 -0.791 0.378 0.481 56 51 48
328.7370 69.4520 -47.0159 -0.486 -0.034 0.873 63 55 53
329.5746 64.6470 -47.5180 -0.661 -0.368 0.654 90 79 77
319.8808 56.6641 -46.5631 -0.495 0.549 0.674 91 79 81
380.2303 64.3961 -55.7126 -0.672 -0.675 -0.303 68 57 61
347.9955 44.7157 -52.0129 -0.901 0.306 0.309 91 88 83
338.2096 9.3622 -53.1332 0.119 -0.535 0.836 92 86 95
332.8826 -8.3532 -53.6262 -0.410 0.789 0.458 165 168 180
327.9562 -9.9953 -52.9565 -0.367 0.840 0.401 136 145 157
244.1483 -15.9755 -39.8873 -0.767 0.562 0.309 145 153 166
177.1523 -31.8472 -30.2867 -0.455 -0.012 0.891 76 83 99
177.7547 -33.1141 -30.4807 -0.803 -0.586 0.111 120 127 143
138.7741 -33.4552 -24.2156 -0.669 0.645 0.369 130 140 150
138.2964 -33.7081 -24.1578 -0.880 0.177 0.441 199 209 219
138.0183 -33.9846 -24.1340 -0.787 -0.592 0.173 179 189 199
138.2302 -34.3242 -24.1942 -0.892 0.452 0.029 55 65 75
137.7819 -35.5073 -24.2122 -0.910 0.406 0.086 131 141 153
137.6236 -36.1039 -24.2322 -0.999 0.011 0.053 32 42 54
137.7804 -36.4360 -24.2828 -1.000 0.021 -0.006 60 70 82
388.7810 333.5374 -37.6069 -0.416 -0.672 0.612 39 43 42
387.5719 319.2209 -38.4961 -0.440 -0.680 0.586 84 86 85
393.6790 322.0094 -39.2843 -0.453 -0.674 0.584 65 65 67
385.6028 303.3206 -39.3812 -0.122 -0.225 0.967 76 76 78
359.8759 265.8855 -38.0118 -0.589 0.653 0.476 81 80 78
384.2147 282.3874 -40.7436 -0.760 0.315 -0.569 71 70 68
387.6542 259.6455 -43.0338 -0.681 0.018 0.732 58 59 51
382.0159 254.5608 -42.4968 -0.741 0.022 0.671 43 44 36
377.9984 250.6387 -42.1368 -0.671 -0.113 0.732 43 44 36
383.9048 251.3706 -43.0483 -0.390 0.401 0.829 43 44 38
401.9795 233.5334 -47.3623 -0.526 0.819 0.230 85 82 77
385.2574 219.9741 -45.6541 -0.597 -0.684 -0.420 85 81 78
394.5236 221.0816 -47.0871 -0.676 0.736 -0.041 87 84 79
375.0886 199.9801 -45.5075 -0.461 -0.862 0.210 125 126 121
374.8943 195.6449 -45.8049 -0.742 0.543 -0.394 129 130 125
343.6315 79.5035 -49.5060 0.008 -0.134 0.991 90 85 82
318.8677 56.5281 -47.1962 -0.495 0.549 0.674 87 75 77
346.4220 22.5017 -54.2917 -0.697 0.708 0.110 69 60 61
373.0608 11.0641 -59.5219 0.138 -0.560 0.817 77 74 80
332.1686 -8.3333 -54.2996 -0.410 0.789 0.458 159 162 174
226.9026 -16.9880 -37.7215 -0.991 0.115 0.066 160 166 178
227.9168 -18.0585 -37.9689 -0.454 -0.173 0.874 158 164 176
228.0120 -18.5913 -38.0249 -0.454 -0.173 0.874 168 174 186
176.1768 -32.1585 -30.5682 -0.437 -0.091 0.895 87 94 110
176.1708 -32.5590 -30.5976 -0.666 -0.462 0.586 108 115 131
177.6928 -33.1066 -30.8884 -0.803 -0.586 0.111 120 127 143
138.7058 -33.4487 -24.5310 -0.671 0.645 0.366 133 143 153
138.1493 -33.6917 -24.4583 -0.880 0.177 0.441 200 210 220
137.9444 -33.9776 -24.4465 -0.787 -0.592 0.173 169 179 189
138.2191 -34.3255 -24.5179 -0.892 0.452 0.029 51 61 71
137.8653 -35.5227 -24.5509 -0.902 0.428 0.056 132 142 154
368.8954 344.2323 -34.5643 -0.764 0.557 -0.326 46 48 47
349.4083 289.0933 -35.4921 -0.272 0.329 0.904 65 67 66
379.0694 311.1276 -38.7540 -0.483 -0.011 0.876 75 75 77
346.1753 262.9196 -36.9318 -0.974 0.031 -0.225 68 68 70
373.5616 283.5524 -39.9218 -0.328 0.214 0.920 69 69 71
387.7452 269.1798 -43.3628 -0.460 0.598 0.656 71 72 66
378.5756 261.3939 -42.4279 -0.981 -0.172 -0.095 70 71 65
382.8094 241.9408 -44.6002 -0.142 -0.726 0.672 72 74 73
396.5038 246.4413 -46.5346 -0.415 0.646 0.640 75 76 70
399.7774 247.4222 -47.0042 -0.589 0.035 0.807 77 76 71
395.6192 242.4233 -46.6911 -0.264 0.475 0.839 83 82 77
385.1775 222.3786 -46.4708 -0.526 0.734 0.429 82 77 73
394.2355 221.1610 -48.0671 -0.431 0.622 0.654 88 87 83
392.2434 218.8613 -47.9100 -0.435 0.621 0.652 79 78 73
363.2189 196.5405 -44.7754 -0.882 -0.413 0.226 106 105 101
371.7930 198.3342 -46.0639 -0.465 -0.859 0.215 95 94 90
333.6879 154.2446 -43.0653 -0.793 -0.532 0.296 121 109 97
347.6848 159.3562 -45.0038 -0.828 -0.500 0.254 109 99 89
392.8503 103.1814 -56.7470 -0.801 0.417 -0.429 104 94 92
385.7019 100.0482 -55.7965 -0.813 0.378 -0.443 109 100 97
316.5425 53.7066 -47.8106 -0.598 0.629 0.496 75 63 65
343.6381 50.1027 -52.5827 -0.822 -0.380 0.424 84 73 69
339.1703 18.4962 -54.2276 -0.796 0.600 -0.073 77 68 69
343.5072 4.9351 -55.9720 -0.918 -0.356 0.177 62 59 66
315.7734 -3.4421 -51.9988 -0.615 -0.537 0.578 44 45 57
331.4563 -8.3134 -54.9712 -0.410 0.789 0.458 158 161 174
244.5859 -15.9337 -41.1197 -0.425 0.715 0.555 147 155 166
229.5287 -17.5216 -38.7390 -0.237 0.075 0.969 137 143 155
186.7270 -21.0896 -31.9002 -0.455 0.748 0.483 170 177 185
177.6307 -33.0990 -31.2965 -0.803 -0.586 0.111 121 128 144
138.5805 -33.4350 -24.8366 -0.670 0.646 0.366 148 158 171
138.2577 -34.3334 -24.8508 -0.900 0.135 0.415 51 61 74
137.3734 -36.6938 -24.8822 -0.976 -0.169 0.139 104 114 126
378.1333 324.7950 -38.6070 -0.799 -0.558 0.225 39 44 40
352.9037 290.2388 -36.9529 -0.355 0.152 0.923 62 64 63
364.5799 276.7479 -39.9326 -0.938 -0.168 -0.303 61 60 65
374.3646 283.3672 -41.0835 -0.779 -0.494 -0.386 62 61 66
386.4350 290.5564 -42.5765 -0.548 0.686 0.479 63 62 66
381.9352 284.7198 -42.2570 -0.864 -0.328 -0.382 74 73 71
385.5113 274.7531 -43.6078 -0.781 0.119 -0.613 109 110 104
373.3239 242.4479 -43.9813 -0.962 -0.158 0.221 76 78 77
373.4651 241.4493 -44.0801 -0.962 -0.158 0.221 54 56 55
374.6796 236.7975 -44.6340 -0.517 0.594 0.616 83 85 84
371.6126 229.3458 -44.6770 -0.663 -0.125 0.738 73 72 67
375.7188 220.0802 -46.0645 -0.770 -0.638 0.032 86 78 75
367.3781 198.1277 -46.3084 -0.927 -0.303 0.223 122 121 117
380.2658 203.3866 -48.0840 -0.638 -0.620 0.456 95 91 86
384.9575 203.8836 -48.8369 -0.631 -0.308 0.712 99 94 90
346.7081 171.5932 -44.8198 -0.659 0.753 -0.000 118 110 107
393.8491 191.2463 -51.2835 -0.444 0.850 0.285 117 110 92
354.2454 161.8300 -46.8225 -0.654 -0.678 -0.336 115 108 100
398.5685 153.3662 -54.9232 -0.759 0.253 0.600 79 71 68
318.5507 55.8336 -48.7712 -0.596 0.796 0.104 74 62 64
341.6007 44.7094 -53.4887 -0.903 0.420 -0.096 53 49 44
338.8242 41.7083 -53.2465 -0.730 -0.443 0.520 52 49 44
359.1909 22.2790 -58.1359 -0.761 0.637 0.118 89 80 81
332.5864 -7.4717 -55.8894 -0.612 0.707 0.355 91 96 108
193.5422 -20.3725 -33.4400 -0.402 0.757 0.515 180 187 195
177.5686 -33.0915 -31.7049 -0.803 -0.586 0.111 116 123 139
138.4410 -33.4196 -25.1396 -0.661 0.652 0.373 169 176 193
138.0650 -34.3108 -25.1432 -0.812 0.115 0.572 56 63 81
381.5731 327.0244 -40.0701 -0.771 -0.635 0.045 45 50 46
380.6223 300.2411 -41.9079 -0.979 -0.051 0.197 77 77 77
372.5739 283.3986 -41.7913 -0.783 -0.478 -0.398 66 65 70
376.4737 285.3491 -42.3116 -0.776 -0.480 -0.410 65 64 69
386.6942 284.0709 -44.1524 -0.704 0.589 0.396 49 48 46
387.7066 281.3470 -44.5287 -0.931 -0.103 -0.349 85 81 80
378.2234 263.9745 -44.2067 -0.448 0.575 0.685 79 80 74
374.7936 247.0321 -44.8862 -0.784 0.618 -0.046 79 80 72
398.0653 250.3350 -48.6137 -0.378 0.615 0.692 82 84 82
366.2222 215.4880 -45.7781 -0.944 -0.315 -0.099 90 85 81
375.5558 220.2284 -47.0181 -0.770 -0.638 0.032 91 83 80
400.1624 227.4768 -50.6789 -0.518 -0.757 -0.398 90 89 85
377.4934 200.9708 -48.7871 -0.761 -0.632 0.148 85 77 74
372.7151 193.0011 -48.5663 -0.992 -0.113 -0.049 101 93 90
358.1137 176.8806 -47.2766 -0.693 0.717 0.071 105 97 95
342.5215 50.0642 -54.0845 -0.779 -0.360 0.513 84 73 69
322.8284 37.5151 -51.6586 -0.999 -0.042 0.009 56 53 48
323.2411 36.7832 -51.7838 -0.988 -0.118 -0.101 62 59 54
353.6473 20.9088 -58.1619 -0.764 0.643 0.049 83 74 75
340.7115 17.1208 -56.2357 -0.791 0.592 -0.155 81 72 71
316.6572 -2.5825 -53.5993 0.009 -0.976 0.218 32 30 41
330.3878 -6.7104 -56.2524 -0.522 -0.845 -0.112 49 52 63
331.1115 -8.2505 -56.4910 -0.558 0.692 0.458 158 160 172
297.2001 -11.7853 -50.9638 -0.380 0.650 0.658 171 181 193
268.1879 -14.6667 -46.2244 -0.860 -0.117 0.496 165 175 187
138.3591 -33.4114 -25.4529 -0.660 0.656 0.366 176 183 202
137.7789 -33.6513 -25.3717 -0.867 0.117 0.485 204 211 230
137.9438 -33.9851 -25.4248 -0.792 -0.555 0.255 119 126 145
137.7243 -34.8919 -25.4550 -0.936 -0.267 0.230 111 118 137
138.0062 -35.5538 -25.5526 -0.797 0.429 0.426 154 163 177
369.7977 345.0619 -37.7449 -0.825 0.353 -0.441 55 57 56
387.8364 334.1697 -41.6768 -0.868 -0.492 0.076 36 41 37
381.3858 326.0251 -41.1648 -0.790 -0.612 0.023 48 50 47
386.0591 306.2254 -43.4442 -0.702 -0.422 0.573 69 69 69
379.9369 300.0109 -42.8458 -0.978 -0.048 0.205 73 73 73
358.5171 276.9229 -40.8518 -0.942 -0.053 -0.332 67 67 67
392.5939 284.1862 -46.2122 -0.798 -0.305 0.519 85 84 82
376.1136 226.2544 -47.6609 -0.393 0.231 0.890 91 90 85
371.1918 219.9065 -47.2802 -0.856 -0.511 0.077 88 83 77
369.7755 217.9513 -47.1802 -0.896 -0.444 0.017 88 83 77
376.5251 221.0806 -48.1163 -0.945 -0.270 -0.183 88 83 77
401.2729 229.5509 -51.7719 -0.536 -0.768 -0.351 95 92 87
373.3823 196.7544 -49.3787 -0.968 -0.165 0.187 77 72 68
366.9935 185.9236 -49.0768 -0.850 -0.188 -0.493 93 84 85
344.5259 160.2564 -47.0931 -0.892 -0.447 -0.068 91 87 73
346.6497 160.3655 -47.4526 -0.927 -0.364 -0.089 101 97 86
382.7910 171.0893 -52.9134 -0.666 -0.746 -0.010 93 88 84
330.2678 101.2283 -49.0079 -0.942 0.336 0.013 62 54 54
322.8233 77.5685 -49.4760 0.083 -0.683 0.725 68 60 57
353.0308 53.9056 -56.4630 0.158 -0.277 0.948 81 74 71
325.4688 46.9189 -52.2100 -0.034 -0.176 0.984 82 74 71
337.5542 26.7132 -55.8028 -0.507 -0.304 0.807 47 43 42
332.2101 23.6229 -55.1071 -0.712 0.215 0.668 75 70 67
343.3109 18.2546 -57.4276 -0.801 0.596 -0.059 77 72 69
337.3317 11.9806 -56.8583 -0.788 0.612 -0.065 76 69 67
331.8227 -7.4180 -57.3450 -0.550 0.696 0.462 78 80 92
325.9917 -9.8614 -56.5170 -0.371 0.838 0.401 124 131 143
305.8089 -10.9287 -53.1020 -0.395 0.604 0.692 142 150 161
224.2023 -18.4718 -39.5337 -0.279 0.024 0.960 147 154 170
138.0897 -33.3797 -25.7321 -0.572 0.618 0.539 183 190 208
137.6152 -33.6328 -25.6687 -0.867 0.117 0.485 198 205 223
137.5658 -33.9386 -25.6829 -0.867 0.117 0.485 105 112 130
137.6457 -34.8845 -25.7670 -0.936 -0.267 0.230 114 121 139
137.8942 -35.5418 -25.8588 -0.792 0.430 0.434 154 163 176
377.3408 341.8685 -40.3389 -0.524 0.407 0.749 46 48 47
385.3895 332.3541 -42.4539 -0.894 -0.441 0.085 41 46 43
379.3421 306.8669 -43.2745 -0.948 -0.307 0.082 52 54 51
385.4010 306.0217 -44.4002 -0.702 -0.422 0.573 60 60 58
383.0884 302.9355 -44.2222 -0.802 -0.320 0.504 60 60 58
376.6817 296.5101 -43.5723 -0.765 -0.198 0.613 60 60 58
378.2834 254.4827 -46.9566 -0.914 0.312 -0.259 56 57 49
368.8380 233.6947 -46.8339 -0.405 -0.380 0.831 54 56 55
365.7635 228.4328 -46.6829 -0.725 -0.515 0.457 57 57 55
398.8676 228.3555 -52.4980 -0.522 -0.769 -0.369 92 89 84
399.5742 227.6385 -52.6749 -0.523 -0.770 -0.365 98 96 93
377.1193 200.1514 -50.7639 -0.972 -0.175 0.157 64 61 56
338.7498 158.4720 -47.1080 -0.878 -0.469 0.091 73 69 58
369.8897 169.1469 -51.7845 -0.927 -0.279 0.251 91 83 80
368.1866 166.2710 -51.6979 -0.779 -0.507 -0.369 86 81 76
367.8308 165.0821 -51.7233 -0.799 -0.486 -0.354 84 79 75
315.5637 92.0618 -47.9426 -0.914 -0.237 -0.328 69 63 64
299.6879 80.4313 -46.0153 -0.331 0.415 0.847 77 69 66
315.5367 77.2330 -49.0328 0.015 -0.689 0.725 81 73 71
325.4076 -9.8380 -57.1940 -0.366 0.831 0.418 124 130 142
268.8954 -14.6154 -47.6295 -0.848 -0.235 0.475 167 177 189
223.4758 -17.9216 -39.9031 -0.235 0.074 0.969 104 111 127
190.5166 -20.2596 -34.2917 -0.893 -0.451 0.002 180 188 199
137.8519 -33.3519 -26.0164 -0.572 0.618 0.539 187 194 210
137.5820 -33.6308 -25.9896 -0.825 -0.437 0.359 196 203 219
137.3366 -33.9114 -25.9673 -0.757 0.590 0.283 94 101 117
137.5512 -34.8749 -26.0761 -0.937 -0.316 0.150 129 136 152
371.5980 347.5667 -39.9518 -0.941 0.221 -0.255 38 40 39
379.8009 307.5934 -44.3453 -0.946 -0.307 0.101 48 48 46
390.9821 313.3813 -45.9089 -0.725 -0.688 0.022 59 61 58
387.2101 307.8560 -45.6437 -0.677 -0.376 0.633 59 61 58
384.0023 302.8439 -45.4412 -0.679 -0.322 0.660 58 60 57
383.7769 300.3033 -45.5876 -0.803 0.502 0.321 58 59 54
388.3820 286.3176 -47.4334 -0.777 0.490 0.395 83 84 79
388.1184 282.6003 -47.6594 -0.688 0.581 0.436 70 71 66
379.8052 260.3558 -47.8139 -0.730 -0.320 -0.603 88 91 84
380.8215 234.1913 -49.9155 -0.640 0.757 -0.129 83 82 77
376.0699 227.8300 -49.5374 -0.999 0.014 0.046 72 70 65
379.2522 217.8210 -50.8382 -0.422 -0.898 -0.121 85 80 76
373.8466 208.1035 -50.5902 -0.569 0.803 0.180 87 86 82
377.0087 201.3877 -51.6456 -0.827 -0.554 0.092 55 50 46
353.4900 170.0886 -49.7606 -0.952 0.290 0.098 80 75 73
356.8215 104.2115 -55.1894 -0.743 -0.508 -0.436 64 58 60
326.1979 79.5949 -51.5501 -0.813 -0.363 -0.455 86 77 78
341.3822 49.2539 -56.4781 -0.476 -0.761 0.442 55 55 50
319.3019 31.6363 -53.8445 -0.289 -0.025 0.957 63 62 57
336.8622 8.8098 -58.6434 -0.765 0.624 -0.159 41 41 51
332.5731 -6.5422 -59.0076 -0.207 0.524 0.826 44 44 54
249.6758 -14.0710 -44.8170 -0.780 -0.600 0.180 174 181 197
190.5090 -20.2463 -34.7475 -0.893 -0.451 0.002 180 189 198
178.6857 -23.7180 -32.8995 -0.484 0.597 0.641 187 194 204
176.8039 -30.1761 -33.0390 -0.486 0.756 0.439 107 115 126
175.3099 -30.8605 -32.8235 -0.501 0.749 0.433 154 162 175
137.2307 -33.9002 -26.2743 -0.757 0.590 0.283 81 88 106
137.2230 -34.5223 -26.3186 -0.865 0.110 0.490 71 78 96
137.4993 -34.8711 -26.3933 -0.937 -0.316 0.150 149 156 174
387.7514 286.1510 -48.3887 -0.758 0.342 0.556 39 40 35
381.1531 262.7527 -48.9074 -0.732 -0.314 -0.605 69 72 65
382.4587 253.4765 -49.8198 -0.595 0.734 0.326 82 87 77
376.0284 228.0615 -50.5160 -0.999 0.014 0.046 52 51 46
372.3298 224.6104 -50.1013 -0.990 -0.144 0.006 55 55 50
376.9670 224.2903 -50.9604 -0.999 0.007 0.032 66 63 58
375.8146 221.3914 -50.9643 -0.451 0.719 0.529 83 76 73
376.6447 219.7345 -51.2348 -0.577 -0.760 -0.300 92 87 83
374.7843 212.1174 -51.4555 -0.543 0.748 0.381 63 62 58
379.2563 206.1344 -52.6982 -0.932 0.237 -0.272 56 55 51
381.9008 172.3191 -55.6429 -0.774 -0.469 -0.426 67 59 56
402.4799 171.2689 -59.4283 -0.649 -0.602 0.465 75 76 71
347.3133 103.0167 -54.4681 -0.602 -0.567 -0.563 57 51 53
322.2932 62.0263 -52.9509 -0.969 -0.077 0.235 69 65 64
270.9394 41.5680 -45.1893 -0.343 -0.938 -0.057 54 53 48
282.3819 41.0971 -47.2858 -0.482 -0.875 -0.053 54 53 48
341.9772 22.4535 -59.3867 -0.857 0.512 0.048 80 74 74
333.9735 -6.4677 -60.0553 -0.126 0.708 0.695 44 44 54
315.5587 -9.9438 -56.9903 -0.082 0.588 0.805 125 130 144
226.1993 -15.7868 -41.3127 -0.453 0.781 0.430 163 170 186
220.5781 -18.3738 -40.4885 -0.549 0.728 0.411 177 184 200
191.3308 -19.8045 -35.3221 -0.830 -0.532 -0.165 183 191 202
190.5430 -20.2340 -35.2115 -0.889 -0.450 -0.083 179 188 197
178.4330 -29.0717 -33.6741 -0.453 0.762 0.463 160 169 176
176.6438 -30.1594 -33.4310 -0.508 0.745 0.432 115 123 134
175.4127 -30.8661 -33.2608 -0.474 0.728 0.494 153 161 174
175.0122 -31.2337 -33.2154 -0.894 0.392 0.218 72 80 93
137.2666 -33.9074 -26.6082 -0.755 0.594 0.279 67 74 92
137.3568 -34.5433 -26.6708 -0.952 -0.282 0.117 76 83 101
137.4474 -34.8673 -26.7108 -0.937 -0.316 0.150 152 159 177
137.5446 -35.5040 -26.7748 -0.912 0.106 0.397 140 150 163
368.3343 334.5425 -42.3888 -0.540 0.337 0.771 58 60 59
381.6037 340.9351 -44.3478 -0.468 0.534 0.704 69 73 72
391.9033 314.8456 -48.1216 -0.736 -0.675 0.048 59 61 58
383.0008 290.9584 -48.2295 -0.639 0.402 0.656 55 56 51
392.7334 289.1199 -50.1399 -0.515 0.672 0.532 67 68 63
376.7739 267.7793 -48.7745 -0.941 -0.152 -0.301 121 126 120
361.9996 228.8408 -48.9025 -0.920 -0.119 0.373 58 63 59
378.5410 229.9316 -51.8436 -0.999 0.006 0.041 43 45 38
377.1782 225.7713 -51.8967 -0.998 -0.045 0.041 68 69 63
377.2225 224.7058 -51.9821 -0.998 -0.045 0.041 60 58 53
374.2669 200.2874 -53.2144 -0.540 0.834 -0.111 77 72 68
385.9683 204.7694 -55.0257 -0.593 0.761 -0.264 74 69 65
326.4839 61.4567 -54.5642 -0.997 0.031 0.073 47 46 42
313.3121 52.0323 -52.8431 -0.964 -0.242 -0.113 55 54 49
295.8679 41.6096 -50.4143 -0.963 0.053 0.264 48 49 43
343.2835 27.6893 -60.0819 -0.822 -0.519 -0.237 34 34 32
326.5878 18.4386 -57.7048 -0.991 -0.102 0.084 64 60 59
336.9284 11.3478 -60.1074 -0.779 0.627 0.019 41 40 41
336.9649 10.5390 -60.1727 -0.793 0.605 -0.078 36 35 41
338.1059 9.8126 -60.4338 -0.786 0.601 -0.147 37 35 45
318.6351 -9.1047 -58.2514 -0.133 0.658 0.741 144 145 158
316.5404 -9.8938 -57.9262 -0.133 0.658 0.741 125 130 144
300.6776 -11.5927 -55.1532 -0.469 0.621 0.628 171 179 192
191.4178 -19.7928 -35.7988 -0.830 -0.532 -0.165 183 191 202
190.4606 -20.2189 -35.6549 -0.865 -0.485 -0.128 178 187 196
178.2664 -23.6808 -33.6796 -0.489 0.594 0.639 160 167 177
137.1614 -33.8963 -26.9157 -0.755 0.594 0.279 51 58 76
137.3166 -34.5409 -26.9908 -0.952 -0.282 0.117 82 89 107
137.3732 -34.8605 -27.0243 -0.952 -0.288 0.101 151 158 176
137.6385 -35.2089 -27.0980 -0.997 -0.061 0.040 134 141 158
137.4809 -35.4988 -27.0903 -0.996 0.003 0.089 137 146 160
366.2614 332.9643 -43.1524 -0.540 0.337 0.771 56 58 57
388.3788 315.8617 -48.4771 -0.837 -0.274 0.474 40 42 39
386.5689 284.7056 -50.3900 -0.593 0.643 0.484 71 72 67
378.8359 275.3245 -49.6364 -0.626 -0.087 0.775 63 64 59
377.7029 260.8449 -50.4714 -0.725 -0.276 -0.632 93 100 93
377.9061 237.5105 -52.1924 -0.847 0.255 -0.467 83 90 83
370.8853 207.0614 -53.0904 -0.394 0.601 0.695 77 78 70
383.3486 207.8858 -55.3362 -0.220 -0.689 0.691 84 82 75
391.4737 208.1171 -56.8223 -0.593 0.761 -0.263 79 78 70
354.0936 171.0023 -52.5859 -0.876 0.332 0.349 105 98 112
395.1459 189.0661 -58.8759 -0.640 -0.660 0.394 115 105 120
387.7231 182.0214 -58.0111 -0.558 0.773 0.302 75 69 77
388.5850 181.3751 -58.2172 -0.671 0.690 0.272 87 81 83
387.1436 179.5765 -58.0804 -0.658 0.699 0.278 93 88 86
301.8705 89.5194 -48.8049 -0.329 -0.863 0.382 56 50 54
312.3750 71.8896 -52.0197 -0.148 -0.550 0.822 55 48 49
347.1561 33.3552 -61.2327 -0.725 -0.638 -0.259 50 49 44
228.6551 -16.2879 -42.8959 -0.533 0.713 0.455 169 176 192
220.3722 -18.3366 -41.5117 -0.552 0.720 0.422 176 183 199
189.6164 -20.1856 -35.9565 -0.811 -0.556 -0.181 179 188 197
137.2612 -34.5365 -27.3081 -0.952 -0.285 0.115 86 93 111
137.2213 -34.8430 -27.3228 -0.933 -0.359 0.029 149 156 174
366.8463 335.0607 -44.1408 -0.535 0.195 0.822 35 40 36
386.6626 295.6946 -50.6764 -0.884 -0.439 -0.161 48 49 44
387.0886 287.7733 -51.3242 -0.551 -0.282 0.786 41 42 37
382.0161 281.5214 -50.8223 -0.596 0.633 0.494 42 43 38
373.6797 260.4605 -50.7710 -0.645 0.155 0.748 74 79 75
386.0123 268.3128 -52.5182 -0.661 -0.718 -0.217 73 80 73
380.3681 252.8730 -52.5681 -0.596 0.731 0.333 34 41 33
391.1601 240.8455 -55.4524 -0.606 0.258 0.752 38 45 37
379.5555 225.5882 -54.3726 -0.709 0.633 0.312 132 132 124
380.1558 224.8633 -54.5371 -0.468 0.734 0.493 131 128 121
