ply
format ascii 1.0
element vertex 859
property float x
property float y
property float z
property float nx
property float ny
property float nz
property uchar diffuse_red
property uchar diffuse_green
property uchar diffuse_blue
end_header
380.5894 52.5709 -7.7749 -0.872 0.372 0.319 89 89 99
362.6556 48.3865 -7.5082 -0.932 0.321 -0.166 123 123 133
382.6018 49.4842 -8.1576 -0.806 0.439 0.397 106 106 116
371.2025 45.5818 -8.1113 -0.263 -0.054 0.963 60 62 74
382.9581 46.2083 -8.4960 -0.996 -0.026 0.090 66 70 82
356.3959 37.9428 -8.3061 -0.586 -0.512 0.628 77 81 93
360.2235 36.4770 -8.5970 -0.606 -0.795 -0.008 76 83 93
368.0262 25.6106 -9.9713 -0.186 -0.952 -0.244 97 106 113
354.5984 19.3492 -10.0819 -0.126 -0.989 0.076 87 96 105
361.5174 14.4150 -10.8343 -0.782 -0.228 -0.580 74 80 93
357.1332 11.0556 -11.0008 -0.615 0.115 0.780 95 98 112
345.6673 8.9678 -10.7721 -0.296 -0.935 0.194 81 85 97
359.5955 6.0975 -11.5862 -0.975 -0.053 -0.214 78 87 94
359.0867 5.5620 -11.6199 -0.984 -0.083 -0.157 77 86 92
323.6396 0.5803 -10.7666 -0.723 -0.395 0.567 61 65 68
359.0953 -5.1408 -12.6817 -0.850 0.362 0.384 51 57 68
328.2952 -4.8263 -11.4798 -0.558 0.425 0.713 55 63 76
338.8870 -7.4212 -12.1398 -0.862 0.500 0.089 38 44 58
334.2899 -8.0590 -12.0283 -0.648 0.574 0.500 35 41 55
332.3948 -8.3943 -11.9895 -0.687 0.595 0.418 34 40 54
330.9758 -8.7582 -11.9717 -0.775 0.537 0.334 37 43 57
310.3468 -17.3714 -12.0418 -0.760 -0.180 -0.624 96 105 118
290.9980 -15.8918 -11.1596 -0.672 -0.161 -0.723 102 113 125
272.4777 -15.0817 -10.3753 -0.537 -0.366 -0.760 112 126 137
322.3780 393.5449 27.3923 -0.789 0.478 0.386 47 51 60
321.2985 389.2394 27.0124 -0.799 0.427 0.423 47 52 58
344.9464 329.2121 20.1685 -0.791 0.607 0.072 92 104 86
338.1176 320.3875 19.5743 -0.791 0.607 0.072 78 91 71
333.1389 302.1688 17.9831 -0.275 -0.560 0.781 58 61 52
324.3322 278.7214 16.0311 -0.802 -0.417 -0.427 70 73 56
331.6518 275.3531 15.4075 -0.760 -0.641 -0.108 65 68 49
303.2189 237.3237 12.8071 -0.830 -0.503 -0.242 70 73 66
361.9138 269.4930 13.6219 -0.831 -0.156 0.534 68 72 50
327.9956 214.0893 9.5336 0.074 -0.314 0.947 53 57 60
425.9652 258.1154 9.9435 -0.718 -0.476 0.507 58 57 62
425.1100 203.1728 4.5787 -0.856 -0.416 -0.308 49 50 54
397.1971 183.6692 3.7780 -0.727 -0.586 -0.358 104 103 108
403.9513 179.3572 3.0843 -0.219 0.359 0.907 167 168 173
378.5604 126.2379 -1.1205 -0.814 0.141 0.563 66 62 76
390.9981 122.4254 -1.9923 -0.205 -0.126 0.971 71 65 80
374.7924 112.3257 -2.3369 -0.326 0.452 0.830 69 68 74
371.0712 105.0771 -2.9004 -0.922 0.166 0.349 41 39 42
368.8274 102.9131 -3.0234 -0.494 0.551 0.673 47 45 48
416.1610 111.8371 -4.0386 -0.849 -0.162 0.503 63 64 66
429.8913 114.8320 -4.2932 -0.506 -0.331 0.797 76 77 79
360.9724 92.0031 -3.7815 -0.358 -0.922 0.145 59 57 68
362.6397 91.7397 -3.8740 -0.285 -0.942 0.176 60 58 69
364.3477 85.1293 -4.5918 -0.566 -0.824 -0.023 87 87 99
365.1042 84.6119 -4.6729 -0.566 -0.824 -0.023 91 90 102
365.8630 84.0929 -4.7543 -0.566 -0.824 -0.023 89 89 99
366.6242 83.5724 -4.8358 -0.566 -0.824 -0.023 45 48 57
360.3354 77.3197 -5.1989 -0.772 0.397 0.496 54 50 65
356.6725 75.8476 -5.1971 -0.754 0.378 0.537 44 41 50
353.2822 57.7389 -6.8410 -0.980 0.128 0.154 53 53 63
353.7802 57.1898 -6.9149 -0.727 0.348 0.592 54 54 64
387.9780 60.4177 -7.9647 -0.598 0.082 0.798 53 53 61
375.3226 57.1922 -7.7758 -0.783 0.048 0.620 63 63 71
374.3656 51.7725 -8.2701 -0.369 -0.037 0.929 76 76 86
380.9543 49.2870 -8.7777 -0.425 -0.240 0.873 95 95 105
395.3210 45.4776 -9.7264 0.073 -0.844 0.532 43 47 59
389.5185 44.2195 -9.6180 -0.925 0.376 -0.052 58 62 74
388.9598 40.8368 -9.9281 -0.974 0.130 -0.186 66 70 82
364.3745 36.2027 -9.4007 -0.596 -0.803 -0.021 65 72 82
365.1168 35.6535 -9.4843 -0.596 -0.803 -0.021 78 85 95
369.4997 34.7673 -9.7466 -0.324 -0.095 0.941 69 76 86
395.0653 32.0523 -11.0354 -0.718 -0.648 0.253 100 106 118
392.2618 31.2286 -11.0042 -0.970 -0.184 0.162 93 99 111
392.3724 30.5842 -11.0720 -0.970 -0.184 0.162 84 90 102
360.8401 26.4313 -10.2196 -0.651 -0.661 0.374 106 113 123
372.0482 23.9683 -10.9097 -0.108 -0.989 0.100 90 99 106
367.5479 22.0173 -10.9215 -0.766 -0.225 -0.602 103 112 119
359.7622 14.9351 -11.3062 -0.839 -0.285 -0.463 85 94 101
358.0162 13.2432 -11.4026 -0.598 -0.616 -0.512 52 56 67
358.2704 12.6887 -11.4673 -0.600 0.103 0.794 50 52 64
355.3156 9.9397 -11.6193 -0.361 -0.865 -0.349 101 104 114
357.4213 7.7391 -11.9197 -0.165 -0.980 0.112 76 83 91
335.0107 4.0237 -11.3889 -0.761 0.573 0.304 98 107 112
322.8454 0.5831 -11.2407 -0.734 -0.387 0.558 61 65 68
326.7725 -0.0570 -11.4606 -0.692 0.034 0.721 56 60 63
359.6913 -5.2114 -13.2830 -0.848 0.341 0.406 46 52 63
328.1802 -5.3224 -12.0343 -0.593 0.447 0.670 24 30 44
361.9655 -11.6529 -14.0069 -0.653 0.602 0.461 46 52 64
310.0690 -14.8765 -12.2491 -0.461 -0.558 -0.690 38 48 60
310.7854 -15.3725 -12.3265 -0.461 -0.558 -0.690 58 68 80
280.1597 -16.4467 -11.2078 -0.950 0.312 0.036 118 134 147
274.3285 -19.1881 -11.2441 -0.996 0.044 -0.072 133 147 160
320.7529 391.5676 26.4036 -0.800 0.469 0.374 43 47 55
297.8806 304.3577 18.8731 -0.776 0.545 0.318 45 46 41
343.0344 322.5238 18.7477 -0.779 0.616 -0.122 67 79 61
300.5099 225.9194 11.1269 -0.463 0.424 0.778 58 59 64
365.2281 224.1769 8.2430 0.268 -0.547 0.793 56 57 51
375.2513 230.1483 8.4039 0.220 -0.569 0.792 59 59 57
425.4260 257.9290 9.0039 -0.718 -0.476 0.507 78 77 82
370.0376 186.0885 4.3334 -0.578 -0.479 0.661 49 49 50
417.8731 192.3242 2.9341 0.175 -0.656 0.734 83 82 87
406.2207 181.5408 2.3731 -0.287 0.479 0.830 112 113 118
402.6195 161.8575 0.6080 -0.202 0.061 0.977 59 57 60
379.5389 130.7198 -1.4552 -0.511 0.565 0.648 119 115 128
376.4078 127.1262 -1.6737 -0.584 0.611 0.534 95 91 105
370.6707 124.2362 -1.7144 -0.784 -0.051 0.618 68 64 78
373.3692 124.4220 -1.8095 -0.676 -0.221 0.703 64 60 74
373.5052 122.8849 -1.9648 -0.707 -0.074 0.703 57 53 67
375.8455 122.9212 -2.0595 -0.661 -0.132 0.738 96 89 105
373.7812 120.6139 -2.1975 -0.690 -0.103 0.717 79 72 90
388.5496 115.9821 -3.2678 -0.763 -0.170 0.624 75 76 81
361.9105 92.2858 -4.4573 -0.263 -0.944 0.199 74 72 83
361.1392 90.6665 -4.5826 -0.372 -0.923 0.099 63 61 72
358.9183 89.3827 -4.6145 -0.953 0.041 -0.300 62 60 69
359.6615 88.8772 -4.6948 -0.968 0.084 -0.236 41 39 50
358.9048 86.5966 -4.8851 -0.939 -0.132 -0.318 31 32 45
364.0770 78.1608 -5.9232 -0.794 0.369 0.483 60 47 72
411.9313 80.0172 -7.7496 -0.057 -0.014 0.998 75 71 72
337.2540 59.9972 -6.5665 -0.534 0.134 0.835 104 108 116
354.9055 59.8996 -7.3163 -0.920 0.196 0.338 71 73 85
354.1105 59.1366 -7.3572 -0.918 0.196 0.346 61 64 73
352.5722 58.2592 -7.3781 -0.826 0.167 0.539 62 65 72
360.4083 45.6250 -8.9367 -0.965 0.024 0.261 64 63 71
405.8563 41.6362 -11.2311 -0.873 0.080 -0.482 64 71 81
386.8435 30.8910 -11.4798 -0.203 -0.107 0.973 101 107 119
391.9157 30.5408 -11.7266 -0.922 -0.206 0.328 92 98 110
358.5631 13.2207 -12.0138 -0.598 -0.616 -0.512 48 51 60
359.3152 12.6665 -12.0993 -0.598 -0.618 -0.510 49 52 62
357.0555 12.1052 -12.0592 -0.617 0.113 0.779 74 77 87
359.5365 9.3355 -12.4329 -0.322 -0.933 -0.158 94 94 102
363.9299 8.1833 -12.7293 -0.496 -0.812 -0.306 82 87 93
359.4878 6.0389 -12.7517 -0.983 -0.075 -0.169 68 78 80
364.1638 -13.4351 -14.8436 -0.358 -0.666 0.655 47 53 65
358.1037 -13.4470 -14.5906 -0.609 -0.771 0.185 46 52 64
321.3049 -11.6897 -12.8762 -0.780 0.587 0.218 55 61 73
312.3857 -11.3231 -12.4664 -0.810 0.559 0.178 55 61 73
287.5796 -16.3090 -11.9114 -0.690 -0.087 -0.718 120 136 151
282.6334 -16.4339 -11.7161 -0.841 0.538 0.046 121 137 152
287.4352 -20.3804 -12.3017 -0.944 0.284 -0.170 133 149 165
179.6491 222.9825 15.4820 -0.650 0.238 0.722 38 42 51
293.3170 260.1279 14.0728 0.107 -0.530 0.841 57 60 51
332.1303 299.3476 16.1504 0.043 -0.833 0.552 67 70 60
358.7393 316.5387 16.6398 -0.781 0.592 0.197 71 73 59
325.9756 277.6521 14.3286 -0.880 -0.037 -0.474 61 63 49
338.1643 232.6703 9.4557 -0.462 0.508 0.727 65 65 73
412.0896 250.2241 7.9023 0.124 -0.675 0.727 73 71 74
404.2763 241.6000 7.4138 -0.684 -0.595 0.421 62 60 61
323.1627 177.3219 4.7771 -0.774 0.001 -0.633 68 68 65
309.3655 165.5168 4.2446 -0.476 -0.098 0.874 53 53 53
386.5540 152.2417 -0.4249 -0.639 -0.509 -0.577 61 59 60
381.7433 135.7503 -1.8040 -0.724 -0.591 -0.357 54 52 57
376.0140 123.0363 -2.7784 -0.679 -0.129 0.723 108 104 120
374.5711 121.7337 -2.8407 -0.684 -0.124 0.719 95 91 108
374.7903 121.0193 -2.9192 -0.681 -0.087 0.727 76 72 89
365.7236 116.3270 -2.9736 -0.963 0.133 0.235 62 55 72
405.4691 126.5353 -3.7344 -0.355 0.169 0.919 61 58 70
402.0979 120.3473 -4.1831 -0.406 -0.876 0.262 95 96 101
370.5133 107.2497 -4.0592 -0.416 0.486 0.769 52 47 53
371.6424 106.8412 -4.1482 -0.428 0.495 0.757 50 45 51
369.6644 104.7347 -4.2645 -0.449 0.532 0.718 49 47 52
363.8357 97.8703 -4.6705 -0.649 -0.637 -0.417 86 85 90
363.5466 97.0649 -4.7354 -0.641 -0.650 -0.409 73 72 77
360.3947 95.4608 -4.7517 -0.811 -0.126 -0.572 81 79 84
360.9880 90.6569 -5.2410 -0.372 -0.923 0.099 78 78 89
360.1274 89.7278 -5.2928 -0.970 0.080 -0.231 84 85 94
360.2208 89.0508 -5.3622 -0.968 0.070 -0.241 77 78 90
361.2757 88.6213 -5.4499 -0.949 0.006 -0.314 74 74 86
366.7085 78.7586 -6.6396 -0.734 0.437 0.520 116 86 98
359.2967 76.4559 -6.5362 -0.748 0.315 0.584 150 66 84
354.2174 63.6174 -7.5512 -0.906 -0.016 0.424 93 98 104
354.1617 60.4186 -7.8572 -0.919 0.198 0.340 82 82 92
352.8726 58.9424 -7.9429 -0.915 0.200 0.350 106 106 116
377.6229 56.1886 -9.2953 -0.309 -0.948 -0.073 56 56 64
374.2350 55.0490 -9.2564 -0.469 -0.063 0.881 99 99 107
372.4777 54.1476 -9.2662 -0.562 -0.107 0.820 114 113 121
373.4488 53.6217 -9.3595 -0.999 0.034 0.002 109 109 117
363.1080 49.6960 -9.2840 -0.999 0.013 0.038 90 90 100
363.0973 49.0638 -9.3445 -0.999 0.013 0.038 83 81 92
367.5061 47.0617 -9.7312 -0.992 0.065 0.106 65 65 75
364.9328 45.5073 -9.7681 -0.981 0.056 0.187 68 69 81
365.5487 44.9481 -9.8490 -0.939 0.237 0.248 76 78 91
401.8829 41.2794 -11.7983 -0.892 0.106 -0.440 146 152 164
392.3000 38.4437 -11.6509 -0.882 -0.133 -0.453 107 113 125
370.2755 31.1142 -11.3906 -0.061 -0.535 0.843 51 57 69
391.6865 30.5105 -12.3890 -0.922 -0.206 0.328 84 90 102
359.9033 20.5685 -11.9521 -0.778 0.173 -0.604 92 99 107
376.2533 15.6625 -13.1431 -0.574 -0.816 -0.064 92 100 103
359.8958 13.7629 -12.6080 -0.410 0.159 0.898 56 59 68
357.5051 9.3227 -12.9312 -0.332 -0.929 -0.166 81 84 93
363.2964 8.7194 -13.2437 -0.492 -0.821 -0.289 77 81 90
358.9897 4.9276 -13.4202 -0.670 -0.479 0.567 76 84 87
359.3267 4.3757 -13.4883 -0.670 -0.479 0.567 82 91 96
362.4453 2.1097 -13.8437 -0.109 -0.735 0.669 52 59 65
366.0796 0.3427 -14.1737 -0.158 -0.198 0.967 63 67 70
365.1668 -5.0566 -14.6543 -0.781 0.403 0.477 55 59 71
366.1718 -6.7288 -14.8597 -0.770 0.337 0.543 36 42 56
358.7097 -7.8513 -14.6402 -0.745 0.613 0.262 25 31 45
352.5146 -7.9580 -14.3785 -0.855 0.442 0.271 26 32 46
368.2397 -12.2213 -15.4801 -0.146 -0.588 0.796 47 52 64
373.5219 -16.9334 -16.1664 -0.357 -0.709 0.608 58 67 81
320.4504 -18.2346 -13.9615 -0.519 -0.495 -0.697 115 129 142
367.5132 351.4171 18.7006 -0.652 -0.207 0.729 24 29 25
292.5628 261.4900 13.5504 -0.999 0.044 -0.005 43 48 41
285.4831 252.9126 13.0560 0.077 -0.731 0.678 54 59 53
307.8420 242.2082 11.0077 -0.952 0.130 -0.278 70 73 64
318.5028 251.1709 11.3746 -0.618 -0.713 -0.330 70 73 64
323.2595 198.5981 6.1350 0.205 -0.450 0.869 51 51 49
350.2321 214.0023 6.3687 -0.140 -0.855 0.500 88 88 86
355.9363 217.0248 6.3957 0.186 -0.453 0.872 92 92 90
409.6982 248.7713 6.9611 0.124 -0.675 0.727 69 67 70
313.7047 168.3121 3.6807 -0.596 -0.089 0.798 60 60 60
352.4248 190.5023 4.0236 -0.612 -0.783 -0.109 58 56 59
364.4329 190.4455 3.4672 -0.420 -0.907 -0.030 53 50 53
412.5897 209.3153 3.0599 -0.541 -0.841 0.027 67 66 71
390.8655 191.2634 2.3325 -0.843 -0.327 -0.427 69 68 73
368.1236 150.1920 -0.5468 -0.944 0.301 0.138 62 61 67
387.2501 145.6524 -1.8580 -0.820 -0.375 -0.433 51 51 51
396.7917 145.1471 -2.3441 -0.444 -0.825 -0.350 72 70 73
408.0311 147.7991 -2.6065 -0.629 -0.638 -0.444 50 48 53
373.1554 122.8719 -3.3871 -0.841 -0.408 0.354 69 65 79
374.6319 122.6030 -3.4805 -0.670 -0.122 0.732 91 87 101
373.4858 121.4072 -3.5422 -0.673 -0.137 0.727 93 89 103
371.5842 119.1730 -3.6683 -0.623 0.216 0.751 62 58 73
401.9333 125.4104 -4.4651 -0.362 0.169 0.917 64 62 73
367.5796 103.4030 -4.9908 -0.413 -0.908 -0.063 56 51 57
360.6276 92.0047 -5.7605 -0.878 -0.257 -0.404 73 73 85
360.2273 91.1914 -5.8198 -0.353 -0.931 0.092 108 108 120
360.1003 90.4533 -5.8845 -0.979 -0.001 -0.203 118 118 130
360.4845 89.8507 -5.9597 -0.963 0.067 -0.261 91 91 101
358.5925 88.6585 -5.9867 -0.954 0.050 -0.295 64 64 76
360.8158 76.8053 -7.2209 -0.908 0.147 0.391 176 21 30
353.1035 73.8091 -7.1532 -0.953 -0.243 -0.179 227 14 23
352.0782 72.9351 -7.1896 -0.953 -0.240 -0.187 215 25 36
349.5463 71.7531 -7.1863 -0.985 -0.136 -0.111 184 38 53
460.0228 93.8778 -10.1421 -0.531 0.467 0.707 158 52 62
454.5370 90.1083 -10.2505 -0.532 0.471 0.704 72 68 74
410.1057 78.9199 -9.2805 -0.341 -0.926 -0.165 50 67 85
353.3102 59.0199 -8.5752 -0.677 -0.649 -0.346 69 69 79
345.1222 55.8571 -8.5016 -0.720 0.073 0.690 59 59 69
374.3347 57.0581 -9.7273 -0.918 -0.023 0.396 65 65 73
374.7098 51.1574 -10.3081 -0.666 -0.098 0.740 73 73 83
365.3717 46.1810 -10.3549 -0.993 0.055 0.101 62 62 72
366.1711 45.6410 -10.4432 -0.940 0.244 0.239 54 56 68
365.9890 44.9914 -10.4968 -0.940 0.244 0.239 69 71 84
376.1707 45.4569 -10.9195 -0.952 0.247 0.182 65 69 81
391.5870 39.0390 -12.2399 -0.867 -0.146 -0.477 72 79 89
369.2925 34.7148 -11.6300 -0.841 0.508 -0.186 94 101 111
364.5197 31.9388 -11.6761 -0.171 -0.528 0.832 59 66 76
368.4802 27.3574 -12.2954 -0.875 -0.105 -0.473 69 76 86
375.4453 22.8281 -13.0476 0.010 -0.973 0.230 69 75 87
361.5249 13.7492 -13.2760 -0.223 -0.959 0.175 53 56 65
364.1785 10.9328 -13.6668 -0.982 -0.089 0.168 69 72 81
354.7959 4.4541 -13.8551 -0.307 -0.393 0.867 59 68 73
354.9687 3.9141 -13.9146 -0.285 -0.396 0.873 51 62 66
357.1858 3.3174 -14.0733 -0.308 -0.519 0.797 43 52 57
364.8092 -5.0747 -15.2246 -0.781 0.403 0.477 55 59 71
365.0628 -6.7010 -15.3916 -0.769 0.332 0.547 34 40 54
367.0322 -12.7000 -16.0549 -0.146 -0.588 0.796 47 55 68
375.2188 -16.5958 -16.8027 -0.183 -0.929 0.321 78 88 100
326.8497 -13.1716 -14.2563 -0.939 0.162 0.304 82 91 106
315.7560 -13.4418 -13.7731 -0.817 0.566 0.110 42 54 68
314.1966 -13.7188 -13.7280 -0.823 0.560 0.095 33 47 60
312.8543 -14.8637 -13.7758 -0.459 -0.514 -0.725 68 82 95
284.6887 -16.7676 -12.6653 -0.886 0.463 0.006 131 147 162
314.5291 380.9594 23.1122 -0.766 0.480 0.429 30 34 33
285.1362 252.7566 12.3919 -0.982 -0.176 -0.064 52 57 54
325.7891 257.1362 10.8607 -0.445 -0.755 -0.481 66 69 60
390.2655 222.0642 4.4574 -0.624 -0.698 -0.352 81 80 85
394.7099 212.4798 3.3381 -0.486 -0.871 0.073 55 50 54
397.6982 213.2481 3.2678 -0.548 -0.830 0.098 74 68 72
383.2695 198.7454 2.5865 -0.994 0.006 -0.113 45 43 46
418.7678 195.1629 0.5487 -0.814 -0.242 -0.529 73 70 77
415.5370 192.4911 0.4506 -0.740 -0.395 -0.544 60 58 63
373.3099 122.1906 -4.1784 -0.402 -0.080 0.912 128 125 136
369.7387 118.5867 -4.3483 -0.626 0.220 0.748 57 54 65
365.2373 116.2622 -4.3528 -0.893 0.214 0.396 69 66 77
359.5761 112.8177 -4.4077 -0.863 0.304 0.404 81 77 91
357.2953 110.5642 -4.5117 -0.870 0.172 0.463 48 48 57
363.4514 104.4138 -5.3881 -0.362 -0.926 -0.110 58 53 59
360.8928 97.8228 -5.8891 -0.414 0.632 0.655 101 99 104
360.9013 94.2424 -6.2282 -0.847 -0.068 -0.527 62 60 65
359.0941 90.2183 -6.5223 -0.846 -0.483 -0.228 122 122 134
384.7251 90.9246 -7.6822 -0.891 0.073 0.448 77 54 85
386.9701 89.9663 -7.8803 -0.932 0.216 0.291 145 143 154
362.8101 83.4644 -7.3390 -0.086 -0.988 0.131 151 152 156
374.0957 81.1334 -8.0996 -0.887 0.363 0.285 168 58 49
349.5128 73.7140 -7.6250 -0.414 -0.689 0.595 229 15 26
356.2579 73.8329 -7.9365 -0.866 -0.498 0.051 161 34 44
353.3311 72.5586 -7.9170 -0.937 -0.283 -0.203 109 40 50
356.1135 65.2680 -8.7398 -0.809 0.200 0.553 69 74 80
353.7334 64.1927 -8.7276 -0.856 -0.139 0.498 68 71 78
353.7992 63.5630 -8.7903 -0.856 -0.139 0.498 78 81 88
379.4960 55.7818 -10.7562 -0.938 -0.199 0.284 56 56 64
374.8734 54.4770 -10.6583 -0.982 0.164 0.096 71 70 78
372.9314 52.2402 -10.7770 -0.645 -0.047 0.762 58 58 68
366.8091 49.5206 -10.7413 -0.746 -0.040 0.665 74 74 84
366.7904 48.8799 -10.8010 -0.746 -0.040 0.665 83 83 93
367.8968 47.7370 -10.9620 -0.644 -0.082 0.761 93 93 103
367.8127 47.0901 -11.0192 -0.639 -0.076 0.766 86 86 96
365.8182 44.9679 -11.1245 -0.861 0.356 0.364 61 63 75
390.6945 40.9515 -12.6949 -0.955 0.191 -0.229 123 129 140
388.6764 38.7861 -12.8032 -0.958 0.183 -0.222 130 137 147
363.5064 31.8571 -12.2540 -0.176 -0.521 0.835 119 126 136
361.9036 10.3498 -14.2117 -0.951 0.033 0.307 56 59 68
346.6957 7.2393 -13.7781 -0.018 -0.765 0.644 54 61 67
355.6981 4.4012 -14.4774 -0.952 -0.296 -0.085 52 63 67
356.7494 3.2978 -14.6321 -0.884 -0.467 -0.025 66 75 80
356.5779 2.7653 -14.6743 -0.498 -0.726 0.474 75 85 87
356.9940 2.2158 -14.7462 -0.367 -0.920 -0.139 83 91 94
359.9872 1.0390 -15.0007 -0.304 -0.947 -0.100 55 59 61
363.0587 -0.7022 -15.3124 -0.192 -0.892 0.408 53 57 58
330.8124 -1.8069 -13.8737 -0.841 -0.233 0.488 43 47 50
330.9174 -2.2928 -13.9247 -0.841 -0.233 0.488 36 39 44
365.3779 -5.6829 -15.8946 -0.310 -0.215 0.926 50 56 70
365.6182 -6.2353 -15.9583 -0.349 -0.187 0.918 41 47 61
360.0496 -9.5875 -16.0089 -0.639 0.551 0.537 17 23 37
358.8797 -10.0246 -15.9943 -0.247 -0.536 0.807 14 20 34
359.8271 -10.6138 -16.0953 -0.247 -0.536 0.807 13 19 33
358.2489 -11.0137 -16.0576 -0.521 -0.555 0.649 27 33 47
357.0302 -11.4351 -16.0392 -0.639 0.531 0.557 37 45 61
354.3773 -13.2580 -16.0846 -0.495 -0.512 0.702 75 87 101
314.0460 -15.4548 -14.3623 -0.443 -0.626 -0.642 100 114 127
305.0699 409.3172 25.3976 -0.196 -0.590 0.783 35 42 50
308.5962 413.6291 25.6258 -0.068 -0.491 0.868 45 52 60
310.0896 413.1896 25.5102 -0.153 -0.686 0.711 67 71 80
309.6382 371.6058 21.6375 -0.777 0.432 0.457 30 35 31
355.7327 313.0566 13.8560 -0.815 0.544 0.198 53 57 42
333.0376 255.8045 9.6242 -0.851 0.246 -0.464 53 54 59
320.5639 213.6865 6.3006 -0.646 -0.753 -0.123 62 61 67
342.9003 227.1692 6.4504 -0.858 -0.230 -0.459 57 56 62
343.3465 216.9732 5.4731 -0.704 -0.651 0.283 57 57 55
296.6655 181.4681 4.4737 -0.854 0.461 -0.239 41 41 39
395.2397 212.9360 2.5088 -0.575 -0.471 -0.669 34 28 32
398.9688 214.1466 2.4364 -0.474 -0.880 -0.021 43 37 41
408.2312 213.3673 1.9018 -0.807 -0.579 -0.114 53 51 54
431.7809 200.8932 -0.4403 -0.775 -0.308 -0.552 75 73 77
426.2915 197.0476 -0.5270 -0.809 -0.278 -0.518 62 60 63
381.7454 165.3793 -1.2734 -0.898 -0.439 0.019 49 45 50
394.7906 153.3518 -3.0501 -0.440 -0.825 -0.354 71 69 72
386.4580 147.2057 -3.2105 -0.814 -0.381 -0.437 110 108 111
386.8361 146.4959 -3.2959 -0.814 -0.381 -0.437 80 78 81
386.5192 142.9172 -3.6153 -0.610 -0.615 -0.500 77 75 78
413.3850 148.2086 -4.4585 0.215 -0.657 0.722 51 49 54
364.5179 123.0015 -4.3844 -0.885 0.026 0.465 85 82 93
370.3960 122.7868 -4.6974 -0.250 -0.798 0.549 79 76 85
370.3168 119.6202 -4.9901 -0.461 -0.027 0.887 94 92 103
369.7475 118.6424 -5.0533 -0.627 0.139 0.766 41 39 50
399.9590 125.7066 -5.8972 0.243 -0.879 0.410 120 118 127
389.4798 99.8120 -7.8005 -0.980 -0.164 -0.117 144 144 156
387.9706 97.8631 -7.9079 -0.271 -0.839 -0.471 101 101 113
394.3253 98.7543 -8.1411 -0.252 -0.856 -0.451 72 72 82
393.8178 93.1804 -8.6379 -0.935 0.335 0.120 66 54 76
361.1928 82.4121 -8.0207 -0.490 -0.785 -0.380 124 138 127
358.6537 80.4457 -8.0783 -0.324 -0.941 -0.101 137 124 125
362.0986 79.8638 -8.3045 -0.322 -0.941 -0.105 156 70 71
366.2610 80.1103 -8.4889 -0.524 -0.798 -0.297 190 40 39
356.8529 73.9758 -8.5946 -0.968 -0.114 0.224 119 57 74
355.3210 72.9903 -8.6106 -0.829 -0.528 -0.185 98 76 90
355.1423 72.2919 -8.6671 -0.835 -0.523 -0.171 72 69 79
350.7132 66.2138 -9.0157 -0.492 -0.653 0.575 47 51 60
354.9074 63.1263 -9.5140 -0.883 0.071 0.465 86 91 97
364.0030 61.4232 -10.1268 -0.969 -0.143 0.204 70 70 80
364.8013 60.2407 -10.2773 -0.970 -0.126 0.207 56 56 66
365.4690 59.6912 -10.3621 -0.962 -0.077 0.263 56 56 66
375.7565 57.2705 -11.1015 -0.931 -0.026 0.363 52 52 60
374.9276 53.8225 -11.3832 -0.983 0.156 0.098 64 64 74
374.3442 51.1087 -11.6083 -0.921 -0.390 0.004 67 70 79
378.7371 50.9975 -11.8376 -0.872 -0.490 -0.003 87 87 97
376.4314 48.7385 -11.9343 -0.883 -0.468 0.045 144 144 154
380.3990 48.5420 -12.1505 -0.887 -0.455 0.076 121 124 133
360.3443 43.7466 -11.6002 -0.935 0.169 0.311 75 79 90
402.7717 43.4043 -13.7467 0.068 -0.873 0.483 122 126 137
403.5092 40.6960 -14.0371 -0.016 -0.173 0.985 134 141 149
377.4434 36.5696 -13.1246 -0.299 0.215 0.930 123 130 138
369.3858 34.6970 -12.8985 -0.311 0.221 0.924 116 123 131
378.9714 28.4830 -13.9583 -0.944 0.046 0.326 121 128 136
365.5143 11.4426 -14.8838 -0.951 0.213 -0.224 59 62 71
361.5093 10.8835 -14.7366 -0.969 0.163 0.187 59 62 71
355.7604 4.3686 -15.0603 -0.952 -0.296 -0.085 74 85 89
356.4175 3.2752 -15.1955 -0.889 -0.457 -0.030 90 99 104
360.1345 1.5415 -15.5431 -0.320 -0.930 -0.182 49 54 58
360.9878 0.4282 -15.6899 -0.627 -0.377 0.682 49 53 57
370.2595 -2.1411 -16.3927 -0.175 -0.838 0.517 64 68 71
330.6270 -2.3108 -14.4334 -0.841 -0.233 0.488 31 36 42
330.4039 -2.7786 -14.4662 -0.848 -0.230 0.477 36 40 50
364.6831 -6.2191 -16.4967 -0.335 -0.194 0.922 41 47 61
358.0789 -10.5244 -16.5709 -0.247 -0.536 0.807 13 21 34
356.9756 -10.9575 -16.5565 -0.237 -0.528 0.816 29 37 50
354.7067 -11.2951 -16.4750 -0.630 0.465 0.622 42 53 67
305.9848 411.2481 24.6783 -0.925 -0.036 -0.379 34 41 49
354.2742 311.8298 12.9553 -0.822 0.537 0.190 49 52 41
258.4639 166.8713 4.4753 -0.275 0.246 0.930 56 57 62
340.1613 225.2401 5.6556 -0.888 -0.180 -0.424 60 59 65
335.6829 218.0528 5.2210 -0.917 0.137 -0.374 53 53 53
384.4191 211.5431 2.0919 -0.631 0.445 0.636 58 56 61
390.6673 214.3821 2.0315 0.091 -0.280 0.956 53 48 52
401.3780 213.6500 1.4086 -0.581 -0.814 0.022 149 143 147
426.5344 198.3333 -1.3155 -0.712 0.056 0.700 102 100 104
390.2813 151.5169 -3.7791 -0.696 -0.701 -0.154 66 64 67
386.6658 147.3680 -3.9766 -0.370 -0.924 -0.097 66 64 67
386.0804 146.2581 -4.0492 -0.840 -0.456 -0.295 60 58 61
385.1121 140.7142 -4.5132 0.166 -0.609 0.776 74 72 75
398.1196 144.1245 -4.8709 0.172 -0.608 0.775 66 64 69
378.1587 128.0649 -5.3261 -0.316 -0.799 0.512 78 75 84
370.5379 122.8940 -5.4108 -0.246 -0.797 0.551 78 75 84
368.9685 121.5458 -5.4545 -0.461 -0.022 0.887 82 79 88
369.2053 120.8471 -5.5316 -0.461 -0.027 0.887 117 115 126
414.7579 123.7173 -7.6257 -0.328 -0.862 -0.386 126 129 134
367.0647 103.3689 -7.0417 -0.535 -0.710 -0.459 84 79 85
368.4206 103.0293 -7.1435 -0.540 -0.706 -0.458 78 73 79
391.6098 99.6367 -8.6597 -0.810 -0.268 -0.521 134 134 146
402.8794 98.6172 -9.3382 -0.240 -0.873 -0.424 98 99 110
408.7508 99.2981 -9.5793 -0.279 -0.834 -0.477 98 87 105
396.6981 94.6952 -9.3817 -0.915 0.386 0.120 72 62 83
402.7095 93.8049 -9.7757 -0.925 0.357 -0.131 81 109 101
357.3769 74.7730 -9.1919 -0.952 -0.305 0.005 150 102 122
357.3912 74.1069 -9.2544 -0.983 -0.105 0.152 133 110 129
360.8547 72.8137 -9.5539 -0.859 -0.392 0.330 114 137 143
351.5158 66.3773 -9.6669 -0.484 -0.642 0.594 88 95 102
352.3615 65.8925 -9.7557 -0.427 -0.679 0.597 89 96 102
383.8685 68.2119 -11.1731 0.046 -0.916 0.398 72 77 83
364.8859 58.2973 -11.1091 -0.965 -0.081 0.249 63 63 73
379.3462 55.0901 -12.1558 -0.917 0.132 0.377 82 81 89
381.4282 51.3293 -12.6125 -0.880 -0.459 0.121 75 78 87
377.9701 48.9165 -12.6571 -0.884 -0.465 0.045 151 154 161
361.5065 44.4864 -12.2149 -0.950 0.032 0.309 81 85 94
367.6338 34.5535 -13.4537 -0.311 0.221 0.924 107 114 122
369.1467 26.1336 -14.3130 -0.875 -0.055 -0.480 75 81 93
369.5802 24.9507 -14.4452 -0.852 0.037 -0.521 90 96 110
374.3535 12.5838 -15.8395 -0.128 -0.807 0.576 52 55 64
362.3546 4.7269 -15.9465 -0.782 -0.393 0.484 59 68 73
354.1292 3.8423 -15.6023 -0.950 -0.294 -0.105 59 67 73
356.2774 3.2473 -15.7688 -0.886 -0.463 -0.014 56 63 69
356.9768 2.6889 -15.8568 -0.320 -0.930 -0.182 51 59 62
360.4905 0.9540 -16.1998 -0.345 -0.927 -0.145 46 49 55
365.6280 -0.3284 -16.5849 -0.665 -0.329 0.671 46 49 55
369.7394 -2.1544 -16.9673 -0.148 -0.848 0.510 62 65 72
331.7574 -1.4357 -14.9326 -0.319 -0.777 0.543 45 48 55
364.6703 -6.7936 -17.1349 -0.328 -0.212 0.920 42 48 62
340.1774 -13.0979 -16.4505 -0.757 0.507 0.413 113 125 141
339.6614 -13.5311 -16.4640 -0.719 0.437 0.540 113 125 141
339.1883 -13.9657 -16.4797 -0.714 0.430 0.552 111 123 137
319.1869 -17.8216 -15.8010 -0.323 -0.706 -0.631 132 146 159
308.3111 415.4862 24.0865 -0.930 -0.057 -0.362 33 37 46
313.0091 418.7869 24.1368 -0.199 -0.736 0.647 77 81 90
358.2939 324.7845 13.0689 -0.381 0.257 0.888 44 53 52
335.1060 264.3088 8.7633 -0.832 -0.146 0.535 56 57 60
330.5584 259.0901 8.5288 -0.660 -0.239 0.713 55 56 63
349.7382 233.7292 5.1682 -0.439 -0.248 0.863 95 94 100
303.3990 184.9623 3.1833 -0.480 0.553 0.681 48 48 46
385.2038 231.7100 3.0747 0.133 -0.278 0.951 69 67 68
402.7555 239.2076 2.8189 -0.021 -0.005 1.000 51 50 56
383.6252 220.2987 2.1118 0.113 -0.284 0.952 62 63 68
382.3832 218.4786 2.0115 0.119 -0.286 0.951 62 63 67
387.4575 208.5204 0.8241 -0.785 -0.284 0.551 89 83 87
394.8900 211.9769 0.7416 -0.409 -0.904 0.123 102 96 100
408.7043 213.9137 0.1762 -0.815 -0.569 -0.109 84 82 85
425.9196 195.0067 -2.4861 -0.598 -0.645 -0.475 62 60 63
405.1287 165.3611 -4.0897 -0.809 -0.524 0.265 69 67 72
397.6654 158.3656 -4.3305 -0.968 -0.214 0.134 70 68 71
404.3013 140.3756 -6.3394 -0.084 -0.760 0.644 68 65 72
385.8311 130.1092 -6.2884 -0.811 -0.547 0.208 74 71 80
368.0466 117.3833 -6.5001 -0.694 -0.023 0.720 69 67 78
365.7022 115.8089 -6.5185 -0.678 0.068 0.732 76 74 85
395.2492 123.3940 -7.4117 0.242 -0.875 0.420 115 115 123
363.1954 105.1992 -7.3579 -0.644 -0.684 -0.342 84 79 85
366.6661 104.7786 -7.5832 -0.501 -0.813 -0.298 54 47 54
366.8733 103.3517 -7.7254 -0.387 -0.899 -0.205 70 65 71
367.5696 102.0729 -7.8803 -0.407 0.624 0.667 46 41 47
362.7930 97.0283 -8.0865 -0.685 -0.606 -0.404 84 82 87
362.6621 96.2687 -8.1492 -0.817 -0.303 -0.490 84 82 87
391.1263 103.4645 -9.0199 -0.764 -0.367 -0.531 98 96 101
392.0411 99.7857 -9.4069 -0.810 -0.268 -0.521 85 85 97
395.5081 93.6524 -10.1566 -0.934 0.343 0.100 39 66 61
402.2597 92.9360 -10.5856 -0.924 0.361 -0.126 83 85 73
396.9221 90.8892 -10.4864 -0.993 -0.100 -0.065 93 69 59
394.4197 89.5308 -10.4765 -0.997 -0.054 0.049 105 51 43
406.3898 90.7409 -11.0094 -0.612 0.308 0.728 218 42 29
368.3922 79.9302 -9.9578 -0.883 0.268 0.385 201 30 25
353.4106 74.6079 -9.6405 -0.192 -0.981 0.008 99 79 86
357.2925 74.1037 -9.8956 -0.983 -0.105 0.152 80 67 82
356.8820 72.6839 -10.0039 -0.835 -0.518 -0.184 90 102 108
360.3766 72.7324 -10.1875 -0.854 -0.396 0.337 103 121 125
351.9641 66.4741 -10.3095 -0.384 -0.677 0.628 92 97 103
353.8830 64.8953 -10.5577 -0.431 -0.677 0.597 73 78 84
388.4194 68.3039 -12.1028 0.040 -0.922 0.386 75 79 86
406.2932 66.8959 -13.1937 -0.871 -0.092 0.483 62 60 71
388.9369 63.4093 -12.5801 -0.764 0.267 0.587 67 67 77
381.7341 61.5805 -12.3605 -0.714 0.242 0.657 67 67 77
379.7841 50.4569 -13.2770 -0.929 -0.358 0.094 69 73 82
377.3797 49.5032 -13.2352 -0.946 -0.319 0.054 79 82 91
377.9398 48.9097 -13.3198 -0.884 -0.465 0.045 88 91 98
379.4113 48.4204 -13.4439 -0.683 -0.118 0.720 94 97 104
380.4583 47.8781 -13.5501 -0.711 -0.264 0.652 89 94 100
359.7272 43.6699 -12.8211 -0.918 0.001 0.396 79 83 92
377.6717 41.6969 -13.9677 -0.461 -0.887 0.019 64 69 75
361.7232 28.7177 -14.3015 -0.350 0.121 0.929 115 122 130
368.5940 17.1896 -15.7297 -0.769 -0.111 -0.630 73 81 84
353.0500 14.6904 -15.1229 -0.067 -0.963 0.262 116 124 127
374.6832 11.9690 -16.5367 -0.071 -0.848 0.525 58 61 70
364.8984 10.8200 -16.1157 -0.349 0.164 0.923 58 61 70
365.0745 5.1908 -16.6421 -0.740 -0.399 0.541 64 71 77
361.2556 4.7204 -16.4798 -0.785 -0.392 0.480 55 61 67
355.9577 3.2245 -16.3322 -0.885 -0.466 -0.020 45 50 56
357.2824 2.6474 -16.4564 -0.353 -0.922 -0.160 38 43 49
358.0670 2.0838 -16.5504 -0.318 -0.936 -0.153 39 44 50
357.9240 1.0116 -16.6412 -0.305 -0.929 -0.211 40 44 53
365.8996 -0.3740 -17.1975 -0.672 -0.316 0.670 42 46 56
368.6914 -2.1442 -17.5102 -0.181 -0.845 0.503 51 55 65
369.0233 -2.7113 -17.5801 -0.256 -0.565 0.784 47 51 62
330.9965 -1.4317 -15.4168 -0.313 -0.771 0.555 43 47 58
383.6939 -9.6916 -19.0104 -0.988 0.155 -0.003 34 40 54
356.7477 -11.0213 -17.6828 -0.733 0.585 0.345 40 50 62
339.7827 -13.1033 -16.9612 -0.609 0.396 0.687 109 121 135
230.3639 -18.7551 -11.5934 -0.368 -0.848 0.381 157 167 176
230.0898 -18.9719 -11.5986 -0.500 -0.735 0.459 159 169 178
234.2798 -20.2715 -11.9434 -0.407 -0.825 0.392 161 171 180
234.8031 -20.6396 -12.0053 -0.854 0.417 0.313 162 172 181
234.3534 -21.3675 -12.0480 -0.860 0.383 0.337 159 173 186
309.3972 416.2671 23.2313 -0.938 -0.092 -0.333 68 71 80
310.7893 417.0886 23.2283 -0.942 -0.085 -0.325 80 83 92
310.9383 415.8892 23.1109 -0.942 -0.085 -0.325 82 86 95
316.8212 419.5421 23.1148 -0.152 -0.123 0.981 44 48 57
336.5381 305.5968 11.6575 -0.238 -0.903 0.358 43 49 47
285.5683 190.8021 4.0663 -0.550 -0.803 -0.230 61 62 67
357.9909 214.3577 2.1673 0.150 -0.624 0.767 69 67 68
382.0613 222.5008 1.5646 -0.709 -0.542 0.451 111 112 117
385.2879 209.3446 0.1888 -0.656 -0.700 0.281 96 90 94
382.8390 206.8597 0.0995 -0.596 -0.784 0.172 90 84 88
408.3462 214.8938 -0.5932 -0.811 -0.577 -0.097 122 120 123
408.8841 214.1546 -0.6904 -0.811 -0.577 -0.097 101 99 102
411.9286 178.1846 -4.1298 -0.527 0.018 0.850 53 48 54
414.4793 170.5962 -4.9619 -0.828 0.249 0.502 83 81 86
427.6617 173.5188 -5.4316 -0.895 -0.183 0.408 66 64 67
395.1347 151.0524 -5.6592 -0.712 -0.666 -0.223 92 90 93
389.6733 130.7298 -7.2018 -0.741 -0.611 0.280 72 69 76
367.6518 117.2992 -7.1941 -0.358 -0.873 0.332 106 104 115
364.9475 115.6017 -7.1975 -0.678 0.068 0.732 106 104 115
363.7706 105.4195 -8.0574 -0.652 -0.678 -0.341 62 57 63
371.4223 106.2697 -8.4070 -0.541 -0.770 -0.338 69 64 70
364.7240 103.4869 -8.2863 -0.285 -0.948 -0.143 65 60 66
363.0908 97.1480 -8.7714 -0.685 -0.606 -0.404 60 58 63
387.4840 101.7089 -9.7176 -0.597 -0.541 -0.593 78 76 81
389.9207 100.8151 -9.9348 -0.598 -0.572 -0.562 52 50 61
396.7487 101.0740 -10.2921 -0.756 -0.290 -0.586 56 56 68
396.1754 100.1289 -10.3461 -0.758 -0.287 -0.586 52 52 64
354.6465 87.0904 -9.2145 -0.788 -0.327 -0.522 80 79 92
398.1965 93.5574 -11.0562 -0.940 0.244 0.240 124 142 130
357.1331 74.7574 -10.4742 -0.983 -0.105 0.152 112 101 100
359.8190 72.6348 -10.8170 -0.426 -0.261 0.866 108 111 116
360.0412 70.0035 -11.0686 -0.406 -0.167 0.899 74 66 72
352.3696 66.5629 -10.9534 -0.984 0.133 -0.118 65 66 74
353.3996 66.1096 -11.0520 -0.956 0.260 0.135 60 63 72
388.4348 68.3166 -12.8059 0.049 -0.924 0.379 90 90 100
406.2220 66.8917 -13.9277 -0.873 -0.096 0.478 73 71 82
363.0887 57.3819 -12.3859 -0.918 -0.130 0.375 104 102 113
365.7739 55.8314 -12.6766 -0.038 -0.999 -0.026 80 79 87
382.1697 50.7453 -14.0536 -0.945 -0.327 -0.028 70 75 81
380.3388 49.8549 -14.0324 -0.975 -0.078 0.209 62 66 75
380.6712 49.2279 -14.1079 -0.970 -0.083 0.228 75 80 86
378.7530 48.3406 -14.0816 -0.683 -0.118 0.720 81 86 92
379.8936 47.8098 -14.1935 -0.636 -0.084 0.767 79 84 90
375.6452 46.6748 -14.0596 -0.752 -0.252 0.610 78 83 89
375.5147 42.7708 -14.4072 -0.005 -0.961 0.275 102 107 113
383.3643 40.2597 -15.0734 -0.460 -0.883 -0.095 164 171 177
380.1190 39.3236 -14.9774 -0.718 0.138 0.682 151 158 166
367.9783 17.7395 -16.2621 -0.754 -0.111 -0.648 68 76 79
346.8402 16.2267 -15.2203 -0.876 -0.414 -0.249 85 93 96
352.0829 14.6558 -15.6556 -0.071 -0.961 0.268 130 138 141
372.1239 11.9380 -17.0207 -0.075 -0.869 0.489 48 51 60
364.9867 11.3603 -16.6750 -0.377 0.209 0.902 56 59 68
400.9578 8.1670 -18.9720 -0.011 -0.211 0.977 60 63 72
358.5278 4.7515 -16.9154 -0.165 -0.584 0.795 63 66 73
356.5608 3.1754 -16.9490 -0.589 -0.575 0.568 55 58 65
333.6803 -2.5682 -16.1946 -0.348 -0.757 0.553 42 46 58
334.7841 -3.1133 -16.3057 -0.603 -0.371 0.706 41 47 59
356.2755 -10.5111 -18.1771 -0.734 0.589 0.336 30 40 52
355.8769 -10.9953 -18.1989 -0.734 0.589 0.336 44 56 68
339.2249 -13.0942 -17.4607 -0.609 0.396 0.687 121 133 147
241.1604 -15.2494 -12.1859 -0.374 -0.756 0.537 155 164 179
235.9414 -18.6816 -12.2068 -0.572 0.635 0.519 151 161 171
232.6270 -18.9229 -12.0438 -0.644 0.607 0.465 158 168 178
234.5680 -20.9018 -12.3319 -0.538 0.457 0.708 166 176 186
234.0621 -21.0773 -12.3197 -0.554 0.454 0.698 164 176 188
233.6841 -21.2752 -12.3166 -0.575 0.452 0.682 158 172 185
310.7447 416.0222 22.2616 -0.941 -0.034 -0.338 99 102 109
316.5659 384.5225 19.0912 -0.588 -0.552 0.592 26 30 29
308.6495 294.1939 11.4217 -0.849 -0.079 -0.523 44 47 37
328.9570 300.0290 10.7734 -0.682 -0.727 0.081 34 40 40
307.0747 213.3478 4.2389 -0.651 0.749 0.121 72 72 81
381.0126 226.0741 1.1120 0.135 -0.585 0.800 115 115 117
398.5750 172.8905 -4.6876 -0.830 -0.279 0.482 74 69 75
406.1707 173.6266 -5.0603 -0.268 -0.500 0.823 89 84 90
388.9352 163.7191 -4.9559 -0.916 -0.080 0.394 73 71 76
391.3193 162.9974 -5.1585 -0.990 -0.127 -0.054 62 60 65
410.1952 167.8058 -5.8165 -0.825 -0.358 -0.438 141 139 144
427.2824 173.4451 -6.2963 -0.895 -0.183 0.408 63 61 64
411.6674 165.5946 -6.1005 -0.963 -0.178 0.202 67 65 68
389.9199 153.3748 -5.9434 -0.384 0.051 0.922 77 75 78
388.8795 152.0415 -6.0033 -0.387 0.034 0.921 71 69 72
396.1685 154.2591 -6.2249 -0.386 -0.918 0.093 65 63 66
388.5064 138.8403 -7.1694 0.169 -0.668 0.724 77 75 80
363.6529 122.9129 -7.1665 -0.185 -0.766 0.616 63 60 69
365.3236 118.8606 -7.6276 -0.437 -0.891 0.121 91 90 98
364.9993 117.2052 -7.7578 -0.376 -0.875 0.305 56 55 63
366.3386 116.8986 -7.8628 -0.364 -0.877 0.313 72 71 79
364.6723 114.7941 -7.9559 -0.717 0.002 0.697 59 56 69
361.7444 104.8340 -8.6828 -0.309 -0.691 0.654 58 53 59
364.8291 103.5592 -8.9757 -0.285 -0.948 -0.143 89 84 90
400.9265 101.4178 -11.2540 -0.713 -0.358 -0.603 121 122 134
404.7261 100.7995 -11.5291 -0.744 -0.380 -0.550 102 104 117
351.1035 86.2080 -9.7438 -0.750 -0.222 -0.623 132 133 146
408.6823 96.9427 -12.1047 -0.890 0.352 0.289 144 142 138
409.5938 93.9341 -12.4280 -0.830 0.088 0.551 168 22 43
358.6671 77.1314 -10.9974 -0.847 0.068 0.528 75 68 70
357.6420 72.8740 -11.3213 -0.983 -0.129 0.134 106 92 105
359.7420 72.6353 -11.4641 -0.418 -0.262 0.870 131 123 131
358.7894 71.7720 -11.4867 -0.397 -0.292 0.870 126 127 131
358.1424 68.9847 -11.7001 -0.395 -0.131 0.909 57 48 56
389.5097 67.7945 -13.6195 0.064 -0.965 0.256 83 82 93
399.5682 67.3017 -14.2449 -0.121 -0.977 0.175 166 164 175
401.3298 65.3797 -14.5196 -0.973 0.225 0.058 76 74 85
366.4562 58.5533 -13.1190 -0.990 0.136 0.030 103 101 112
384.8171 51.7440 -14.7924 -0.869 -0.495 0.004 83 88 94
384.3344 51.0068 -14.8309 -0.882 -0.471 -0.035 130 135 141
381.5171 49.9933 -14.7593 -0.944 0.009 0.331 150 154 163
380.5215 49.2071 -14.7725 -0.951 -0.128 0.283 149 154 160
379.5227 48.4259 -14.7851 -0.689 0.012 0.725 130 135 141
369.1191 44.0311 -14.5794 -0.599 -0.795 -0.095 140 145 151
374.6042 42.6732 -15.0185 -0.509 -0.859 -0.057 104 108 117
359.2488 33.2916 -14.9754 -0.547 -0.807 -0.221 126 133 141
358.3347 32.6299 -14.9821 -0.572 -0.790 -0.220 133 140 148
368.2543 24.2376 -16.3103 -0.793 -0.576 -0.198 128 135 146
368.6012 20.6778 -16.6506 -0.785 -0.594 -0.177 62 69 77
362.0578 13.5984 -16.9095 -0.083 -0.960 0.267 68 71 80
361.3494 13.0277 -16.9199 -0.163 -0.900 0.404 59 62 71
367.3172 11.9050 -17.3657 -0.077 -0.901 0.426 41 44 53
391.1701 8.2332 -19.0742 -0.013 -0.207 0.978 55 56 65
337.2898 1.1828 -16.5955 -0.616 -0.202 0.762 42 49 59
342.5311 -4.0648 -17.3705 -0.480 -0.377 0.792 42 48 62
338.9867 -12.6341 -17.9367 -0.609 0.396 0.687 122 136 149
315.6209 -14.9578 -16.7957 -0.712 -0.579 0.397 100 114 127
316.4229 -15.4744 -16.8886 -0.847 -0.002 0.532 141 155 168
316.0300 -17.5844 -17.0557 -0.866 0.488 0.112 146 160 173
247.1376 -16.4737 -12.9754 -0.696 -0.677 0.240 154 163 178
247.4619 -16.8246 -13.0257 -0.696 -0.677 0.240 155 164 179
247.3340 -17.4074 -13.0708 -0.703 -0.697 0.138 165 174 189
246.8313 -18.2267 -13.1155 -0.867 0.498 0.030 155 164 179
245.8987 -18.3740 -13.0748 -0.825 0.565 0.012 149 158 173
245.7159 -18.6403 -13.0882 -0.825 0.565 0.012 148 157 172
244.2785 -18.9912 -13.0367 -0.823 0.568 0.014 155 163 176
239.9541 -18.8409 -12.7734 -0.886 0.463 -0.020 160 168 179
236.7350 -18.8525 -12.5884 -0.749 0.594 0.293 163 173 183
236.1273 -19.0248 -12.5688 -0.746 0.596 0.299 165 175 187
235.3033 -19.7066 -12.5826 -0.879 0.232 0.417 166 176 188
235.2256 -19.9669 -12.6015 -0.879 0.232 0.417 167 177 189
234.6738 -20.4126 -12.6097 -0.510 0.501 0.699 164 175 185
234.4395 -20.6411 -12.6167 -0.538 0.448 0.714 164 177 186
234.1774 -20.8633 -12.6216 -0.536 0.453 0.712 165 177 189
233.7188 -21.0472 -12.6116 -0.554 0.454 0.698 179 191 203
299.7702 404.2446 20.9954 -0.977 0.020 -0.210 36 39 48
311.4058 417.5400 21.4838 -0.961 0.010 -0.276 120 123 132
311.1916 412.8778 21.0814 -0.947 -0.067 -0.314 57 60 67
318.7257 423.4783 21.5750 -0.935 -0.107 -0.339 40 43 48
336.4628 309.5363 10.3692 -0.807 0.243 -0.537 36 40 39
322.6826 266.7432 7.3824 -0.831 -0.435 -0.346 59 64 68
307.8861 208.0334 3.0391 -0.453 -0.883 -0.125 87 86 94
295.4787 182.8225 1.5359 -0.062 -0.383 0.921 49 49 47
416.6577 260.5664 1.2157 -0.247 0.331 0.911 50 49 47
343.4396 199.2249 0.1298 -0.200 0.039 0.979 105 106 110
361.6189 188.7139 -1.8927 -0.902 -0.219 -0.372 87 82 86
423.1057 174.6654 -6.8185 -0.811 -0.569 0.137 85 83 88
427.7871 174.7634 -7.0896 -0.889 -0.405 -0.213 96 94 97
404.6347 161.6609 -6.8725 -0.842 -0.158 0.517 87 85 88
391.4624 151.4479 -6.9946 -0.374 -0.920 0.119 63 63 65
375.9042 141.4962 -6.9508 -0.354 0.216 0.910 77 75 78
389.4401 137.5563 -8.1107 -0.187 0.138 0.973 79 77 82
401.2941 139.4483 -8.6507 0.189 -0.674 0.714 60 57 66
365.1475 118.8522 -8.3242 -0.437 -0.891 0.121 71 69 80
369.7813 118.9185 -8.5953 -0.319 -0.921 0.225 47 45 56
370.8758 118.5149 -8.6966 -0.319 -0.921 0.225 59 57 68
362.9088 115.0056 -8.5329 -0.658 -0.039 0.752 70 68 79
364.8529 114.9056 -8.6580 -0.709 0.002 0.706 66 64 75
419.7855 128.1870 -10.7586 0.226 -0.889 0.398 159 162 167
432.8542 120.5693 -12.2180 -0.518 0.592 0.617 119 114 120
384.3152 103.2312 -10.8608 -0.813 -0.306 -0.495 75 73 78
415.6479 107.8663 -12.3208 -0.970 -0.042 -0.238 149 144 157
350.1508 85.3115 -10.4144 -0.821 -0.289 -0.492 157 152 170
436.9609 104.7900 -13.8685 -0.190 -0.864 -0.466 152 138 141
413.7601 97.3985 -13.1400 -0.792 0.165 0.587 172 116 120
409.3155 93.0919 -13.2578 -0.895 0.343 0.286 230 24 38
354.5378 76.9124 -11.4245 -0.847 0.259 0.465 71 64 68
356.5197 76.6787 -11.5638 -0.991 0.003 0.132 106 100 106
360.7124 76.9188 -11.7930 0.003 -0.998 0.057 102 94 98
359.3318 75.9398 -11.7977 -0.021 -0.964 0.267 88 81 83
358.1397 75.0085 -11.8093 -0.953 -0.291 -0.086 77 70 71
357.9314 71.6144 -12.0991 -0.406 -0.285 0.868 112 110 118
357.2925 70.8207 -12.1316 -0.293 0.133 0.947 111 109 116
356.8632 68.7514 -12.2902 -0.395 -0.131 0.909 77 73 83
392.5513 71.2348 -14.2021 -0.095 -0.613 0.784 98 94 108
377.5769 67.1502 -13.6708 -0.997 0.009 0.073 80 76 90
396.2814 68.2298 -14.6926 0.089 -0.898 0.431 94 92 103
383.5732 50.2367 -15.5352 -0.712 0.199 0.674 169 174 180
378.3752 48.2896 -15.3979 -0.677 -0.041 0.735 156 161 167
376.3696 46.0924 -15.4737 -0.729 -0.368 0.577 126 131 137
375.6725 44.0659 -15.6124 -0.606 -0.766 -0.214 155 160 166
378.5845 43.0601 -15.8760 -0.765 -0.558 -0.321 76 81 87
378.8319 42.4328 -15.9467 -0.768 -0.560 -0.312 96 101 107
357.4217 30.7776 -15.7048 -0.826 0.533 -0.182 86 95 102
361.9751 22.2056 -16.7403 -0.457 0.438 0.775 130 136 148
364.4420 20.5333 -17.0366 -0.828 -0.458 -0.322 88 95 103
348.5627 14.5706 -16.6185 -0.082 -0.911 0.403 87 90 97
381.8553 8.8931 -19.1139 -0.028 -0.204 0.979 47 47 55
331.4941 2.3510 -16.6864 -0.416 -0.403 0.815 67 71 81
364.2667 -2.0547 -19.0374 -0.240 -0.550 0.800 63 67 78
365.2202 -3.7343 -19.2440 -0.310 -0.504 0.806 52 56 67
358.8457 -5.0079 -18.9764 -0.317 -0.501 0.805 40 46 60
355.7071 -10.5491 -19.2822 -0.681 0.556 0.476 29 38 53
355.2995 -11.0322 -19.3009 -0.681 0.556 0.476 56 68 82
315.1646 -14.0848 -17.1739 -0.700 -0.448 0.557 29 43 56
315.4136 -14.5430 -17.2296 -0.700 -0.448 0.557 49 63 76
315.7758 -15.0132 -17.2931 -0.728 -0.558 0.399 113 127 140
316.2159 -15.4921 -17.3620 -0.857 -0.019 0.515 154 168 181
315.4238 -16.2693 -17.3839 -0.812 0.579 0.080 146 162 177
294.8428 -15.9862 -16.1286 -0.841 0.538 0.057 148 164 179
265.6019 -16.9534 -14.4670 -0.613 -0.408 -0.677 156 167 186
263.6596 -17.0151 -14.3564 -0.730 -0.119 -0.673 155 166 184
262.9128 -17.2403 -14.3318 -0.727 -0.133 -0.673 150 159 176
258.2078 -17.5347 -14.0768 -0.671 0.594 0.444 158 167 182
257.1906 -17.7038 -14.0311 -0.614 0.545 0.572 162 171 186
253.1779 -17.4175 -13.7658 -0.853 0.476 0.214 164 173 188
242.8063 -19.0702 -13.2930 -0.839 0.528 0.131 170 180 190
234.3884 -20.1222 -12.8836 -0.737 0.287 0.612 111 123 132
233.7870 -20.8248 -12.9102 -0.537 0.449 0.715 131 141 153
233.5826 -21.0562 -12.9186 -0.537 0.449 0.715 155 167 181
304.9349 411.7504 20.4958 -0.337 -0.026 0.941 48 51 60
308.2970 415.8187 20.6466 -0.368 -0.110 0.923 73 76 85
310.8835 418.5904 20.7311 -0.559 -0.785 0.265 103 106 115
308.7693 409.4335 20.0549 -0.924 -0.031 -0.382 55 58 65
311.1078 373.3691 16.7327 -0.419 0.169 0.892 24 29 25
305.4634 316.6487 12.0835 -0.993 0.028 0.115 64 66 54
302.5407 311.8733 11.8432 -0.982 0.022 0.188 61 63 50
329.6417 303.5700 9.4377 -0.782 0.356 -0.511 41 42 44
328.7830 301.4989 9.3083 -0.782 0.356 -0.511 39 43 44
328.6454 299.0830 9.1039 -0.173 -0.969 -0.179 52 58 58
310.7281 264.3344 7.1488 -0.733 0.667 0.133 67 66 79
323.3125 269.6658 6.8413 -0.738 -0.424 -0.526 71 74 79
324.9431 266.0356 6.4207 -0.727 -0.526 -0.442 65 66 71
317.9394 249.2919 5.3779 -0.493 -0.868 -0.062 55 54 59
308.1613 193.8822 1.0995 -0.899 -0.020 -0.438 50 50 48
388.1487 225.9122 -1.0185 0.218 -0.508 0.833 77 77 81
398.7158 230.6761 -1.2514 -0.086 -0.832 0.548 79 79 83
390.3697 224.2184 -1.3049 -0.857 0.330 0.396 82 81 85
383.6412 217.8335 -1.4520 -0.546 0.650 0.528 46 46 48
368.5499 206.2535 -1.5402 -0.899 0.323 0.297 35 33 36
356.6867 196.8936 -1.6322 -0.956 -0.250 0.155 71 70 74
356.6743 195.9607 -1.7137 -0.954 -0.247 0.168 79 78 83
368.4368 199.4642 -2.1315 -0.876 -0.170 -0.451 83 77 81
378.3400 202.5732 -2.4692 -0.803 -0.425 -0.418 65 59 63
398.0585 172.8396 -6.3070 -0.654 -0.361 0.664 61 56 62
360.8175 150.8500 -5.9444 -0.639 -0.044 0.768 76 74 79
400.4872 168.3212 -6.8551 -0.738 -0.176 0.652 77 75 80
378.8269 157.4480 -6.4754 -0.860 0.185 0.475 65 63 68
427.5872 174.7697 -7.9607 -0.884 -0.415 -0.213 56 54 57
399.3752 159.4507 -7.5680 -0.858 -0.239 0.456 57 55 58
393.0202 152.1863 -7.8156 -0.090 -0.861 0.500 58 56 59
387.5587 143.7705 -8.2198 -0.559 -0.563 -0.609 77 75 78
388.5024 143.2849 -8.3209 -0.556 -0.570 -0.605 76 74 79
389.8203 132.6561 -9.3388 -0.563 -0.801 -0.203 52 49 58
388.3447 131.2709 -9.3698 -0.608 -0.613 -0.505 53 50 59
394.8548 132.7923 -9.6378 -0.622 -0.675 -0.396 58 55 64
362.7329 119.5931 -8.8168 -0.731 -0.130 0.670 62 59 68
368.0649 119.1541 -9.1848 -0.210 -0.899 0.384 64 63 71
382.5813 120.1737 -9.9916 -0.243 -0.970 0.008 70 69 77
400.4094 122.7910 -10.8621 0.226 -0.887 0.402 78 79 83
365.1451 105.2258 -10.2318 0.094 -0.564 0.820 62 57 63
362.9715 100.8707 -10.4813 -0.411 0.636 0.653 79 74 80
423.6520 112.6758 -13.1889 -0.764 -0.551 0.337 50 49 54
432.7370 114.3171 -13.6054 -0.866 -0.428 0.259 59 54 61
418.4554 108.6666 -13.2212 -0.939 -0.075 -0.336 79 55 75
411.4582 105.9336 -13.0299 -0.994 0.073 -0.085 92 76 95
411.4023 105.0865 -13.1011 -0.994 0.073 -0.085 88 86 102
353.5680 87.5872 -11.0709 -0.865 -0.180 -0.468 81 98 113
347.8575 76.7608 -11.6722 -0.776 0.223 0.591 84 67 75
360.4516 76.8815 -12.4394 0.003 -0.998 0.057 81 75 79
371.1756 71.5291 -13.5733 -0.555 -0.588 0.588 75 72 83
371.7100 70.9401 -13.6583 -0.555 -0.588 0.588 160 157 168
351.5841 66.4518 -12.8107 -0.984 0.130 -0.125 156 152 166
353.1295 66.0950 -12.9376 -0.956 0.260 0.135 135 131 145
381.7989 52.7161 -15.8871 -0.731 0.154 0.665 86 91 97
379.0528 49.6926 -15.9839 -0.749 0.283 0.599 98 103 109
374.6033 46.5449 -15.9865 -0.691 -0.260 0.674 76 81 87
375.8945 46.0354 -16.1111 -0.729 -0.368 0.577 107 112 118
371.5323 44.9153 -15.9404 -0.627 -0.764 -0.153 141 146 152
373.6541 43.8513 -16.1652 -0.762 -0.599 -0.246 146 151 157
375.4760 43.3914 -16.3182 -0.826 -0.508 0.242 121 126 132
374.1178 41.3263 -16.4163 -0.388 -0.020 0.922 99 104 110
376.0034 38.9358 -16.7434 -0.384 -0.111 0.917 139 146 154
374.6986 36.9157 -16.8408 -0.439 -0.086 0.894 73 80 88
376.6567 36.4364 -17.0040 -0.664 0.116 0.739 78 85 93
369.4430 34.0073 -16.7725 -0.457 -0.813 -0.361 62 69 77
358.2100 32.5954 -16.2031 -0.762 -0.617 -0.198 66 73 81
360.8411 29.1978 -16.6650 -0.836 0.488 -0.250 106 113 121
360.5887 28.5900 -16.7029 -0.859 0.490 -0.146 102 109 117
367.8776 18.8417 -18.0121 -0.455 0.463 0.761 68 71 78
376.9935 10.6735 -19.2949 -0.717 0.280 0.639 50 50 58
374.5986 8.3403 -19.3525 -0.063 -0.022 0.998 59 59 67
357.3806 4.1406 -18.6591 -0.327 -0.494 0.806 92 92 100
357.5126 3.5941 -18.7154 -0.382 -0.459 0.803 96 96 104
355.4873 3.1101 -18.6330 -0.504 -0.616 0.605 93 93 101
329.9938 -0.5469 -17.3806 -0.702 -0.065 0.709 67 71 82
323.1937 -2.1212 -17.0994 -0.442 -0.065 0.894 48 54 66
355.8579 -10.0850 -19.8185 -0.785 0.518 0.340 34 42 55
355.5241 -10.5758 -19.8412 -0.785 0.518 0.340 23 32 47
355.1916 -11.0645 -19.8637 -0.785 0.518 0.340 66 78 92
354.8604 -11.5514 -19.8861 -0.785 0.518 0.340 123 135 149
316.1256 -12.9126 -17.6137 -0.795 0.594 0.123 61 75 88
314.3893 -14.0452 -17.6062 -0.587 -0.720 0.370 26 40 53
314.7889 -14.5178 -17.6725 -0.587 -0.717 0.375 57 70 86
315.5281 -15.0266 -17.7630 -0.728 -0.558 0.399 127 140 156
315.9091 -15.4991 -17.8282 -0.851 -0.009 0.524 159 175 190
259.8086 -18.1297 -14.5950 -0.849 0.244 0.468 161 170 185
251.8279 -18.1755 -14.1061 -0.670 -0.384 -0.635 175 184 199
249.5185 -18.7271 -14.0121 -0.718 -0.315 -0.621 168 177 192
243.3041 -19.1887 -13.6689 -0.837 0.524 0.158 125 135 145
233.9137 -20.0697 -13.1666 -0.925 0.288 0.246 30 40 50
233.5963 -20.2828 -13.1658 -0.913 0.405 0.055 47 56 65
233.4845 -20.5326 -13.1809 -0.913 0.405 0.055 53 63 73
233.4127 -20.7892 -13.1990 -0.905 0.416 0.090 74 84 96
233.1953 -21.0176 -13.2057 -0.923 0.384 0.023 131 145 158
300.1201 405.6974 19.4147 -0.382 0.007 0.924 50 53 62
302.7394 408.5941 19.5002 -0.343 -0.023 0.939 45 48 57
310.0491 417.6829 19.8265 -0.569 -0.789 0.233 81 84 93
312.2872 419.8705 19.8745 -0.945 -0.051 -0.323 94 97 106
323.6795 430.8102 20.1019 -0.896 0.081 -0.438 30 33 38
316.7408 384.5972 16.5153 -0.766 0.045 0.641 29 30 32
290.1684 308.7776 11.5996 -0.886 0.456 -0.090 60 63 46
302.7070 315.7830 11.4108 -0.564 -0.825 -0.010 58 58 54
312.4810 297.1500 9.1631 -0.830 0.117 -0.546 70 71 71
319.6948 251.1161 4.6899 -0.501 -0.864 -0.046 54 53 58
326.0704 220.0229 1.5726 -0.320 -0.552 0.770 59 60 65
327.4707 219.2592 1.4167 -0.808 0.588 -0.040 60 61 66
295.9965 180.3007 0.0271 -0.854 -0.510 -0.098 45 43 44
319.7007 195.5764 -0.1526 0.241 -0.820 0.519 66 64 65
325.0553 196.7538 -0.3914 -0.870 0.137 0.475 51 49 50
372.6676 186.0612 -4.3594 -0.657 -0.423 -0.624 59 58 63
337.7311 159.1551 -4.4775 0.100 -0.297 0.950 59 54 61
398.0551 175.7855 -6.8740 -0.778 0.162 0.607 88 81 88
397.3730 172.6098 -7.1074 -0.654 -0.361 0.664 75 68 75
387.1827 166.8197 -6.9624 -0.823 -0.200 0.532 80 73 80
404.9540 170.4768 -7.7767 -0.730 -0.179 0.659 92 87 91
401.2014 167.8020 -7.7706 -0.714 -0.171 0.679 80 75 79
420.9110 172.8796 -8.5847 -0.537 -0.745 0.395 82 77 81
429.6523 175.7842 -8.8888 -0.856 -0.517 -0.020 73 68 72
386.6657 151.3327 -8.2797 -0.439 -0.235 0.867 58 53 57
358.8454 124.3996 -8.8538 -0.266 -0.743 0.614 56 51 58
391.2610 133.2490 -10.1492 -0.552 -0.815 -0.177 51 48 55
403.4256 135.9655 -10.6880 -0.843 -0.462 0.276 60 55 62
403.8036 135.2235 -10.7768 -0.843 -0.462 0.276 62 59 68
378.1102 124.3410 -10.0873 -0.887 -0.386 0.254 61 58 67
378.3956 123.6333 -10.1672 -0.887 -0.386 0.254 74 73 81
368.2879 103.2288 -11.3016 -0.411 0.634 0.655 70 68 71
358.8915 90.4076 -11.8203 -0.796 -0.175 -0.579 62 73 86
355.2800 88.7560 -11.7340 -0.848 -0.166 -0.504 61 63 83
347.8797 80.0975 -12.0170 -0.737 -0.625 0.258 200 14 22
