ply
format ascii 1.0
element vertex 844
property float x
property float y
property float z
property float nx
property float ny
property float nz
property uchar diffuse_red
property uchar diffuse_green
property uchar diffuse_blue
end_header
-294.4652 110.8246 -36.9553 0.673 0.403 0.621 56 49 39
-323.9322 140.0167 -39.2131 0.526 0.847 -0.070 74 67 49
-298.9342 129.0890 -35.9037 0.891 0.292 0.348 73 66 48
-300.5155 141.0879 -34.9739 0.750 0.616 0.238 65 60 41
-324.1492 163.6149 -36.8740 0.927 -0.361 0.098 66 63 48
-336.7862 173.8131 -38.0761 0.515 0.698 0.498 53 49 37
-293.3387 158.0513 -31.9987 0.863 -0.470 0.186 76 70 58
-120.5273 -82.3569 -26.0026 0.706 -0.502 0.500 140 142 139
-117.2178 -78.6931 -25.0407 0.785 -0.596 -0.167 128 130 127
-111.6438 -60.1532 -22.1718 0.621 -0.631 0.465 119 124 128
-145.7691 -70.7636 -29.3475 0.454 -0.889 0.056 133 132 139
-132.5020 -34.9178 -23.3551 0.662 0.676 -0.324 122 124 123
-289.9334 -39.0182 -51.9311 0.128 -0.048 0.991 138 140 128
-298.0242 -37.5760 -53.2328 0.052 -0.188 0.981 137 132 118
-269.2907 -17.7482 -46.0910 0.852 0.032 0.522 127 133 104
-278.7900 -15.2130 -47.5343 0.290 0.887 0.359 110 116 83
-300.4112 0.6652 -49.7988 0.499 -0.631 0.594 86 73 65
-331.5065 16.9058 -53.7216 0.737 -0.186 -0.649 120 120 108
-312.9677 42.0133 -47.8703 0.690 -0.167 0.704 77 78 68
-295.2645 46.2240 -44.2784 0.745 -0.181 0.642 67 69 62
-297.0462 48.5808 -44.3592 0.837 0.536 0.109 56 60 50
-295.9802 48.9761 -44.1286 0.572 -0.723 0.388 51 55 45
-297.3879 56.4421 -43.6266 0.253 0.850 0.463 77 77 47
-348.4066 80.5413 -50.3199 0.568 -0.700 0.433 64 60 51
-323.7698 82.3795 -45.7272 0.449 -0.539 0.713 56 45 43
-300.6764 75.5219 -42.2885 0.946 -0.227 -0.229 56 45 43
-293.8549 73.9208 -41.2299 0.998 0.024 -0.058 59 50 45
-298.6340 76.7785 -41.7963 0.270 0.772 0.576 59 50 41
-332.4955 95.2532 -45.9883 0.414 0.598 0.686 51 40 34
-251.9433 74.5021 -33.6739 0.881 -0.272 0.386 43 36 28
-294.0280 109.5422 -37.6644 0.679 0.490 0.546 40 33 23
-293.8427 110.0735 -37.5776 0.670 0.498 0.550 40 33 23
-293.8722 110.7029 -37.5193 0.673 0.403 0.621 48 41 31
-345.8911 143.4598 -43.5174 0.895 -0.151 -0.420 62 56 42
-300.0312 140.9892 -35.5632 0.905 -0.023 0.425 65 60 41
-161.8409 -120.3754 -37.6146 0.451 0.865 0.220 33 34 38
-120.8364 -82.5641 -26.3527 0.708 -0.596 0.378 144 146 143
-131.6629 -63.5386 -26.3910 0.449 -0.890 0.082 195 197 204
-152.8522 -71.1578 -31.0045 0.527 -0.839 -0.139 196 197 200
-299.9715 -12.8772 -51.7870 0.297 0.904 0.307 135 147 115
-293.0008 -1.0542 -49.3266 0.410 -0.734 0.541 133 144 108
-299.6918 0.7036 -50.3621 0.499 -0.631 0.594 93 85 70
-315.2217 21.5705 -51.0670 0.187 0.900 0.393 99 109 74
-319.2661 29.9417 -50.9534 0.375 0.494 0.784 111 114 97
-330.2148 32.3996 -52.6902 0.285 0.220 0.933 110 114 98
-315.1614 39.0874 -49.2836 0.862 0.410 0.299 93 97 82
-315.1295 39.7784 -49.2079 0.922 0.356 0.154 89 93 78
-314.2223 40.2987 -48.9908 0.856 0.460 0.235 83 87 72
-294.5824 46.1805 -44.8340 0.788 -0.615 0.034 79 82 69
-291.7342 46.1656 -44.3190 0.989 -0.146 0.004 81 83 69
-289.9773 46.3924 -43.9775 0.999 -0.035 0.011 75 78 64
-294.9058 55.2655 -43.9734 0.227 0.855 0.465 77 76 45
-288.9745 71.1990 -41.2856 0.780 -0.390 -0.490 54 44 43
-292.0535 108.1770 -38.1024 0.589 0.481 0.649 44 37 27
-291.2937 109.0528 -37.8760 0.485 0.636 0.601 44 37 29
-348.3502 143.3801 -44.7496 0.900 -0.178 -0.398 58 52 38
-301.7363 131.4992 -37.4985 0.584 0.639 0.500 63 56 38
-325.4196 164.7458 -38.4294 0.730 -0.630 0.264 57 54 39
-326.9717 166.3328 -38.5503 0.801 -0.549 0.238 55 52 37
-291.4112 157.1881 -33.0268 0.698 0.704 0.132 57 50 42
-119.3478 -67.6194 -24.8378 0.367 -0.614 0.699 179 184 187
-153.2470 -71.3116 -31.4433 0.522 -0.843 -0.130 196 197 200
-96.0404 -40.4683 -17.8005 0.420 -0.907 0.008 91 93 82
-284.5028 -37.1743 -52.1080 0.129 -0.172 0.977 104 109 80
-289.7333 -36.2121 -52.9718 0.050 -0.162 0.986 104 109 79
-313.8171 21.4879 -51.5477 0.187 0.900 0.393 97 107 72
-297.5687 23.9866 -48.3077 0.208 -0.112 0.972 128 133 111
-314.7378 40.5133 -49.7877 0.854 0.424 0.301 107 114 93
-294.4843 46.2707 -45.4810 0.788 -0.615 0.034 90 95 75
-289.2952 46.3443 -44.5198 0.919 -0.394 -0.001 85 89 70
-288.2625 47.3619 -44.2267 0.931 -0.361 -0.047 72 80 59
-282.5281 47.8396 -43.1243 0.801 -0.515 0.306 50 49 21
-282.2233 48.3793 -43.0135 0.801 -0.515 0.306 62 58 28
-294.8247 55.3628 -44.6216 0.218 0.899 0.380 77 77 46
-362.2664 88.1090 -53.6976 0.997 0.063 -0.043 74 67 61
-300.0468 72.3466 -43.8593 0.779 -0.347 -0.523 62 50 51
-286.2952 70.4526 -41.5237 0.892 -0.402 -0.207 77 66 62
-279.0851 68.7016 -40.3759 0.870 -0.282 -0.404 79 68 63
-283.1272 71.2428 -40.8612 0.864 -0.297 -0.406 79 70 61
-322.0071 88.3445 -46.2736 0.289 0.862 0.418 65 58 48
-257.5658 76.3969 -35.6401 0.898 -0.131 0.419 42 35 27
-264.8819 80.9223 -36.5260 0.975 0.035 -0.221 56 49 41
-269.4618 83.3044 -37.1263 0.983 0.010 -0.182 60 51 42
-287.0003 106.6247 -37.9853 0.436 0.622 0.650 49 42 32
-288.7339 108.0245 -38.1620 0.436 0.622 0.650 50 43 33
-289.0399 133.4005 -35.6450 0.631 0.774 0.054 54 48 32
-310.9731 153.2238 -37.6664 0.813 0.112 0.572 80 75 56
-310.1166 153.3664 -37.4945 0.860 -0.136 0.492 77 71 55
-315.7874 157.9607 -38.0710 0.882 -0.321 0.347 70 64 48
-116.2046 -77.5953 -25.5338 0.737 -0.674 -0.042 143 145 142
-147.9914 -68.2479 -30.5051 0.509 -0.851 -0.131 65 66 60
-87.0301 -33.4233 -15.6102 0.284 -0.952 -0.112 83 69 64
-132.1239 -35.0952 -24.1802 0.489 0.866 -0.102 136 140 141
-328.0521 -37.1873 -60.8903 0.109 0.770 0.628 85 90 60
-297.1030 -1.9829 -51.5475 0.478 -0.579 0.661 96 111 70
-293.3554 0.4571 -50.6014 0.510 -0.611 0.606 75 77 53
-335.5916 18.4268 -56.6430 0.784 -0.345 -0.516 100 105 84
-327.6802 33.6822 -53.6189 0.138 0.344 0.929 111 121 94
-335.4493 37.2090 -54.7077 0.523 -0.408 0.748 111 119 94
-314.5054 39.8863 -50.5343 0.962 0.068 0.264 112 121 92
-308.1259 40.0176 -49.3325 0.841 0.448 0.304 121 128 99
-294.2020 46.3186 -46.0985 0.799 -0.600 0.031 89 96 67
-289.2526 46.4459 -45.1636 0.919 -0.394 -0.001 71 77 51
-289.7479 47.1958 -45.1796 0.949 -0.310 -0.049 67 76 49
-288.2527 47.4715 -44.8731 0.931 -0.361 -0.047 66 74 48
-287.2722 47.8643 -44.6505 0.931 -0.361 -0.062 66 72 46
-279.4823 47.2002 -43.2669 0.811 -0.525 0.259 70 69 40
-279.1736 47.7323 -43.1553 0.811 -0.525 0.259 79 76 45
-322.0544 64.0348 -49.4864 0.132 0.725 0.676 104 103 82
-313.0495 63.6806 -47.8450 0.204 0.795 0.571 106 105 85
-354.1779 77.2734 -54.1250 0.144 0.738 0.659 112 111 93
-307.5211 67.5186 -46.4251 0.883 -0.272 -0.382 94 90 79
-307.2912 68.1187 -46.3213 0.883 -0.272 -0.382 95 91 81
-291.1203 75.9069 -42.5175 0.333 0.867 0.371 80 71 61
-304.7799 81.8618 -44.4569 0.289 0.752 0.592 69 62 54
-311.9769 85.0126 -45.4773 0.274 0.719 0.638 69 61 53
-300.1597 81.5592 -43.6269 0.408 0.859 0.308 68 61 53
-313.2333 86.7959 -45.5301 0.417 0.774 0.475 69 62 54
-318.4322 93.4125 -45.8262 0.425 0.702 0.572 66 57 50
-306.4289 92.9389 -43.6383 0.546 0.675 0.496 65 56 49
-272.8447 83.6270 -38.3286 0.966 0.122 0.227 57 48 41
-268.1443 82.3416 -37.5836 0.948 0.165 -0.273 61 54 46
-269.2809 84.4993 -37.5761 0.984 0.007 -0.176 71 61 52
-253.2702 85.4845 -34.4935 0.847 0.411 0.338 52 46 36
-259.0810 104.7248 -33.6206 0.489 0.866 -0.100 54 48 34
-310.8975 153.3619 -38.3303 0.748 0.343 0.568 76 70 54
-310.6611 153.8648 -38.2352 0.813 0.112 0.572 73 67 51
-117.3949 -79.6819 -26.2334 0.617 0.451 0.645 132 134 131
-148.9642 -68.6177 -31.0653 0.564 -0.823 0.064 77 76 71
-285.3660 -29.8850 -52.8667 0.992 -0.092 0.091 75 85 51
-286.9630 -28.6363 -53.0410 0.960 0.194 0.201 89 99 65
-292.3883 -12.7857 -52.4507 0.911 0.273 -0.309 63 77 42
-296.3112 -1.9448 -52.0871 0.478 -0.579 0.661 71 86 45
-300.4176 9.8154 -51.6644 0.545 -0.669 0.506 68 74 46
-295.7517 12.0188 -50.5593 0.528 -0.575 0.626 74 80 50
-315.0891 22.5667 -53.1351 0.214 0.896 0.390 73 83 48
-285.2667 19.1818 -47.8508 0.688 0.457 0.564 72 82 47
-334.4562 37.1558 -55.3048 0.527 -0.400 0.750 92 101 68
-310.7088 42.7024 -50.2575 0.878 0.277 0.391 124 129 98
-309.6174 45.8948 -49.7264 0.669 -0.257 0.698 128 128 100
-293.4857 46.2664 -46.6437 0.824 -0.566 0.024 87 94 60
-289.2100 46.5475 -45.8080 0.919 -0.394 -0.001 65 73 38
-288.9634 47.1219 -45.7030 0.919 -0.394 -0.001 64 71 36
-287.8253 47.4811 -45.4516 0.915 -0.403 0.001 64 71 39
-288.8579 48.3602 -45.5569 0.943 -0.188 0.274 65 71 39
-308.2180 62.4840 -47.7727 0.149 0.729 0.668 127 126 108
-306.6098 66.7152 -47.0383 0.823 -0.496 -0.278 123 119 108
-306.5230 69.3529 -46.7533 0.779 -0.415 -0.470 105 101 91
-304.7316 71.4586 -46.2007 0.776 -0.396 -0.491 94 85 78
-294.1808 77.0793 -43.6367 0.329 0.865 0.379 86 77 69
-314.2925 89.3393 -46.1842 0.730 0.506 0.460 77 67 63
-313.3919 89.6898 -45.9785 0.770 0.260 0.583 77 67 61
-313.6738 90.4652 -45.9528 0.770 0.260 0.583 76 66 60
-314.4999 91.4405 -46.0094 0.660 0.469 0.587 80 70 63
-316.0588 94.7224 -45.9694 0.243 0.592 0.769 87 77 70
-277.1332 86.6242 -39.4469 0.974 0.067 0.218 69 64 56
-289.6330 105.6944 -39.8640 0.703 -0.671 0.237 61 58 46
-282.5331 123.7069 -36.6894 0.563 0.826 0.013 51 45 31
-300.3329 142.4657 -38.1387 0.727 0.098 0.680 61 55 39
-291.2704 145.1501 -36.1547 0.464 0.221 0.858 51 48 33
-117.3579 -79.4024 -26.4640 0.617 0.451 0.645 129 131 126
-137.8704 -63.4528 -28.7587 0.190 -0.677 0.711 66 67 62
-281.5806 -37.4471 -53.5857 0.276 0.120 0.953 66 68 47
-283.0928 -36.2497 -53.7527 0.106 -0.138 0.985 63 68 38
-292.3518 13.0584 -50.4905 0.634 -0.091 0.768 76 82 47
-308.3449 36.1874 -51.1882 0.350 0.684 0.640 94 101 62
-314.2074 39.3603 -51.9854 0.958 0.035 0.284 95 103 64
-314.3514 40.7816 -51.8679 0.960 0.023 0.280 94 102 63
-311.8777 43.0575 -51.1625 0.931 0.203 0.302 99 103 69
-286.9583 46.1290 -46.0838 0.989 -0.007 0.145 66 74 34
-286.7377 46.7046 -45.9828 0.993 -0.022 0.112 64 72 32
-306.3076 70.0838 -47.3389 0.709 -0.508 -0.489 151 148 139
-305.5838 70.5281 -47.1552 0.773 -0.422 -0.473 145 142 133
-285.8573 73.7599 -43.0531 0.342 0.848 0.406 81 77 63
-322.2542 96.5012 -47.6920 0.347 0.729 0.590 93 88 80
-289.7516 105.8960 -40.5177 0.718 -0.661 0.219 67 68 55
-290.0465 106.6395 -40.4982 0.756 -0.645 0.109 72 72 57
-294.0511 112.7830 -40.6370 0.441 0.847 0.297 59 60 43
-301.3651 135.7305 -39.6935 0.451 0.785 0.424 51 45 31
-312.2056 148.0319 -40.5109 0.642 0.485 0.594 59 53 39
-117.1868 -79.3154 -26.6884 0.617 0.451 0.645 133 135 130
-139.0610 -64.2145 -29.3810 0.196 -0.655 0.729 80 82 79
-272.7000 -41.1537 -52.9089 -0.064 0.077 0.995 74 75 55
-280.0538 -39.8723 -54.2023 0.005 -0.063 0.998 74 76 54
-262.2834 -18.5610 -48.5802 0.868 0.494 -0.051 69 81 41
-262.6232 -17.9646 -48.5850 0.868 0.494 -0.051 69 81 41
-265.5603 -16.7580 -49.0305 0.867 0.495 -0.058 69 81 43
-276.5345 21.8526 -47.2069 0.696 0.654 0.298 73 83 36
-286.6779 27.8508 -48.5582 0.766 0.603 -0.222 82 93 49
-295.0815 31.2309 -49.8403 0.421 0.674 0.607 86 97 54
-303.8671 33.4471 -51.3154 0.415 0.654 0.633 86 98 54
-292.7371 36.6504 -48.8318 0.605 0.390 0.695 82 91 48
-297.4916 40.8694 -49.3212 0.514 0.302 0.803 85 92 52
-302.5168 43.2505 -50.0511 0.800 0.397 0.450 85 92 53
-301.2645 44.9764 -49.6320 0.945 0.030 0.325 93 99 60
-301.2950 45.6468 -49.5693 0.956 0.072 0.285 87 94 54
-287.2310 46.3044 -46.7778 0.998 -0.039 0.040 64 75 32
-289.9279 47.5760 -47.1701 0.992 -0.035 0.118 62 73 30
-309.5322 69.8450 -48.6897 0.842 -0.408 -0.353 139 142 124
-305.9220 72.0899 -47.7608 0.863 -0.298 -0.408 148 149 130
-290.0510 75.9336 -44.2933 0.339 0.854 0.394 120 123 97
-295.0931 78.2898 -45.0290 0.330 0.864 0.380 123 128 103
-309.4148 87.2102 -46.8907 0.721 0.334 0.607 119 123 108
-309.5497 87.9242 -46.8438 0.806 0.189 0.561 122 125 113
-310.3206 88.8686 -46.8966 0.800 0.231 0.554 124 129 116
-311.6557 90.0216 -47.0373 0.768 0.273 0.580 126 131 119
-312.8212 91.1182 -47.1508 0.536 0.611 0.583 127 132 119
-315.5222 92.7857 -47.5035 0.306 0.666 0.680 119 124 112
-312.2239 92.9107 -46.8518 0.440 0.106 0.892 98 103 90
-312.0605 93.5192 -46.7579 0.464 0.143 0.874 90 95 83
-311.9409 94.1432 -46.6709 0.479 0.157 0.864 82 86 75
-288.2338 93.7814 -42.1157 0.275 0.777 0.566 66 65 57
-309.6371 107.8061 -44.8271 0.733 0.355 0.580 44 44 39
-297.0148 103.6748 -42.8046 0.718 0.032 0.696 53 54 52
-288.1040 104.6938 -40.9743 0.591 0.457 0.664 60 62 57
-289.2982 105.8398 -41.0885 0.601 0.464 0.651 68 70 55
-289.2997 106.4496 -41.0263 0.929 -0.235 -0.287 70 73 56
-289.4894 107.1451 -40.9920 0.919 -0.219 -0.327 70 73 56
-283.7487 105.7201 -40.0257 0.727 -0.681 0.084 70 73 54
-285.1903 106.9829 -40.1758 0.939 -0.218 0.265 68 71 52
-282.3397 106.2567 -39.6979 0.478 0.846 0.235 59 62 43
-287.1326 109.0874 -40.3368 0.463 0.854 0.238 57 60 41
-296.6313 114.1475 -41.6591 0.434 0.847 0.307 59 60 42
-310.0594 131.5168 -42.4836 0.520 -0.515 0.681 62 58 46
-310.0600 132.1658 -42.4173 0.518 -0.514 0.683 62 58 46
-117.6073 -79.0369 -27.0087 0.829 -0.522 -0.201 116 118 113
-119.0766 -68.0710 -26.1729 0.815 -0.572 0.098 152 161 166
-120.5626 -67.1328 -26.3683 0.656 -0.514 -0.553 160 167 173
-265.3771 -39.8266 -51.9801 0.224 -0.534 0.815 67 69 46
-285.2749 -29.0384 -54.7780 0.399 0.901 0.171 69 79 45
-269.3362 32.7434 -45.3178 0.402 -0.006 0.916 72 87 37
-271.4109 34.3501 -45.5601 0.402 0.005 0.916 75 88 41
-278.9985 36.5107 -46.8272 0.886 -0.256 0.387 82 95 47
-280.0698 38.5797 -46.8253 0.933 -0.353 -0.072 82 94 49
-282.4283 39.7033 -47.1728 0.437 -0.226 0.870 94 106 60
-262.3208 36.5187 -43.5544 0.931 0.366 -0.003 90 101 55
-286.5439 46.2533 -47.3088 0.978 -0.174 -0.116 64 79 33
-279.1769 48.1734 -45.6667 0.817 -0.551 0.172 61 74 35
-289.4850 52.0187 -47.2948 0.831 -0.525 0.186 65 78 39
-292.2018 58.4510 -47.1685 0.100 0.626 0.773 62 73 37
-309.2532 69.8936 -49.3408 0.838 -0.396 -0.375 80 91 57
-306.3140 70.3480 -48.7176 0.673 -0.519 -0.527 83 96 59
-305.4657 72.0807 -48.3735 0.880 -0.274 -0.387 109 122 85
-304.8829 73.2226 -48.1421 0.878 -0.288 -0.383 114 123 90
-288.0185 75.3692 -44.6135 0.339 0.852 0.399 117 126 90
-315.0574 93.4389 -48.0659 0.286 0.666 0.689 145 155 137
-305.8175 92.6307 -46.3360 0.452 0.820 0.350 141 147 133
-305.1836 93.6964 -46.1024 0.723 0.339 0.602 143 149 135
-309.1339 105.7743 -45.6393 0.675 0.260 0.691 53 53 42
-310.9383 107.8564 -45.7799 0.554 0.832 -0.025 52 52 42
-311.1125 109.9138 -45.6031 0.812 -0.582 0.036 50 52 46
-313.2911 111.5204 -45.8659 0.856 -0.514 0.057 57 58 53
-311.0622 113.1917 -45.2572 0.731 0.503 0.461 66 67 61
-283.0774 104.9625 -40.6105 0.685 -0.726 -0.067 71 72 54
-312.9195 132.4818 -43.6442 0.325 0.582 0.745 65 61 49
-319.3139 137.0513 -44.4303 0.321 0.581 0.748 65 61 49
-300.3950 134.2984 -41.0008 0.507 0.785 0.355 62 56 42
-307.7411 139.5007 -41.9088 0.513 0.820 0.254 63 57 43
-287.0027 128.9351 -38.9232 0.477 0.803 0.358 64 58 44
-306.3180 145.7287 -40.9911 0.674 0.735 0.077 61 55 39
-303.5598 145.4342 -40.4802 0.922 0.216 0.322 62 56 40
-303.8574 146.2312 -40.4569 0.916 0.225 0.332 63 57 41
-347.4900 184.0169 -45.1437 0.274 0.269 0.923 55 52 37
-313.5651 165.3305 -40.4036 0.695 0.530 0.487 55 52 37
-113.4171 -67.9234 -25.3023 0.525 0.019 0.851 171 180 187
-118.2312 -66.8572 -26.1492 0.879 -0.475 0.041 169 176 182
-133.7258 -61.9073 -28.7191 0.187 -0.633 0.751 92 97 91
-265.1481 -39.7565 -52.5538 0.170 -0.401 0.900 61 67 38
-272.8841 36.5505 -46.2516 0.907 -0.420 -0.001 75 91 42
-315.2593 72.5081 -50.9766 0.777 -0.514 -0.362 55 73 29
-307.4677 74.8367 -49.1893 0.799 -0.387 -0.461 81 96 57
-278.5108 84.7497 -42.4179 0.826 -0.514 -0.231 133 140 123
-311.6877 108.3310 -46.5868 0.554 0.832 -0.025 102 103 87
-312.0548 112.4666 -46.2349 0.751 0.643 0.152 74 76 65
-312.1030 113.1502 -46.1743 0.778 0.597 0.195 70 72 61
-311.9658 115.0741 -45.9494 0.824 -0.526 0.211 71 73 61
-284.3042 105.6722 -41.4195 0.721 -0.682 0.122 73 72 54
-305.6704 128.9863 -43.2694 0.387 -0.349 0.853 71 67 55
-310.6594 132.1606 -43.9345 0.253 0.432 0.866 73 69 57
-321.8663 164.6552 -42.8228 0.408 0.692 0.596 64 61 46
-336.6536 176.2442 -44.5701 0.445 0.598 0.666 67 64 49
-115.2442 -68.8661 -26.0221 0.823 -0.134 0.552 171 180 187
-115.7198 -68.8437 -26.1155 0.849 -0.108 0.517 158 167 174
-118.3869 -66.9384 -26.4558 0.876 -0.482 0.035 166 173 179
-117.9096 -66.4412 -26.3086 0.631 -0.073 0.773 167 174 180
-158.5790 -73.3849 -35.2047 0.495 -0.866 -0.067 193 198 203
-278.6808 42.1665 -47.4685 0.944 -0.329 0.006 70 90 39
-296.0974 61.7064 -48.9604 0.098 0.629 0.771 60 75 32
-309.1102 70.7879 -50.6431 0.772 -0.572 -0.276 66 83 41
-280.3185 72.3863 -44.6867 0.337 0.843 0.420 66 78 40
-285.4984 74.7647 -45.4838 0.341 0.849 0.403 66 78 40
-296.9982 80.6274 -47.1936 0.365 0.846 0.389 65 75 38
-308.2282 91.8547 -48.2968 0.533 0.162 0.831 84 95 68
-287.5795 94.5470 -43.8658 0.292 0.733 0.614 129 131 111
-310.6234 108.0334 -47.1130 0.558 0.829 -0.029 146 148 126
-311.1830 112.9027 -46.7242 0.778 0.601 0.183 111 116 97
-310.9465 114.7771 -46.4837 0.821 -0.537 0.193 112 116 97
-286.0973 106.0411 -42.3843 0.442 -0.795 0.415 100 101 83
-306.6711 126.4430 -44.4226 0.418 0.687 0.595 60 58 43
-306.2538 128.8066 -44.0953 0.456 -0.488 0.744 65 63 50
-301.0058 136.8417 -42.2123 0.310 0.646 0.698 74 68 54
-260.8879 118.8781 -35.9915 0.529 0.838 0.136 73 67 53
-283.1469 140.6064 -38.2321 0.829 -0.538 -0.152 80 74 60
-274.9775 136.8994 -36.9704 0.722 -0.600 0.345 80 77 64
-276.9730 142.0560 -36.8409 0.870 0.477 -0.129 66 62 49
-283.6025 147.2681 -37.6379 0.865 0.502 0.011 66 63 48
-284.3923 148.9169 -37.6271 0.737 0.673 0.064 66 62 49
-300.1151 160.5067 -39.5967 0.219 0.447 0.867 55 48 42
-305.8203 164.7065 -40.3120 0.221 0.446 0.867 55 48 40
-123.2978 -83.3652 -29.4186 0.658 -0.712 -0.244 140 142 137
-159.0138 -73.5544 -35.6802 0.497 -0.865 -0.071 193 198 203
-156.7991 -72.3286 -35.1026 0.497 -0.865 -0.071 179 183 186
-85.6346 -36.6164 -16.9248 0.711 -0.405 -0.575 63 55 43
-114.8504 -33.1723 -22.5195 0.041 0.234 0.971 131 133 132
-250.9179 -45.3848 -51.4907 0.070 -0.453 0.889 137 135 139
-249.9720 -44.6942 -51.2268 0.060 -0.423 0.904 130 129 129
-252.7818 -40.3292 -51.3486 0.744 0.113 -0.659 60 72 32
-267.4097 37.3548 -46.3126 0.874 -0.460 -0.155 68 88 35
-266.3213 37.7006 -46.0552 0.879 -0.442 -0.178 69 89 36
-255.6844 60.2761 -41.5597 0.569 0.685 0.455 73 88 49
-275.6945 68.5626 -44.7799 0.857 -0.443 -0.264 65 80 41
-304.7583 84.7948 -49.0242 0.467 0.817 0.338 76 88 50
-306.8557 86.8620 -49.2380 0.739 0.280 0.613 71 82 49
-307.1630 87.6344 -49.2209 0.739 0.280 0.613 72 83 52
-349.5771 104.4811 -56.1207 0.270 0.751 0.603 72 83 51
-302.7570 92.5467 -47.8168 0.639 0.490 0.593 67 76 47
-274.9984 83.0570 -43.1427 0.984 -0.175 -0.015 66 75 46
-279.1334 87.6372 -43.5122 0.944 -0.293 0.154 64 70 40
-288.3397 95.6158 -44.5639 0.280 0.729 0.624 113 116 89
-310.0671 114.5420 -47.0362 0.823 -0.537 0.185 136 140 117
-298.8092 119.5717 -44.2244 0.400 0.685 0.609 127 124 112
-328.8932 145.9307 -47.6317 0.241 0.538 0.808 80 77 64
-290.4464 126.4532 -41.8113 0.189 -0.209 0.959 79 72 62
-304.4973 147.7569 -42.4748 0.329 0.394 0.858 75 70 54
-273.7659 136.3397 -37.3941 0.821 -0.478 0.313 96 90 73
-279.4312 143.7268 -37.7857 0.829 0.559 -0.008 71 66 49
-282.8486 146.3967 -38.2062 0.765 0.522 -0.376 71 66 48
-283.6227 149.1917 -38.0755 0.898 0.440 0.025 68 61 49
-322.7702 180.1944 -42.8494 0.877 0.427 0.220 61 51 49
-337.7140 190.5149 -44.8280 0.980 0.152 0.127 63 55 52
-123.6737 -83.6110 -29.8055 0.671 -0.721 -0.173 140 142 137
-110.0761 -65.4904 -25.1287 0.125 -0.433 0.893 163 172 179
-85.7968 -36.6542 -17.1417 0.710 -0.409 -0.573 63 55 43
-75.3581 -32.6475 -14.5755 0.854 0.510 -0.104 170 171 173
-95.1506 -35.5198 -18.9527 0.451 -0.891 -0.047 59 50 41
-109.7074 -32.8348 -21.6761 0.986 0.131 0.107 138 140 139
-110.2435 -32.6835 -21.7709 0.957 0.291 -0.016 137 139 138
-114.3361 -33.0775 -22.6554 0.043 0.203 0.978 139 141 140
-272.1625 82.0846 -43.2842 0.977 -0.179 0.118 65 75 38
-273.8388 83.3205 -43.5020 0.983 -0.183 0.017 64 74 37
-279.0089 87.7224 -44.1127 0.944 -0.293 0.154 64 71 35
-288.6939 96.5196 -45.1997 0.263 0.709 0.654 82 85 52
-311.9992 108.9332 -48.7206 0.698 0.128 0.705 78 83 52
-310.3089 108.8720 -48.3784 0.698 0.173 0.695 82 86 57
-312.4281 111.7786 -48.5148 0.698 -0.489 0.522 79 83 56
-322.9478 143.0052 -47.4546 0.241 0.538 0.808 132 131 116
-285.1203 123.8177 -41.6403 0.452 -0.776 0.440 126 125 110
-279.5682 124.3879 -40.4368 0.390 0.319 0.864 73 69 52
-281.4185 125.9681 -40.6548 0.319 0.597 0.737 72 69 52
-290.0126 137.2310 -41.2620 0.319 0.601 0.733 75 75 54
-292.5504 142.2940 -41.2616 0.342 -0.794 0.503 90 91 68
-272.9856 135.4765 -37.9332 0.732 -0.482 0.482 97 91 70
-280.8919 145.9397 -38.4812 0.358 0.544 0.759 78 72 48
-278.5068 146.7444 -37.9063 0.760 0.480 0.438 70 61 54
-309.2120 170.3873 -41.7916 0.180 0.374 0.910 64 54 53
-340.1711 192.3169 -45.9065 0.831 -0.478 0.285 68 58 56
-128.7123 -78.7924 -30.6430 0.821 -0.512 -0.253 182 190 193
-138.1931 -66.4363 -31.3408 0.552 -0.823 -0.134 193 197 208
-95.0683 -35.4928 -19.1362 0.510 -0.840 -0.186 58 49 40
-113.4699 -32.9288 -22.7100 0.083 0.290 0.953 138 139 141
-112.9371 -32.6037 -22.5652 0.596 0.759 0.261 155 157 159
-229.2456 48.9440 -38.3832 0.258 0.786 0.562 59 75 36
-227.6338 48.9272 -38.0486 0.263 0.784 0.563 61 76 37
-324.9170 136.0093 -49.3235 0.632 0.696 0.341 117 123 100
-296.7114 125.7251 -44.5039 0.233 0.391 0.890 139 145 122
-313.2853 137.4702 -46.7451 0.227 0.529 0.818 140 146 123
-317.2164 140.1850 -47.2840 0.241 0.538 0.808 134 141 117
-284.6908 123.7504 -42.2004 0.452 -0.776 0.440 123 133 104
-281.7231 122.7769 -41.6821 0.454 -0.795 0.402 112 123 92
-275.8332 127.6742 -39.9456 0.707 0.473 0.526 67 81 43
-285.2200 150.5344 -39.5354 0.406 0.569 0.715 55 48 32
-291.7874 157.6181 -40.1717 0.863 0.468 -0.193 74 66 64
-116.7788 -77.2717 -28.2626 0.957 -0.082 0.279 146 152 150
-138.5644 -66.5845 -31.7529 0.548 -0.814 -0.194 192 196 207
-112.6256 -32.7836 -22.7656 0.062 0.250 0.966 168 169 171
-112.7703 -32.5630 -22.7733 0.601 0.756 0.259 223 226 227
-113.1587 -32.3780 -22.8361 0.582 0.776 0.244 233 237 240
-113.5247 -32.1879 -22.8936 0.585 0.775 0.239 227 232 235
-229.0002 -43.2345 -48.4243 0.921 -0.389 -0.035 131 132 118
-230.8461 -42.3861 -48.7260 0.748 -0.226 0.624 109 110 93
-284.8296 98.2117 -45.5244 0.434 0.377 0.818 74 83 43
-298.9184 108.7270 -47.4074 0.910 0.257 0.324 69 83 41
-278.1261 101.7958 -43.7367 0.825 -0.517 -0.228 74 85 53
-320.2631 133.8705 -49.3034 0.534 0.791 0.298 78 95 53
-287.7888 120.7274 -43.8111 0.244 0.444 0.862 108 126 84
-304.7807 132.5675 -46.1695 0.230 0.552 0.802 104 123 80
-277.4239 129.2962 -40.7326 0.317 0.528 0.788 64 84 40
-306.2169 169.4774 -42.6398 0.371 -0.611 0.699 68 64 58
-194.6302 -125.8279 -50.2174 0.265 -0.361 0.894 139 141 136
-273.8917 -124.1848 -66.9818 0.273 -0.802 0.531 138 143 146
-138.8880 -66.7139 -32.1553 0.565 -0.787 -0.248 192 196 205
-91.1030 -34.2151 -18.5631 0.264 -0.962 -0.067 54 46 37
-111.0243 -33.4783 -22.7429 0.013 0.102 0.995 167 169 168
-111.1144 -33.0145 -22.7139 0.412 -0.191 0.891 135 137 136
-111.1812 -32.7858 -22.7044 0.051 0.259 0.964 155 157 156
-112.2237 -32.4650 -22.8938 0.639 0.722 0.266 227 230 229
-263.0947 14.0675 -50.2869 0.670 -0.638 -0.380 67 85 35
-278.9393 102.8991 -44.4276 0.813 -0.545 -0.204 62 80 36
-283.7925 106.9203 -45.0460 0.799 -0.567 -0.200 62 80 36
-288.1736 113.8185 -45.2642 0.378 0.779 0.501 62 83 37
-273.5627 117.6345 -41.7453 0.588 -0.574 0.569 80 104 56
-277.4055 120.2289 -42.2963 0.713 -0.577 0.399 75 99 51
-277.1192 120.6552 -42.1908 0.713 -0.577 0.399 68 92 44
-277.0238 121.1815 -42.1156 0.725 -0.562 0.399 63 87 39
-293.0086 141.2546 -43.4420 0.392 0.684 0.615 116 132 96
-292.4588 143.3611 -43.1053 0.409 -0.786 0.463 126 138 100
-287.6430 153.5769 -41.0132 0.554 0.761 0.337 104 106 96
-192.9046 -124.8167 -50.2132 0.285 -0.388 0.877 141 143 138
-91.1633 -34.2195 -18.7704 0.264 -0.962 -0.065 54 46 37
-82.8461 -32.0808 -16.7494 0.265 -0.962 -0.074 103 101 97
-86.5356 -31.4259 -17.4787 0.500 0.343 -0.795 116 120 115
-114.7383 -31.8377 -23.6184 0.082 0.683 0.726 175 180 184
-115.3083 -31.6690 -23.7240 0.080 0.682 0.727 159 163 166
-325.4560 136.8094 -51.5813 0.508 0.853 0.116 50 76 28
-280.4278 119.0498 -43.6995 0.522 0.624 0.582 60 83 37
-280.8917 120.4633 -43.6524 0.626 0.522 0.579 63 86 39
-280.6936 120.9463 -43.5592 0.583 -0.545 0.602 66 89 43
-274.5328 120.0116 -42.3249 0.547 -0.551 0.630 60 82 35
-275.6139 121.1604 -42.4388 0.571 -0.542 0.617 59 81 34
-269.8633 118.6497 -41.4575 0.574 -0.533 0.622 58 82 34
-273.0026 122.0353 -41.7830 0.399 0.616 0.680 61 84 38
-278.0013 131.6674 -41.8590 0.314 0.600 0.736 73 84 50
-294.4294 142.8514 -44.2439 0.413 0.397 0.820 82 93 59
-280.4356 148.0636 -40.6752 0.587 0.741 0.325 125 135 110
-284.0307 150.8957 -41.1570 0.573 0.757 0.315 118 127 106
-189.4373 -122.2849 -49.6606 0.318 -0.412 0.854 134 136 131
-146.1891 -70.9717 -34.8395 0.542 -0.822 -0.176 131 136 142
-232.9020 -33.8924 -49.9272 0.645 0.695 0.316 56 71 30
-229.0559 -30.9782 -48.7815 0.797 -0.171 -0.579 48 60 24
-266.8459 114.4064 -41.8503 0.550 -0.507 0.664 64 86 39
-273.7811 126.5901 -42.0935 0.818 -0.491 -0.300 60 86 36
-277.6296 131.0424 -42.4697 0.784 0.431 0.446 57 71 31
-270.5497 132.6051 -40.7581 0.502 -0.790 0.351 69 81 45
-290.2086 156.1451 -42.5969 0.726 0.584 -0.362 87 101 74
-103.9732 -34.0642 -21.9765 0.698 -0.353 0.623 105 105 102
-107.5802 -32.8734 -22.6497 -0.027 -0.027 0.999 178 177 175
-226.3066 -41.7136 -49.8387 0.558 0.198 0.806 78 88 47
-232.8407 -34.9151 -50.5720 0.672 0.687 0.277 59 76 31
-231.9007 -34.3070 -50.3004 0.654 0.694 0.301 59 76 32
-280.6421 131.7517 -43.6886 0.747 -0.471 -0.469 61 80 35
-279.4176 132.2199 -43.3687 0.733 -0.499 -0.463 63 78 39
-296.4422 161.4921 -44.0686 0.740 0.524 -0.422 58 79 45
-290.6516 159.5840 -42.9875 0.950 0.257 -0.176 83 105 70
-106.6739 -64.5634 -26.0092 0.802 0.483 -0.352 176 185 190
-106.2978 -64.1288 -25.8795 0.807 0.522 -0.276 172 181 186
-148.7199 -67.8302 -35.7590 0.487 -0.862 0.143 136 140 140
-101.9067 -33.6738 -21.7002 0.048 0.748 0.661 99 99 97
-103.3098 -33.4883 -21.9947 0.552 -0.225 0.803 140 140 138
-103.4968 -33.3001 -22.0167 0.471 -0.188 0.862 160 160 158
-110.2956 -31.4015 -23.3385 -0.006 0.496 0.868 165 166 160
-218.9105 -34.2816 -47.9410 0.733 0.493 0.468 64 81 36
-119.4885 -79.7964 -30.7520 0.702 -0.607 -0.372 121 123 118
-129.6846 -79.0996 -32.9857 0.884 -0.346 -0.314 190 200 202
-106.7590 -64.6156 -26.2750 0.802 0.483 -0.352 178 187 192
-106.4718 -64.2258 -26.1690 0.767 0.286 -0.574 174 183 188
-144.8032 -70.0771 -35.4572 0.545 -0.832 -0.102 125 130 134
-148.4715 -67.7365 -36.0409 0.487 -0.862 0.143 136 140 139
-103.2963 -33.4735 -22.2156 0.829 0.104 0.550 163 163 161
-103.8471 -33.3490 -22.3271 0.516 -0.149 0.843 190 190 188
-103.6459 -33.0918 -22.2545 0.615 -0.100 0.782 200 200 198
-104.1623 -32.9579 -22.3573 0.635 0.077 0.769 155 155 153
-104.9473 -32.8666 -22.5253 0.477 0.631 0.611 153 152 150
-202.3721 -39.4002 -45.2552 0.846 -0.120 -0.520 77 88 46
-220.7538 -33.3729 -48.7801 0.527 0.640 0.559 71 88 43
-269.8502 138.7801 -41.7787 0.535 0.724 0.436 65 91 53
-106.7532 -64.6212 -26.5159 0.779 0.254 -0.574 179 188 193
-97.1915 -33.2007 -21.0160 0.037 0.708 0.705 117 117 115
-101.7338 -33.6184 -22.0992 0.042 0.734 0.678 160 160 158
-103.0964 -33.4256 -22.3906 0.811 0.126 0.571 200 200 198
-103.5718 -33.2881 -22.4849 0.516 -0.149 0.843 185 185 183
-103.4307 -33.0419 -22.4266 0.525 -0.153 0.837 157 157 155
-103.8124 -32.8854 -22.4975 0.559 -0.085 0.825 159 159 157
-104.7683 -32.8234 -22.7096 0.477 0.631 0.611 179 178 176
-104.9730 -32.6326 -22.7364 0.634 0.350 0.690 185 184 182
-203.3263 -19.0837 -43.8094 0.904 -0.221 -0.367 68 84 37
-130.0912 -79.3431 -33.7115 0.767 -0.595 -0.242 191 198 204
-152.9214 -70.1214 -38.0182 0.456 -0.889 -0.024 166 171 167
-100.3597 -33.9988 -22.0438 0.023 0.645 0.763 158 158 158
-98.2156 -33.3819 -21.4826 0.083 0.611 0.787 167 167 165
-102.5829 -33.3220 -22.4865 0.049 0.711 0.701 202 202 200
-103.2198 -33.2139 -22.6224 0.532 -0.106 0.840 162 162 160
-103.1010 -32.9722 -22.5694 0.510 -0.145 0.848 161 161 159
-103.4754 -32.8152 -22.6394 0.542 -0.021 0.840 195 195 193
-104.3602 -32.7418 -22.8363 0.484 0.639 0.597 221 220 218
-104.7381 -32.5804 -22.9067 0.574 0.252 0.779 167 166 164
-241.9782 -45.5793 -56.0255 0.725 -0.541 0.427 84 95 53
-236.1163 -44.3110 -54.5355 0.659 -0.529 0.535 84 95 53
-242.4302 -44.5023 -56.0162 0.613 -0.092 0.784 78 89 47
-209.7879 -39.2157 -47.9071 0.888 0.405 -0.218 77 89 46
-152.8979 -70.1124 -38.3724 0.458 -0.888 -0.028 166 170 169
-83.7017 -35.8597 -18.5645 0.865 -0.239 -0.441 64 46 46
-100.0884 -33.7220 -22.1702 0.092 0.577 0.812 152 152 150
-102.2302 -33.2471 -22.6208 0.050 0.707 0.706 166 166 164
-102.7328 -33.1161 -22.7244 0.878 0.059 0.475 168 168 166
-211.4254 -39.8476 -48.8547 0.935 0.176 -0.307 78 89 47
-216.6006 -37.9241 -49.8613 0.331 0.700 0.633 61 78 33
-216.4187 -36.9066 -49.7110 0.419 0.514 0.749 61 78 33
-212.0509 17.3805 -42.9421 0.418 0.701 0.577 72 90 38
-107.3790 -63.9848 -27.3232 0.655 0.480 -0.583 150 158 161
-94.3045 -35.6284 -21.2239 0.994 -0.018 0.110 72 69 62
-97.9621 -33.3121 -21.8427 0.580 0.675 -0.457 147 147 145
-102.9579 -32.9222 -22.9823 0.017 0.536 0.844 243 243 241
-210.6861 -39.7282 -49.1701 0.920 0.317 -0.231 78 89 47
-211.7462 -38.8681 -49.3294 0.937 0.346 0.053 68 85 40
-230.5480 -22.7902 -52.0681 0.705 -0.643 0.299 62 79 37
-221.9039 -20.0592 -49.7350 0.982 -0.168 0.082 73 90 47
-135.0563 -83.3328 -36.2378 0.742 -0.619 -0.256 140 145 148
-89.8977 -33.4901 -20.1483 0.614 -0.769 -0.180 112 112 107
-98.3356 -33.3709 -22.1517 0.577 0.672 -0.464 193 194 192
-99.5909 -33.3931 -22.4540 0.105 0.765 0.636 156 156 155
-100.3594 -33.3203 -22.6299 0.055 0.736 0.675 154 154 152
-101.5673 -33.1051 -22.8956 0.019 0.722 0.692 239 239 238
-103.7226 -32.5956 -23.3564 0.618 0.264 0.741 156 156 154
-104.2085 -32.4530 -23.4574 0.720 0.429 0.545 164 163 161
-210.8272 -39.7077 -49.7032 0.920 0.317 -0.231 78 89 48
-135.0401 -83.3383 -36.5541 0.739 -0.642 -0.203 140 145 148
-130.9386 -80.1601 -35.2250 0.913 -0.239 -0.330 179 184 187
-151.3172 -69.1558 -38.9734 0.581 -0.810 -0.086 153 159 159
-94.6023 -35.6783 -21.7109 0.875 0.448 -0.186 115 116 112
-98.6939 -33.4267 -22.4590 0.101 0.755 0.648 169 173 173
-99.1181 -33.2943 -22.5473 0.101 0.755 0.648 161 164 165
-100.5940 -33.1358 -22.8868 0.020 0.723 0.691 233 236 237
-101.1245 -33.0144 -23.0020 0.019 0.722 0.692 230 233 234
-105.1817 -32.8260 -23.9616 0.473 0.650 0.595 161 163 160
-106.1419 -32.7575 -24.1862 0.475 0.650 0.593 154 155 153
-214.1484 -37.0681 -50.7266 0.380 0.701 0.603 77 94 53
-214.4055 -36.5974 -50.7386 0.623 0.651 0.434 72 89 48
-204.2853 -33.2947 -47.9428 0.986 0.079 -0.145 56 71 31
-121.6032 -81.1706 -33.3637 0.672 -0.707 -0.222 130 135 131
-120.3934 -80.1639 -32.9610 0.669 -0.710 -0.219 112 117 113
-116.4795 -76.4694 -31.6114 0.842 -0.529 -0.104 143 149 147
-89.7280 -44.3501 -21.6535 0.527 -0.471 0.708 89 89 77
-101.2913 -32.8146 -23.2435 0.021 0.726 0.688 181 185 186
-102.9693 -32.6648 -23.6369 0.631 0.680 -0.374 152 156 156
-104.0833 -32.6295 -23.9050 0.607 0.285 -0.742 154 156 154
-104.8128 -32.5255 -24.0719 0.629 0.266 -0.730 152 154 151
-209.4465 -37.0588 -50.0895 0.387 0.829 0.405 77 93 54
-208.5718 -35.5280 -49.7126 0.853 -0.401 -0.334 61 77 38
-140.3488 -85.6005 -38.7458 0.609 -0.784 -0.121 163 168 171
-89.4172 -44.2380 -21.7608 0.459 -0.362 0.812 89 89 77
-99.3194 -33.0959 -23.0101 0.056 0.755 0.653 217 221 222
-103.7187 -32.7786 -24.0610 0.608 0.678 -0.413 155 159 159
-104.4616 -32.6793 -24.2335 0.607 0.285 -0.742 147 149 147
-105.1703 -32.5707 -24.3967 0.629 0.266 -0.730 150 152 149
-105.7966 -32.4453 -24.5377 0.559 0.541 -0.629 154 156 153
-205.7948 -37.1350 -49.6972 0.437 0.824 0.361 77 93 54
-209.5469 -36.5464 -50.5594 0.594 0.775 0.217 66 82 43
-129.7400 -78.9367 -35.7232 0.892 -0.295 -0.343 184 193 200
-90.7843 -38.6610 -21.6987 0.260 -0.933 0.247 64 55 48
-103.0196 -32.8690 -24.1258 0.487 0.868 0.093 169 173 174
-105.8562 -32.6696 -24.8111 0.679 -0.118 -0.724 149 151 148
-105.9087 -32.4496 -24.8006 0.702 0.275 -0.657 156 158 155
-203.0400 -36.8194 -49.4683 0.574 0.813 -0.096 77 93 54
-204.7146 -34.6268 -49.6504 0.795 -0.559 -0.234 45 61 22
-195.3742 27.5427 -40.6563 0.702 -0.643 0.306 64 89 31
-129.0753 -78.5942 -35.8259 0.728 -0.652 0.212 184 193 200
-116.2275 -54.8505 -30.0404 0.690 -0.639 -0.339 131 140 139
-115.6598 -54.3796 -29.8469 0.688 -0.640 -0.341 108 114 111
-114.4348 -53.4149 -29.4349 0.713 -0.648 -0.269 91 91 82
-103.6834 -32.9699 -24.5316 0.495 0.865 0.085 145 149 150
-106.3891 -32.5132 -25.1635 0.712 0.293 -0.638 164 166 163
-202.8874 -36.7676 -49.9093 0.582 0.808 -0.090 64 80 41
-204.9632 -36.0298 -50.3525 0.600 0.792 -0.116 52 68 29
-208.6110 -26.2933 -50.2243 0.449 -0.885 0.123 59 73 37
-204.3679 17.4042 -44.4602 0.856 -0.193 0.480 62 86 28
-200.6209 18.9019 -43.3561 0.594 -0.270 0.757 66 87 31
-195.0980 24.5946 -41.3542 0.142 0.654 0.744 62 90 31
-198.2417 27.0561 -41.8810 0.580 0.189 0.792 65 93 34
-195.7308 26.8631 -41.2697 0.715 -0.637 0.289 65 93 34
-195.4525 27.2168 -41.1617 0.702 -0.643 0.306 65 93 34
-195.1762 27.5695 -41.0542 0.702 -0.643 0.306 68 93 35
-194.9009 27.9209 -40.9472 0.702 -0.643 0.306 70 95 37
-118.2278 -78.6621 -33.3806 0.763 -0.647 -0.010 115 121 117
-116.9669 -76.5348 -32.8309 0.918 -0.255 0.303 142 148 146
-116.4805 -54.9424 -30.3818 0.690 -0.639 -0.339 131 140 139
-115.9091 -54.4693 -30.1855 0.689 -0.638 -0.344 107 113 110
-103.2957 -33.1133 -24.6784 0.471 0.837 -0.277 152 156 157
-106.5512 -33.2173 -25.5174 0.655 0.707 -0.268 149 153 153
-107.6957 -33.1767 -25.8040 0.607 0.779 -0.157 158 160 158
-106.7605 -32.5591 -25.4997 0.640 0.160 -0.751 169 171 168
-106.5798 -32.2995 -25.4258 0.561 0.040 -0.827 174 176 173
-106.5997 -32.0722 -25.4064 0.560 0.042 -0.828 179 181 178
-198.8414 -34.9477 -49.1698 0.774 0.628 0.077 52 68 29
-204.5463 16.6112 -45.0676 0.849 -0.173 0.500 69 93 35
-204.4248 17.0384 -44.9907 0.851 -0.190 0.489 67 91 33
-204.1299 17.4324 -44.8733 0.856 -0.193 0.480 67 91 33
-201.3943 17.8046 -44.1376 0.611 -0.334 0.718 68 91 35
-198.9820 19.0840 -43.3864 0.611 -0.096 0.786 71 92 36
-195.5424 26.8928 -41.6709 0.715 -0.637 0.289 72 100 41
-195.2699 27.2476 -41.5634 0.715 -0.637 0.289 72 100 41
-194.9982 27.6011 -41.4562 0.715 -0.637 0.289 73 98 40
-194.7275 27.9535 -41.3495 0.715 -0.637 0.289 72 97 40
-121.3837 -57.2971 -32.1634 0.981 0.190 -0.044 146 152 152
-120.9210 -56.8479 -31.9961 0.964 -0.184 -0.192 146 152 152
-116.1186 -54.5445 -30.5140 0.904 -0.229 -0.360 108 114 111
-107.2424 -33.3202 -25.9437 0.648 0.714 -0.267 158 162 162
-108.0518 -32.9874 -26.1156 0.647 0.657 -0.387 169 171 168
-193.7276 14.2849 -43.0180 0.928 0.185 -0.323 77 100 44
-197.2849 26.9749 -42.5620 0.580 0.189 0.792 77 105 47
-116.9930 -76.8555 -33.4215 0.890 -0.443 -0.108 133 137 136
-131.2737 -80.4341 -37.5130 0.633 -0.772 0.060 158 163 166
-116.5017 -54.4177 -30.8672 0.898 -0.018 -0.440 93 96 89
-96.4282 -32.3079 -23.2688 0.425 -0.059 0.903 153 157 158
-96.4479 -32.1056 -23.2520 0.425 -0.048 0.904 143 147 147
-108.5512 -32.8190 -26.4688 0.673 0.557 -0.487 180 182 179
-109.0110 -32.6559 -26.5704 0.676 0.287 -0.678 185 187 184
-108.4515 -32.3319 -26.3903 0.656 0.269 -0.705 190 192 189
-159.1918 -73.2620 -44.3625 0.826 -0.269 -0.495 190 193 196
-120.7201 -56.4953 -32.4664 0.904 -0.263 -0.337 139 143 143
-120.3780 -55.8186 -32.3034 0.902 -0.267 -0.340 95 99 92
-76.5057 -38.3480 -18.9162 0.727 -0.686 -0.028 82 74 69
-69.7052 -33.6631 -16.6269 0.422 0.901 -0.099 146 147 144
-87.2031 -33.9490 -21.2419 0.868 0.108 0.486 149 155 158
-95.6839 -32.3677 -23.2923 0.203 0.258 0.945 146 148 145
-196.8984 -36.9316 -50.3031 0.123 0.369 0.921 71 88 46
-135.4210 -98.1442 -41.1600 0.680 -0.649 -0.342 104 107 100
-147.7048 -70.9313 -41.4540 0.573 -0.752 -0.326 130 135 139
-146.1138 -69.9474 -40.9263 0.571 -0.753 -0.328 126 131 135
-144.3994 -68.9232 -40.3615 0.575 -0.750 -0.328 136 141 145
-69.7511 -33.6730 -16.7839 0.423 0.901 -0.098 150 152 150
-93.5533 -32.1701 -22.9177 0.221 0.966 0.132 158 160 157
-95.2211 -32.2728 -23.3701 0.263 0.959 0.108 154 156 153
-96.3534 -32.2715 -23.6695 0.155 0.060 0.986 156 158 155
-98.7504 -32.0633 -24.2810 0.049 -0.027 0.998 168 170 167
-111.1469 -32.9641 -27.6585 0.712 0.219 -0.667 191 191 191
-195.7560 -38.5895 -50.6535 0.293 -0.815 0.500 75 90 51
-196.5621 -36.8614 -50.6791 0.166 0.371 0.914 71 88 46
-182.4385 9.2504 -41.9341 0.918 -0.391 0.062 68 87 41
-182.2006 11.2056 -41.6588 0.578 0.064 0.814 75 95 46
-117.1395 -76.4301 -34.2414 0.797 -0.354 -0.489 138 142 141
-144.9378 -69.1378 -40.8737 0.570 -0.750 -0.336 135 140 144
-118.9101 -55.0129 -32.3832 0.946 0.021 -0.324 92 95 85
-94.9777 -33.0288 -23.5969 0.585 0.788 -0.191 164 168 169
-200.8116 -38.2040 -52.4328 0.392 -0.198 0.898 68 83 44
-195.6587 -36.7319 -50.8960 0.166 0.371 0.914 71 88 46
-177.3343 -25.0994 -44.7347 0.688 0.686 0.239 70 87 41
-177.3082 -24.6959 -44.6838 0.807 0.578 0.121 70 88 40
-182.3881 9.3040 -42.3400 0.918 -0.391 0.062 67 86 40
-182.8194 9.7749 -42.4040 0.812 -0.570 0.125 76 95 49
-182.3844 10.1028 -42.2521 0.908 -0.417 0.048 76 95 49
-181.9288 10.8232 -42.0520 0.759 -0.186 0.624 75 94 48
-181.8793 11.2125 -41.9964 0.759 -0.186 0.624 70 90 41
-121.1679 -56.3783 -33.4175 0.976 0.004 -0.216 114 118 115
-69.9896 -33.7355 -17.1434 0.948 0.319 0.009 162 164 162
-92.5588 -39.5053 -23.8603 0.273 -0.945 0.181 116 118 115
-178.6184 -25.1189 -45.5038 0.629 0.674 0.388 74 92 45
-178.5478 -24.7100 -45.4401 0.724 0.564 0.398 74 92 44
-205.0730 10.7856 -48.7229 0.867 -0.470 -0.166 60 81 38
-182.6362 9.4063 -42.8215 0.857 -0.310 -0.412 66 85 39
-183.0988 10.2850 -42.8504 0.722 -0.196 -0.664 73 92 46
-183.9887 30.0044 -40.9395 0.950 0.294 0.110 69 94 36
-183.2808 30.1970 -40.7276 0.713 0.678 0.179 69 94 36
-121.3098 -80.5989 -36.3866 0.735 -0.534 -0.419 138 143 139
-117.5302 -77.5213 -35.0210 0.886 -0.453 -0.102 116 120 119
-140.3413 -81.3467 -41.6510 0.849 0.390 -0.356 190 200 203
-140.1603 -66.2587 -39.9524 0.550 -0.790 -0.272 180 185 189
-120.7227 -55.9376 -33.5310 0.695 -0.719 0.031 95 100 92
-74.9838 -37.2057 -19.0279 0.462 -0.867 -0.186 53 46 40
-91.4728 -39.1950 -23.7356 0.266 -0.944 0.193 108 110 107
-99.6355 -32.6060 -25.2382 0.592 0.641 -0.488 187 189 186
-183.7536 -2.9485 -44.9032 0.578 0.483 0.658 67 83 38
-185.5547 -1.5494 -45.2408 0.559 0.422 0.714 63 80 35
-167.7178 9.9499 -39.1265 0.287 0.725 0.626 55 75 26
-183.9397 29.2751 -41.4316 1.000 -0.021 -0.023 67 92 35
-184.0948 30.1102 -41.3825 0.939 0.334 0.082 65 90 32
-116.7322 -75.9621 -34.9096 0.809 -0.585 0.067 139 143 142
-140.4497 -66.3717 -40.3793 0.500 -0.864 -0.062 180 185 189
-162.6919 -73.8349 -47.3115 0.909 -0.313 -0.276 185 189 188
-121.4269 -56.4702 -34.0650 0.685 -0.726 0.056 115 119 116
-76.1418 -37.8977 -19.5812 0.454 -0.517 0.726 73 66 60
-75.2081 -37.2762 -19.2564 0.462 -0.867 -0.186 53 46 40
-91.9840 -33.0144 -23.4014 0.397 0.916 -0.059 146 150 151
-92.7175 -32.9619 -23.5973 0.469 0.883 0.017 148 152 153
-97.8805 -32.9177 -25.0119 0.148 0.953 0.263 177 179 176
-100.3659 -32.7218 -25.6737 0.573 0.735 -0.363 187 189 186
-100.1618 -32.4700 -25.5900 0.503 0.804 -0.318 187 189 186
-177.8320 15.3458 -41.7047 0.731 0.448 -0.515 63 83 32
-184.5922 28.7378 -42.0962 0.998 -0.049 0.033 65 90 35
-184.4890 30.2982 -41.8968 0.994 0.112 0.008 60 85 27
-142.3176 -92.7372 -44.1280 0.849 0.483 0.214 129 133 132
-140.5446 -66.4092 -40.7459 0.488 -0.871 -0.063 180 185 189
-163.3264 -73.2943 -47.8239 0.897 -0.407 -0.171 151 155 156
-76.1961 -37.9135 -19.7605 0.648 -0.238 0.724 73 66 60
-84.1956 -36.9638 -21.8762 0.690 -0.683 0.241 129 134 130
-84.2261 -35.3664 -21.7093 0.464 -0.804 -0.373 148 140 141
-92.1092 -33.0294 -23.6404 0.069 0.898 0.435 153 157 158
-99.6977 -33.2381 -25.7692 0.235 0.960 0.151 184 186 183
-99.8069 -32.8270 -25.7544 0.249 0.962 0.116 185 187 184
-176.5079 -36.6316 -47.4573 0.753 -0.568 0.332 62 77 38
-166.0226 -17.3483 -42.4307 0.956 -0.280 0.090 66 85 40
-174.6063 -4.8176 -43.4372 0.711 0.310 0.631 68 84 39
-178.1747 -1.7534 -44.0911 0.804 -0.580 0.134 52 69 24
-184.4178 10.6962 -44.4570 0.721 -0.193 -0.665 61 80 34
-184.2325 11.0698 -44.3646 0.721 -0.193 -0.665 53 72 26
-183.8052 11.4004 -44.2097 0.727 -0.184 -0.661 49 68 22
-178.4713 15.5413 -42.2749 0.737 0.432 -0.519 64 84 33
-177.6380 15.7573 -42.0200 0.860 -0.227 -0.458 66 86 37
-177.9399 16.2070 -42.0544 0.890 -0.185 -0.416 69 89 38
-177.7939 16.5630 -41.9748 0.993 -0.046 0.111 72 92 41
-177.1203 16.8052 -41.7613 0.988 -0.035 0.149 76 96 45
-184.1256 29.4778 -42.3142 0.956 -0.090 -0.280 55 80 23
-183.6783 29.7479 -42.1604 0.991 0.064 -0.115 53 78 21
-183.9632 30.2244 -42.1872 0.991 0.083 -0.105 53 78 21
-142.0123 -92.5764 -44.3725 0.853 0.458 0.252 131 135 134
-140.7351 -66.4838 -41.1444 0.485 -0.873 -0.052 181 186 190
-76.9278 -37.9914 -20.1369 0.467 -0.862 -0.198 64 57 51
-86.3005 -36.2556 -22.5713 0.342 -0.639 0.689 155 147 148
-86.0954 -36.0192 -22.4879 0.354 -0.640 0.681 151 141 141
-87.4124 -32.8291 -22.5059 0.127 0.049 0.991 156 161 163
-88.4575 -32.8591 -22.8019 0.420 -0.307 0.854 155 159 160
-88.7147 -32.7238 -22.8590 0.208 0.058 0.976 157 161 162
-92.6598 -32.7325 -23.9651 0.563 0.774 -0.291 166 169 171
-98.7538 -33.0541 -25.7074 0.261 0.958 0.117 188 190 187
-164.3275 -17.3141 -42.3439 0.939 -0.339 0.064 66 85 41
-174.2633 -5.1825 -43.7925 0.713 0.308 0.629 67 83 38
-174.6860 -3.9838 -43.7790 0.881 0.245 0.404 72 88 43
-186.1353 8.5880 -45.6032 0.669 -0.260 0.696 79 101 55
-183.9984 9.8790 -44.8626 0.815 -0.575 -0.072 74 93 47
-165.0582 9.9957 -39.5444 0.751 -0.656 0.066 60 79 31
-179.7851 15.8758 -43.0227 0.919 -0.179 -0.351 65 85 35
-178.2914 15.9579 -42.5952 0.861 -0.236 -0.451 64 83 36
-177.0595 16.8577 -42.1512 0.988 -0.035 0.149 83 103 55
-176.4658 17.1137 -41.9567 0.741 0.423 0.522 84 107 58
-183.7222 21.0882 -43.5521 0.815 0.579 0.012 77 104 54
-184.2471 29.5874 -42.7642 0.956 -0.090 -0.280 53 78 22
-87.7334 -37.1846 -23.2679 0.228 -0.715 0.661 143 142 140
-87.3670 -36.8998 -23.1329 0.205 -0.671 0.712 143 142 142
-86.9259 -36.5974 -22.9749 0.205 -0.671 0.712 143 142 142
-85.9222 -35.9685 -22.6218 0.255 -0.615 0.746 143 143 141
-86.9848 -32.7313 -22.5653 0.127 0.049 0.991 152 154 154
-87.9180 -32.7392 -22.8300 0.147 -0.195 0.970 149 150 150
-91.4706 -33.2737 -23.8933 0.463 0.882 -0.091 155 155 155
-95.4646 -33.6731 -25.0665 0.591 0.698 -0.405 168 168 168
-96.0548 -33.5830 -25.2235 0.580 0.705 -0.408 176 177 176
-176.9797 -36.6267 -48.4378 0.782 -0.605 -0.147 73 84 49
-168.0926 -16.8824 -43.7487 0.885 -0.430 -0.180 59 74 35
-168.7105 -16.1203 -43.8394 0.886 -0.429 -0.175 59 74 35
-186.6371 9.1408 -46.1228 0.927 0.207 -0.314 83 100 56
-179.7425 10.0307 -44.0755 0.220 -0.583 0.782 60 77 35
-178.8753 10.2762 -43.8032 0.220 -0.582 0.783 67 84 41
-165.3893 10.1154 -40.0082 0.684 -0.712 0.158 58 77 32
-180.7457 16.1388 -43.6858 0.972 -0.097 -0.214 69 87 46
-177.9664 16.7309 -42.8347 0.988 -0.132 -0.077 90 108 65
-177.1966 16.9528 -42.5926 0.979 -0.060 0.193 95 114 70
-176.7724 17.2459 -42.4404 0.695 0.392 0.603 93 115 71
-176.8951 23.4042 -41.7962 0.368 0.240 0.898 79 102 57
-147.4402 -70.1390 -44.1376 0.496 -0.867 0.056 131 134 139
-122.1894 -56.4609 -35.4219 0.750 0.634 0.189 102 106 104
-71.2007 -33.9212 -18.3835 0.917 0.333 -0.221 138 140 139
-87.3453 -33.7237 -22.9681 0.236 0.624 0.745 188 190 189
-86.4702 -32.6156 -22.5960 0.132 0.055 0.990 154 156 155
-96.8053 -33.5099 -25.6437 0.359 0.933 -0.023 182 182 182
-100.9980 -33.8782 -26.8807 0.399 0.915 0.055 192 192 192
-101.3290 -33.7201 -26.9576 0.401 0.915 0.049 190 192 191
-140.7173 -36.2018 -38.4703 0.504 0.863 -0.023 198 200 199
-185.0243 9.7661 -46.0341 0.619 -0.470 0.630 72 89 47
-177.4327 16.2965 -43.1466 0.994 -0.052 -0.091 84 102 62
-177.5811 16.7146 -43.1427 0.993 -0.073 -0.090 90 108 68
-176.9482 24.2518 -42.1295 0.484 0.048 0.874 65 91 43
-167.9833 -75.8462 -51.0418 0.270 0.951 0.152 188 194 194
-71.2370 -33.9280 -18.5443 0.917 0.333 -0.221 138 140 139
-147.8622 -55.3118 -42.9749 0.871 0.104 -0.480 141 143 142
-87.1193 -33.6656 -23.0884 0.236 0.624 0.745 168 170 169
-87.5636 -33.5776 -23.2065 0.226 0.620 0.752 151 153 152
-88.4616 -33.5851 -23.4659 0.789 0.085 -0.609 157 159 158
-100.6047 -34.0113 -27.0096 0.462 0.869 0.179 188 188 188
-100.8901 -33.8463 -27.0735 0.462 0.869 0.179 192 192 192
-176.9266 -36.5605 -49.2678 0.760 -0.632 -0.150 69 76 43
-178.5848 -36.3397 -49.7209 0.381 -0.871 0.310 69 76 43
-174.0006 -23.4640 -46.9755 0.465 -0.512 0.722 62 80 40
-163.9594 2.4491 -41.2155 0.609 0.749 -0.262 78 97 51
-187.1409 9.7608 -47.0809 0.873 -0.475 -0.109 78 95 53
-177.6063 16.7857 -43.5578 0.993 -0.075 -0.092 90 108 68
-177.2838 17.1031 -43.4298 0.981 -0.051 0.189 95 113 73
-79.3699 -38.9497 -21.6144 0.445 -0.894 0.047 79 71 68
-80.5038 -34.7276 -21.4754 0.489 -0.439 0.754 141 143 142
-90.0919 -34.1203 -24.1939 0.794 -0.033 -0.607 154 156 155
-85.2402 -32.7027 -22.6270 0.380 0.205 0.902 157 159 158
-100.2399 -34.1485 -27.1456 0.470 0.882 -0.035 182 182 182
-177.0176 -36.5410 -49.7192 0.762 -0.628 -0.158 75 82 49
-170.0642 -6.4557 -44.3612 0.324 0.930 -0.174 72 90 42
-174.9193 -3.7573 -45.4725 0.302 0.952 -0.045 60 73 30
-177.2239 5.1010 -45.1594 0.604 0.690 -0.399 80 99 53
-174.4482 8.9303 -43.9281 0.673 -0.680 0.290 71 88 46
-171.6488 9.5871 -43.0418 0.667 -0.667 0.332 87 104 62
-172.4818 10.4884 -43.1839 0.859 -0.407 0.312 71 90 45
-172.7968 10.9233 -43.2272 0.885 -0.355 0.301 71 90 45
-174.1016 11.5427 -43.5376 0.707 -0.616 0.348 71 90 45
-176.4682 16.9928 -43.6206 0.843 0.400 -0.360 95 113 73
-186.5649 66.5669 -41.0545 0.724 0.120 0.679 58 85 34
-186.2991 66.8234 -40.9488 0.689 0.137 0.712 58 85 34
-186.4054 67.2637 -40.9309 0.689 0.137 0.712 58 85 32
-115.6709 -83.7691 -37.4122 0.928 0.196 -0.317 110 115 109
-124.7653 -75.5935 -39.1696 0.829 -0.296 0.475 182 194 208
-81.8026 -39.9248 -22.6086 0.422 -0.904 -0.064 98 89 84
-81.8147 -35.4075 -22.1099 0.488 -0.188 0.852 143 145 144
-80.4973 -34.5511 -21.6285 0.397 -0.425 0.813 150 152 149
-88.7084 -33.8103 -23.9534 0.888 -0.363 -0.281 152 154 153
-177.9392 -36.2053 -50.3800 0.381 -0.872 0.308 64 71 38
-183.6270 -34.2938 -51.8350 0.480 0.177 0.859 67 79 41
-172.6721 9.8267 -43.7183 0.827 -0.447 0.340 75 92 50
-172.5172 10.1774 -43.6339 0.827 -0.447 0.340 75 94 49
-172.5452 13.5774 -43.2641 0.371 0.549 0.749 78 96 56
-178.5151 16.7223 -44.6647 0.771 0.523 -0.364 84 102 62
-189.9223 26.6189 -46.9088 0.855 0.268 0.444 72 95 51
-186.3698 66.5703 -41.4257 0.847 0.118 0.517 49 76 25
-186.0601 66.8046 -41.3089 0.835 0.115 0.538 48 75 24
-79.9212 -39.1269 -22.1426 0.425 -0.903 0.060 106 98 95
-80.3207 -35.0070 -21.8018 0.018 0.097 0.995 143 145 144
-80.5608 -34.7312 -21.8421 0.343 -0.529 0.776 144 146 145
-88.1405 -32.9272 -23.8832 0.620 0.499 -0.606 174 176 175
-88.3657 -32.7858 -23.9341 0.620 0.478 -0.622 182 182 182
-113.4836 -31.8962 -31.2648 0.226 -0.959 -0.169 193 197 196
-176.9097 -36.8780 -50.5813 0.353 -0.856 0.377 72 79 46
-178.4707 17.1690 -45.0218 0.784 0.481 -0.392 85 103 63
-73.8614 -36.3560 -20.1995 0.454 -0.884 -0.114 64 59 56
-79.0389 -34.9947 -21.5926 0.052 -0.025 0.998 143 145 144
-170.9842 -35.7556 -49.1166 0.658 -0.698 0.283 72 79 46
-164.7014 -15.9205 -45.0272 0.545 0.242 0.803 62 77 38
-165.0403 -15.5449 -45.0864 0.544 0.252 0.801 62 77 37
-142.4839 -92.6610 -47.3164 0.671 0.502 0.546 135 137 134
-77.6131 -38.0328 -21.6748 0.461 -0.880 -0.116 73 67 63
-70.7211 -33.6162 -19.1058 0.643 0.363 -0.675 137 138 138
-84.0654 -32.9527 -23.0490 0.774 0.547 0.319 159 161 160
-115.8420 -32.2004 -32.5315 0.227 -0.959 -0.168 193 197 196
-171.1409 -35.7445 -49.5762 0.669 -0.699 0.254 70 80 46
-170.3374 -35.2586 -49.2800 0.763 -0.447 0.466 62 72 38
-176.0382 -16.9285 -48.9455 0.684 -0.471 -0.558 60 75 36
-164.2426 -14.7774 -45.1537 0.732 0.649 0.209 75 92 45
-151.2419 15.9751 -37.7992 0.767 -0.131 0.628 79 102 58
-118.0050 -85.3877 -39.4195 0.746 0.398 -0.534 110 113 106
-142.1485 -92.4830 -47.5472 0.681 0.504 0.531 137 139 138
-100.4880 -52.0049 -30.3570 0.785 0.610 0.104 122 114 124
-80.0898 -33.7497 -22.1156 0.350 0.893 0.283 249 253 255
