ply
format ascii 1.0
element vertex 852
property float x
property float y
property float z
property float nx
property float ny
property float nz
property uchar diffuse_red
property uchar diffuse_green
property uchar diffuse_blue
end_header
288.4021 375.0999 -40.1998 -0.375 -0.922 -0.097 37 39 38
286.9822 371.3090 -40.0275 -0.094 -0.922 0.376 36 38 37
282.8786 341.5359 -39.7124 -0.119 -0.836 -0.536 23 25 22
261.7304 274.3475 -37.2506 -0.838 -0.397 0.375 57 57 53
344.6180 318.7764 -49.0249 -0.717 -0.388 0.578 56 60 53
348.1614 315.1631 -49.5817 -0.733 -0.495 0.466 55 59 53
392.8050 294.2749 -56.3586 -0.999 -0.009 0.034 47 52 48
378.8091 272.6980 -54.5072 -0.766 -0.157 0.624 45 45 47
364.8439 261.0723 -52.5636 -0.719 -0.145 0.680 45 45 47
372.5645 246.2899 -53.8441 -0.905 -0.424 -0.042 42 40 41
388.6525 246.8444 -56.2077 0.346 -0.935 -0.070 53 53 61
352.0738 218.8299 -51.0933 -0.538 -0.799 -0.266 34 33 41
395.7071 230.3539 -57.4067 -0.585 -0.544 -0.602 102 90 100
367.5934 209.6836 -53.4675 -0.268 -0.783 -0.562 62 50 60
366.7083 208.2789 -53.3508 -0.297 -0.780 -0.551 65 53 63
430.6328 228.5545 -62.5672 -0.881 -0.455 -0.132 83 65 79
-39.4876 612.9101 9.1898 -0.667 -0.366 0.650 54 52 66
13.7699 249.3419 -1.4997 0.068 -0.998 0.003 92 88 105
99.4744 389.5454 -13.1508 -0.293 -0.804 -0.517 77 69 80
106.9478 394.8568 -14.2196 -0.692 -0.207 0.692 35 30 39
113.1753 370.0004 -15.3344 -0.390 -0.624 -0.677 39 30 35
125.9516 342.6468 -17.4406 -0.802 -0.343 0.488 64 61 69
208.1920 418.6524 -29.0688 -0.650 -0.413 -0.638 67 73 61
209.3169 418.4879 -29.2370 -0.568 -0.512 -0.644 58 63 55
222.2242 435.3802 -31.0240 -0.476 -0.667 -0.573 31 31 37
215.9346 371.0608 -30.5825 -0.349 -0.839 0.418 19 21 20
231.1118 394.5132 -32.6563 -0.218 -0.950 0.225 30 32 31
231.8070 393.5551 -32.7668 -0.217 -0.950 0.224 33 33 35
233.2574 391.7602 -32.9959 -0.216 -0.950 0.226 30 30 32
240.6465 371.0164 -34.2517 -0.399 -0.791 -0.464 22 22 24
258.3524 387.5020 -36.7542 -0.454 -0.635 -0.625 36 35 40
261.7523 386.7515 -37.2648 -0.448 -0.648 -0.616 32 31 37
262.6539 362.9335 -37.5809 0.253 -0.540 0.803 31 30 34
265.7150 363.6979 -38.0295 0.253 -0.540 0.803 36 35 40
289.0053 376.1284 -41.3922 -0.353 -0.933 -0.068 51 53 50
286.7419 367.5279 -41.1220 -0.049 -0.910 0.411 47 49 46
282.2338 357.8900 -40.5264 -0.204 -0.646 0.735 37 39 36
343.8879 316.7595 -49.9947 -0.716 -0.391 0.578 57 63 51
381.6823 342.5045 -55.4088 0.256 -0.684 0.683 51 56 50
383.8146 342.9900 -55.7217 0.256 -0.684 0.683 51 56 49
372.1547 324.9162 -54.1289 -0.719 -0.513 0.468 49 54 47
352.4967 301.6632 -51.3884 -0.256 -0.704 -0.662 49 54 48
377.1769 278.5255 -55.2296 -0.844 -0.404 0.354 49 49 51
395.2746 288.7991 -57.8379 0.540 -0.841 -0.018 50 50 52
359.7283 231.5079 -52.9989 -0.948 -0.263 -0.179 137 137 145
394.9994 251.0889 -58.0856 0.167 -0.975 -0.147 91 91 99
429.6253 259.5764 -63.1614 -0.757 -0.475 -0.448 53 50 59
430.0294 258.7459 -63.2277 -0.759 -0.478 -0.442 59 56 65
389.7363 223.8999 -57.5123 -0.100 -0.950 -0.295 73 62 72
383.7642 219.3854 -56.6602 -0.344 -0.932 -0.110 72 61 70
362.7611 205.0725 -53.6515 0.043 -0.862 -0.506 71 60 69
109.4122 49.0743 -17.2320 -0.494 -0.577 -0.651 77 60 71
342.9658 161.2939 -51.0477 0.159 -0.909 0.386 100 100 105
13.6572 249.3326 -2.0034 0.068 -0.998 0.003 81 77 92
98.5344 390.0689 -13.9201 -0.314 -0.809 -0.497 69 59 68
100.9670 389.1064 -14.2896 -0.322 -0.804 -0.501 41 33 44
113.2577 370.9208 -16.2309 -0.390 -0.624 -0.677 46 35 41
113.5949 365.6890 -16.3107 -0.469 -0.704 -0.534 45 36 41
116.1442 365.4008 -16.6938 -0.371 -0.751 -0.546 47 41 42
210.3142 418.4291 -30.4921 -0.568 -0.509 -0.647 39 46 41
208.3641 392.2925 -30.3464 -0.233 -0.848 -0.476 28 32 35
213.4549 366.7791 -31.2511 -0.331 -0.822 0.464 29 30 32
217.7100 372.4994 -31.8560 -0.295 -0.842 0.452 36 37 39
229.9439 392.6865 -33.5742 -0.209 -0.946 0.250 40 41 43
230.8589 392.1358 -33.7142 -0.213 -0.945 0.248 41 40 42
231.9232 391.8542 -33.8751 -0.213 -0.945 0.248 53 51 54
232.0686 389.9234 -33.9077 -0.283 -0.932 0.226 53 51 54
265.9058 395.5761 -38.9406 -0.176 -0.861 -0.478 29 28 33
264.8264 391.8120 -38.8001 -0.233 -0.798 -0.556 29 28 33
290.3583 378.1877 -42.6978 -0.322 -0.945 0.063 52 54 51
286.8206 371.4833 -42.2058 -0.078 -0.922 0.380 51 53 50
291.2164 370.1109 -42.8715 -0.157 -0.382 0.911 39 41 38
372.6263 334.1216 -55.2579 0.300 -0.770 0.564 72 77 71
371.5348 320.2130 -55.1723 0.115 -0.914 -0.390 49 54 47
329.9005 277.8183 -49.1778 0.489 -0.695 -0.527 49 54 48
342.3980 252.7841 -51.1885 -0.823 -0.478 0.309 50 52 51
388.4895 257.3871 -58.0615 -0.922 -0.143 -0.359 46 44 46
385.8979 254.5177 -57.6896 -0.932 -0.146 -0.331 44 43 43
361.1758 232.5128 -54.1124 -0.948 -0.263 -0.180 131 131 140
355.0969 227.4456 -53.2309 -0.964 -0.211 0.160 127 127 137
366.6228 234.2156 -54.9182 -0.933 -0.360 -0.001 116 114 125
378.7843 234.3587 -56.7377 -0.854 -0.274 0.442 49 48 58
441.7163 266.0959 -65.9795 0.290 -0.386 0.876 53 50 58
441.3505 263.6506 -65.9384 0.256 -0.452 0.855 56 51 58
343.9892 155.0660 -51.9733 -0.959 -0.257 -0.122 79 77 82
13.0982 248.2650 -2.4438 0.086 -0.919 -0.384 78 74 89
99.2681 390.1939 -14.9442 -0.322 -0.804 -0.501 98 90 101
100.0953 389.9412 -15.0699 -0.322 -0.804 -0.501 113 105 116
100.9234 389.6883 -15.1957 -0.322 -0.804 -0.501 82 74 85
101.8046 389.6656 -15.3288 -0.314 -0.809 -0.497 41 33 44
111.5338 403.9512 -16.7463 -0.682 0.122 0.721 59 54 60
109.0633 368.9169 -16.4973 -0.322 -0.705 -0.632 43 36 43
109.5087 367.2926 -16.5703 -0.323 -0.706 -0.630 35 28 35
114.1859 371.6996 -17.2604 -0.393 -0.627 -0.673 62 53 56
114.3683 369.1192 -17.2971 -0.374 -0.673 -0.638 56 47 52
114.8840 367.7859 -17.3796 -0.358 -0.668 -0.652 49 39 47
79.1128 218.5415 -12.5095 0.005 -0.978 0.210 76 71 68
207.4142 415.1717 -31.1737 -0.556 -0.718 -0.419 59 67 56
209.4617 414.4378 -31.4852 -0.532 -0.728 -0.432 34 40 41
215.2283 404.0980 -32.3919 -0.511 -0.598 -0.617 28 32 35
216.1165 403.4790 -32.5281 -0.511 -0.598 -0.617 27 31 34
215.7704 398.0505 -32.4950 -0.978 -0.182 0.096 29 30 32
217.3201 382.8516 -32.7826 -0.375 -0.651 0.660 26 27 29
216.7987 377.5111 -32.7228 -0.717 -0.635 0.287 27 28 30
217.5876 372.5616 -32.8593 -0.299 -0.848 0.437 46 47 49
231.8091 389.7502 -34.9444 -0.283 -0.932 0.226 70 70 72
232.6968 389.1576 -35.0804 -0.028 -0.932 0.362 28 28 30
234.6447 390.4455 -35.3698 -0.190 -0.949 0.250 28 28 30
271.1440 406.2174 -40.8213 -0.220 -0.940 -0.260 22 23 27
280.8693 369.0101 -42.4202 -0.770 -0.540 0.339 34 39 33
285.9230 374.1531 -43.1646 -0.343 -0.939 -0.009 39 44 38
289.8055 377.6312 -43.7381 -0.329 -0.943 0.055 43 48 42
287.6924 369.2010 -43.4490 -0.059 -0.906 0.419 40 45 39
289.8707 368.4990 -43.7802 -0.157 -0.382 0.911 36 41 37
316.0775 378.9212 -47.6976 0.088 -0.968 -0.234 38 43 39
317.6893 379.1265 -47.9401 0.088 -0.968 -0.234 43 48 42
290.7600 279.0215 -44.2305 -0.319 -0.921 0.222 58 64 52
299.6521 274.2174 -45.5892 -0.276 -0.885 -0.375 68 74 64
366.4366 334.2693 -55.4539 0.291 -0.578 0.762 68 73 66
377.5650 337.3580 -57.1221 -0.306 -0.504 0.808 80 85 79
338.6907 298.4550 -51.3940 0.478 -0.851 -0.218 64 69 63
379.6728 262.1442 -57.7059 0.414 -0.516 0.750 66 64 65
335.1006 226.0816 -51.1080 -0.031 -0.734 0.679 65 65 64
390.7245 262.2638 -59.3730 -0.148 -0.793 0.591 52 53 52
385.3881 256.3488 -58.5887 -0.551 -0.399 0.733 59 60 59
392.5336 260.2226 -59.6532 -0.647 -0.573 -0.502 48 49 48
376.8231 246.2047 -57.3322 -0.938 -0.230 -0.260 59 61 60
372.6201 242.3058 -56.7118 -0.949 -0.242 -0.204 83 85 86
356.8654 228.6618 -54.3829 -0.933 -0.356 -0.050 120 119 125
403.4583 254.6180 -61.3214 0.131 -0.986 -0.104 85 84 88
408.2877 256.7219 -62.0426 0.013 -0.986 -0.169 71 70 74
427.0358 256.9080 -64.8708 0.294 -0.387 0.874 77 79 82
390.5075 210.7104 -59.5224 0.146 -0.746 -0.650 62 62 60
368.3661 179.1395 -56.2932 -0.986 -0.169 -0.008 95 94 99
304.1978 141.3975 -46.7444 0.298 -0.749 0.592 100 99 104
384.1613 180.2351 -58.6726 0.395 -0.886 -0.243 100 99 104
12.9871 249.9203 -2.9431 -0.210 -0.762 -0.612 79 75 90
14.8010 253.0030 -3.2144 -0.561 -0.815 0.146 86 82 97
99.2424 390.8737 -15.8552 -0.249 -0.833 -0.494 70 62 73
100.9277 390.4869 -16.1121 -0.314 -0.809 -0.497 90 82 95
101.8032 390.4310 -16.2453 -0.245 -0.827 -0.505 46 38 51
110.2440 370.7412 -17.5581 -0.324 -0.709 -0.626 52 42 50
114.4269 369.9381 -18.1955 -0.374 -0.673 -0.638 60 51 56
114.9509 368.6257 -18.2771 -0.358 -0.668 -0.652 54 45 50
135.2919 343.0970 -21.4085 -0.383 -0.794 -0.473 79 79 66
138.4231 349.3816 -21.8755 -0.390 -0.786 -0.479 76 77 65
204.9607 397.8946 -31.9245 0.100 -0.865 0.492 32 36 39
214.2692 402.5141 -33.3335 -0.524 -0.592 -0.611 28 32 35
213.7845 399.1570 -33.2647 -0.509 -0.602 -0.615 27 31 34
217.6391 381.5580 -33.8769 -0.375 -0.651 0.660 26 27 29
216.5495 377.3427 -33.7173 -0.717 -0.635 0.287 26 27 29
217.9621 373.5359 -33.9378 -0.295 -0.853 0.431 37 38 40
236.5061 383.2716 -36.7440 -0.989 -0.117 -0.093 39 40 45
278.8093 416.4249 -43.1295 -0.484 -0.767 -0.421 14 18 21
271.4420 402.6857 -42.0292 0.292 -0.954 -0.066 14 18 21
281.5259 375.7231 -43.6026 0.138 -0.930 -0.340 19 24 19
285.8132 374.2037 -44.2569 -0.343 -0.939 -0.009 37 42 35
291.1069 379.6228 -45.0541 -0.208 -0.976 0.072 36 41 34
288.2025 373.7697 -44.6209 -0.090 -0.925 0.370 37 42 35
287.4949 370.9586 -44.5174 0.062 -0.943 0.327 37 42 35
274.6256 338.1566 -42.6083 -0.477 -0.458 0.751 26 33 26
280.3750 343.9681 -43.4742 -0.472 -0.428 0.771 26 33 26
315.0259 377.7769 -48.6948 -0.621 -0.671 -0.406 38 45 38
376.8959 336.8313 -58.1654 -0.472 -0.617 0.630 76 78 73
378.4689 336.8138 -58.4047 -0.445 -0.623 0.644 74 76 71
356.6428 305.6255 -55.1308 -0.250 -0.707 -0.662 76 81 75
396.8432 321.5580 -61.2218 -0.628 -0.388 0.675 66 71 68
397.3503 320.6003 -61.3004 -0.628 -0.388 0.675 62 68 65
388.6824 311.9598 -59.9947 -0.446 -0.329 0.833 63 69 66
397.3171 292.9953 -61.3359 -0.820 -0.268 -0.506 59 59 61
357.7175 246.3186 -55.3815 0.413 -0.456 0.788 65 66 63
376.4532 250.1640 -58.2255 -0.527 -0.373 0.763 59 63 58
390.8371 259.0802 -60.4002 -0.513 -0.642 -0.570 50 55 49
380.2231 247.5172 -58.8028 -0.931 -0.235 -0.281 73 74 71
359.7294 186.9107 -55.7748 0.465 -0.885 -0.015 69 58 62
309.6595 149.0761 -48.2149 -0.948 -0.320 0.008 92 91 96
355.3829 166.7401 -55.1434 -0.203 -0.954 -0.223 99 100 102
404.1167 178.3288 -62.5387 -0.941 -0.195 -0.277 95 93 98
412.2033 181.2992 -63.7643 -0.934 -0.196 -0.300 88 86 91
11.9756 252.7132 -3.3121 -0.974 -0.191 0.125 50 46 61
13.7707 250.8606 -3.5862 0.016 -1.000 -0.017 92 88 103
14.6864 252.9899 -3.7278 -0.561 -0.815 0.146 93 89 104
15.1553 254.4867 -3.8006 -0.682 -0.726 0.091 80 76 90
100.0360 391.2529 -16.8953 -0.249 -0.833 -0.494 66 58 69
101.8255 391.3045 -17.1696 0.153 -0.910 -0.385 52 44 57
108.5249 374.9359 -18.1870 -0.901 -0.402 0.165 56 51 57
109.0787 373.6607 -18.2711 -0.901 -0.402 0.165 43 36 43
110.1350 374.3487 -18.4335 -0.312 -0.700 -0.642 64 57 64
111.2678 371.9335 -18.6057 -0.373 -0.925 -0.071 73 64 69
114.1602 369.5644 -19.0478 -0.369 -0.680 -0.634 82 73 78
114.6577 368.1562 -19.1232 -0.357 -0.679 -0.641 74 65 70
126.8501 344.5967 -20.9784 -0.780 -0.260 0.569 102 106 91
127.2570 340.5755 -21.0384 -0.648 -0.234 0.725 78 82 66
126.9988 334.6828 -20.9953 -0.761 -0.152 0.631 79 81 65
204.4290 417.2296 -32.9155 -0.449 -0.807 -0.382 65 75 49
206.8816 417.3724 -33.2916 -0.442 -0.807 -0.391 67 76 59
208.7689 416.2754 -33.5802 -0.367 -0.889 -0.272 45 52 47
210.3391 411.9816 -33.8184 0.117 -0.903 0.414 41 44 49
212.3715 403.8417 -34.1252 -0.009 -0.942 0.334 42 46 49
212.7121 402.1184 -34.1764 -0.007 -0.943 0.334 50 54 57
213.8660 402.0474 -34.3532 -0.007 -0.943 0.334 44 48 51
212.5628 397.0511 -34.1505 -0.019 -0.920 0.391 33 37 40
213.2940 396.1567 -34.2620 -0.080 -0.906 0.415 37 38 40
217.7531 373.4401 -34.9321 -0.297 -0.849 0.437 29 30 32
271.0317 402.2986 -43.1176 0.284 -0.956 -0.071 14 15 19
258.0468 360.6988 -41.1021 -0.344 -0.937 0.061 20 21 23
267.1896 359.3220 -42.5030 0.097 -0.912 -0.398 30 32 31
280.3138 376.1101 -44.5251 0.343 -0.848 -0.405 29 31 29
285.4189 381.4204 -45.3109 0.284 -0.927 -0.244 24 29 23
288.2045 383.4184 -45.7392 -0.485 -0.626 0.611 21 26 20
288.1296 381.3982 -45.7265 -0.454 -0.643 0.617 24 29 23
287.8252 377.1871 -45.6773 -0.449 -0.599 0.663 30 35 28
281.4774 357.6191 -44.6925 -0.230 -0.644 0.730 35 40 36
258.9646 297.1698 -41.2050 -0.817 -0.419 -0.397 51 59 44
301.8006 333.2824 -47.7938 -0.518 -0.518 0.681 59 68 51
248.0742 262.0723 -39.5145 -0.504 -0.358 0.786 71 74 63
248.5344 261.3743 -39.5846 -0.510 -0.351 0.785 66 69 60
381.3682 341.1033 -59.9972 -0.464 -0.716 0.522 75 77 72
384.0535 342.1006 -60.4094 -0.658 -0.555 0.509 73 78 72
384.7209 341.2169 -60.5112 -0.658 -0.555 0.509 72 77 71
386.2483 329.3932 -60.7384 -0.820 -0.333 0.465 76 81 75
406.6528 328.5025 -63.8661 -0.634 -0.362 0.683 68 76 69
400.9193 322.2847 -62.9834 -0.715 -0.263 0.648 67 77 69
335.8968 251.0800 -52.9722 -0.185 -0.980 -0.070 62 72 63
405.4137 290.5069 -63.6535 0.534 -0.828 -0.173 63 69 63
333.8702 225.2713 -52.6462 -0.069 -0.804 0.591 62 71 61
369.1989 249.3242 -58.0768 -0.997 -0.070 0.039 61 70 60
383.9516 253.2706 -60.3410 -0.932 -0.325 -0.159 54 65 54
377.8396 248.0038 -59.4008 -0.997 -0.074 0.006 56 66 55
384.4241 251.4679 -60.4123 -0.934 -0.231 -0.273 58 63 55
388.9911 237.0280 -61.1039 0.394 -0.595 0.701 39 50 44
358.1796 198.1822 -56.3570 -0.518 -0.205 0.830 55 62 55
365.0099 189.8015 -57.3992 0.465 -0.885 -0.004 65 60 61
324.7341 157.4562 -51.2052 -0.438 -0.805 -0.400 89 88 93
322.8872 155.8447 -50.9210 -0.414 -0.776 -0.475 88 87 92
11.8603 252.9664 -3.8224 -0.974 -0.191 0.125 46 42 57
12.3166 249.4897 -3.8836 -0.491 -0.871 -0.022 63 59 74
13.6571 250.8674 -4.0944 0.016 -1.000 -0.017 95 91 106
14.5694 252.6357 -4.2401 -0.562 -0.809 0.172 97 93 108
15.0347 253.8620 -4.3153 -0.667 -0.736 0.113 86 82 96
15.4927 253.8900 -4.3861 -0.421 -0.704 0.572 74 70 82
108.2368 564.0052 -19.5433 -0.914 -0.150 0.378 46 40 44
100.2680 389.0999 -17.8462 0.060 -0.617 0.785 58 51 60
106.8437 402.1188 -18.8970 0.151 -0.949 -0.278 49 42 50
107.9137 376.6685 -18.9946 -0.337 -0.698 -0.632 74 69 75
110.6785 373.6880 -19.4139 -0.306 -0.705 -0.640 83 77 81
114.0606 369.8047 -19.9262 -0.290 -0.872 0.394 95 86 91
126.4840 343.9454 -21.7771 -0.780 -0.260 0.569 102 107 84
126.4418 341.1812 -21.7632 -0.779 -0.223 0.586 105 110 87
127.2494 335.8630 -21.8739 -0.756 -0.176 0.630 84 87 65
131.6836 333.7353 -22.5534 -0.453 -0.806 -0.380 100 102 76
140.2071 342.6669 -23.8943 -0.057 -0.878 -0.475 91 98 65
141.5883 343.9553 -24.1111 -0.247 -0.848 -0.469 92 99 66
200.7777 422.7580 -33.4673 -0.124 -0.991 -0.051 67 83 56
204.7401 415.7006 -34.0609 0.352 -0.923 0.153 73 83 59
210.2402 412.1449 -34.9013 0.211 -0.939 0.273 53 56 64
206.4767 396.9265 -34.2792 -0.463 -0.864 -0.197 47 51 54
209.5305 400.8032 -34.7614 -0.154 -0.878 0.453 48 52 55
210.9252 401.2431 -34.9781 -0.054 -0.903 0.426 56 60 63
212.0363 401.0960 -35.1494 -0.054 -0.903 0.426 63 67 70
212.3177 399.2719 -35.1881 -0.009 -0.944 0.329 52 56 59
212.1262 396.5152 -35.1511 -0.018 -0.922 0.387 36 40 43
212.9106 395.7287 -35.2702 -0.080 -0.906 0.415 46 47 49
213.8947 390.7070 -35.4089 -0.974 -0.219 -0.061 33 34 36
217.3928 373.0665 -35.9025 -0.297 -0.849 0.437 33 34 36
236.5816 386.0780 -38.9024 -0.828 -0.535 0.168 35 32 39
236.7250 384.2007 -38.9195 -0.277 -0.685 0.674 30 27 34
235.1408 375.2290 -38.6508 -0.991 -0.104 -0.089 18 15 22
237.8568 377.7791 -39.0773 -0.726 -0.648 0.229 18 15 22
197.6579 298.2535 -32.6538 0.149 -0.411 0.899 19 17 22
268.7168 398.9206 -43.9023 0.170 -0.977 -0.131 18 19 24
293.0970 432.6365 -47.7595 -0.345 -0.784 -0.517 20 21 26
258.0299 360.8882 -42.1497 -0.336 -0.942 0.008 27 26 31
287.3362 384.3371 -46.7407 -0.443 -0.613 0.654 33 35 32
288.5778 384.1544 -46.9321 -0.474 -0.629 0.616 28 30 27
286.9199 378.0223 -46.6596 -0.451 -0.597 0.663 29 31 26
284.3683 367.0926 -46.2362 -0.189 -0.827 -0.529 39 41 36
267.8462 336.1764 -43.6007 -0.570 -0.478 0.668 39 41 40
268.3567 335.2050 -43.6771 -0.493 -0.478 0.727 35 37 36
288.1092 352.6274 -46.7757 -0.539 -0.346 0.768 39 41 40
316.9888 378.7859 -51.3081 -0.674 -0.639 -0.369 43 48 42
269.7277 300.3032 -43.7960 -0.308 -0.875 -0.373 62 71 54
298.4419 329.5148 -48.3109 -0.598 -0.511 0.618 64 73 56
259.6516 280.4019 -42.1860 -0.712 -0.651 0.263 69 72 61
292.2403 217.7341 -47.0550 0.447 -0.887 -0.118 67 83 66
379.6778 266.7499 -60.6970 -0.967 -0.222 -0.129 74 86 73
358.9353 249.3784 -57.4454 0.149 -0.562 0.814 65 77 64
401.6439 254.5683 -64.0589 -0.700 -0.694 -0.166 51 52 44
305.1963 144.9241 -48.8632 0.002 -0.863 0.505 91 90 95
391.0712 175.9748 -62.2159 0.361 -0.932 0.018 42 37 44
391.3017 174.5884 -62.2478 0.411 -0.901 0.138 67 62 69
1.5864 618.0543 -4.4782 -0.521 -0.049 0.852 32 29 38
12.2035 249.5663 -4.3881 -0.491 -0.871 -0.022 53 49 64
12.6479 249.5840 -4.4574 -0.111 -0.988 0.106 91 87 102
13.0939 250.0681 -4.5292 -0.135 -0.985 0.106 98 94 109
13.5441 251.0684 -4.6040 0.012 -1.000 -0.018 102 98 113
14.4513 252.0715 -4.7501 -0.680 -0.674 0.288 104 100 115
14.9230 254.2681 -4.8339 -0.466 -0.598 0.652 93 89 104
108.0936 404.2854 -20.0545 -0.592 -0.593 0.546 57 50 57
109.2957 379.3182 -20.1236 -0.965 -0.257 0.060 49 44 48
114.4020 371.6725 -20.8827 -0.336 -0.881 0.334 94 85 90
115.1621 371.2012 -20.9988 -0.261 -0.941 0.217 87 78 83
123.9153 341.8318 -22.2231 -0.145 -0.568 0.811 93 95 71
125.6071 344.3891 -22.4987 -0.683 -0.498 0.535 98 100 76
126.5589 339.3825 -22.6232 -0.759 -0.237 0.606 91 95 68
127.1267 335.9399 -22.6954 -0.753 -0.236 0.614 91 93 67
139.5243 341.2223 -24.6512 -0.054 -0.881 -0.469 93 99 60
140.1758 340.5545 -24.7495 -0.208 -0.836 -0.508 92 100 60
188.5659 390.4902 -32.5222 -0.937 -0.327 0.122 61 77 50
206.9693 413.1856 -35.4959 -0.356 -0.918 -0.172 49 55 52
207.1400 411.0079 -35.5121 -0.369 -0.914 -0.167 37 43 44
208.1505 410.6281 -35.6677 -0.369 -0.914 -0.167 43 48 53
205.8503 395.9830 -35.2402 -0.036 -0.953 0.301 48 52 55
209.3882 400.8629 -35.8143 -0.152 -0.882 0.447 50 54 57
210.5311 400.7885 -35.9919 -0.054 -0.903 0.426 55 59 62
211.6409 400.6411 -36.1641 -0.054 -0.903 0.426 45 49 52
211.9731 398.9202 -36.2077 -0.009 -0.944 0.329 32 36 39
212.3452 397.2933 -36.2579 -0.048 -0.918 0.393 24 28 31
212.5277 395.3014 -36.2769 -0.080 -0.906 0.415 39 40 42
213.8901 391.0231 -36.4689 -0.974 -0.219 -0.061 28 29 31
218.7925 378.0784 -37.1711 -0.303 -0.533 -0.790 39 40 42
217.0019 368.4304 -36.8466 -0.669 -0.705 0.235 39 39 40
217.0715 366.4801 -36.8482 -0.342 -0.840 0.422 34 34 35
218.6609 359.1484 -37.0611 -0.291 -0.799 0.526 23 23 25
235.6318 384.7054 -39.8251 -0.275 -0.689 0.670 16 15 21
236.5625 384.1959 -39.9676 -0.275 -0.689 0.670 16 15 21
235.0323 379.4518 -39.7069 -0.753 -0.639 0.156 14 13 19
235.5817 350.8035 -39.6569 0.116 -0.816 -0.567 30 31 34
255.7915 380.8719 -42.9467 0.290 -0.936 0.198 30 31 34
285.5229 374.4109 -47.5466 0.293 -0.857 -0.424 42 45 40
288.0228 375.9901 -47.9434 0.101 -0.928 -0.359 44 47 42
279.1129 342.8427 -46.3989 -0.523 -0.409 0.748 50 55 50
305.6986 370.1073 -50.6685 -0.294 -0.422 0.858 50 55 50
274.7213 329.0601 -45.6497 -0.754 -0.274 0.597 50 55 50
399.2711 286.0122 -64.8438 -0.664 -0.409 -0.625 68 84 66
334.8405 229.8914 -54.5436 0.459 -0.574 0.678 66 82 64
359.9668 195.9136 -58.2961 0.402 -0.901 -0.165 54 59 53
401.2783 204.4187 -64.7704 0.056 -0.899 0.434 70 69 74
367.6468 181.0355 -59.4218 -0.973 -0.211 -0.088 77 76 81
348.0527 170.1559 -56.3187 -0.881 -0.309 -0.358 79 78 83
252.9260 115.9842 -41.2470 -0.906 -0.224 -0.358 78 77 82
-1.9354 619.6533 -5.2090 -0.410 -0.076 0.909 46 43 52
-0.7152 612.7828 -5.3538 -0.410 -0.078 0.909 43 40 47
10.7649 249.2650 -4.6826 -0.209 -0.859 -0.466 36 32 47
12.0878 250.4801 -4.8985 -0.977 -0.185 0.110 50 46 61
12.5349 249.5424 -4.9623 -0.111 -0.988 0.106 89 85 100
12.9802 249.4848 -5.0318 -0.111 -0.988 0.106 96 92 107
13.4286 250.3912 -5.1083 -0.118 -0.987 0.106 98 94 109
14.3346 251.6477 -5.2591 -0.657 -0.687 0.311 103 99 116
15.7048 252.4345 -5.4795 -0.552 -0.445 0.705 42 40 51
16.6684 255.6821 -5.6528 -0.308 -0.609 0.731 29 28 34
103.4901 385.3515 -20.1626 0.141 -0.883 0.448 45 39 42
103.9826 383.6780 -20.2285 0.168 -0.874 0.457 46 41 45
104.4154 381.7776 -20.2836 0.144 -0.858 0.494 78 73 77
105.0026 380.5471 -20.3674 0.235 -0.970 0.055 79 74 78
106.1852 378.1626 -20.5368 0.240 -0.968 0.066 77 72 76
107.1212 378.3848 -20.6852 0.240 -0.968 0.066 69 64 68
108.2853 379.5078 -20.8755 -0.926 -0.345 0.151 51 46 50
109.8394 378.6241 -21.1135 -0.936 -0.330 0.118 78 73 77
110.3512 377.1486 -21.1838 -0.936 -0.330 0.118 65 60 64
111.7154 375.5549 -21.3870 -0.919 -0.349 0.183 95 89 93
114.7466 373.5586 -21.8492 -0.214 -0.955 0.207 78 72 76
115.5814 373.3430 -21.9788 -0.214 -0.955 0.207 83 77 81
126.0702 346.2882 -23.4411 -0.641 -0.484 0.596 97 97 71
126.7104 340.2922 -23.5008 -0.790 -0.331 0.516 98 99 72
127.0556 336.1704 -23.5269 -0.865 -0.244 0.438 95 98 71
203.9491 414.7550 -36.1308 -0.420 -0.812 -0.404 72 84 62
204.4157 400.6230 -36.1079 0.234 -0.813 0.533 52 57 62
205.5322 395.6758 -36.2495 -0.036 -0.953 0.301 46 50 53
210.1341 400.3273 -37.0035 -0.005 -0.948 0.318 53 57 60
211.6289 398.5690 -37.2261 -0.009 -0.944 0.329 11 15 18
211.9700 396.8805 -37.2682 -0.048 -0.918 0.393 14 18 21
212.7441 396.0694 -37.3842 -0.090 -0.907 0.412 31 35 38
213.6142 390.8082 -37.4849 -0.973 -0.223 -0.052 21 25 28
211.1542 377.0541 -37.0052 -0.417 -0.663 -0.622 20 24 27
212.5294 377.4898 -37.2241 -0.436 -0.645 -0.628 17 21 22
218.7643 357.5995 -38.0674 -0.204 -0.800 0.565 22 24 22
219.7041 357.2571 -38.2126 -0.204 -0.800 0.565 14 16 18
199.1187 309.2933 -34.6551 -0.527 -0.850 -0.021 27 28 32
196.5238 296.8040 -34.1629 0.149 -0.412 0.899 40 42 41
253.9999 378.2859 -43.7387 0.065 -0.859 -0.508 40 44 44
281.1694 393.6602 -48.1079 -0.017 -0.998 -0.062 49 53 50
279.8963 376.1508 -47.7889 -0.848 -0.321 0.421 46 51 46
274.9948 367.3376 -46.9596 -0.831 -0.295 0.471 48 55 48
263.8179 332.7975 -44.9703 -0.575 -0.486 0.659 49 56 49
267.0439 333.8094 -45.4835 -0.493 -0.478 0.727 56 62 56
276.9670 340.2261 -47.0847 -0.501 -0.456 0.736 59 67 59
253.3254 292.0848 -43.0464 -0.821 -0.406 -0.401 63 74 57
259.2053 280.1228 -43.8879 -0.789 -0.561 0.252 76 85 72
254.6843 269.8448 -43.1084 -0.354 -0.739 -0.573 56 63 50
255.5296 269.5417 -43.2390 -0.354 -0.739 -0.573 48 55 42
324.5098 226.2714 -53.7718 -0.775 -0.045 0.631 73 87 70
315.0738 217.4751 -52.2309 -0.527 -0.522 0.671 72 86 69
355.3675 233.6290 -58.6653 -0.691 -0.056 0.720 69 81 67
332.5308 181.7312 -54.7277 0.455 -0.879 -0.145 54 59 53
-55.5094 568.3256 2.4479 -0.850 -0.150 0.505 48 45 52
11.9733 250.7831 -5.4076 -0.977 -0.185 0.110 47 43 58
12.4223 249.1664 -5.4643 -0.135 -0.981 0.139 86 82 97
12.8670 249.0954 -5.5340 -0.135 -0.981 0.139 93 89 104
13.3143 250.0063 -5.6129 -0.108 -0.988 0.108 92 88 103
14.6879 253.6425 -5.8624 -0.490 -0.535 0.689 89 85 100
15.1327 252.2675 -5.9205 -0.541 -0.457 0.706 76 72 86
15.5816 251.6353 -5.9859 -0.541 -0.457 0.706 42 40 51
102.8295 383.2596 -20.9552 0.113 -0.851 0.513 130 124 124
103.2331 381.2256 -21.0010 0.171 -0.847 0.504 137 133 134
103.9336 380.4713 -21.1051 0.174 -0.864 0.472 118 114 115
104.7155 380.0619 -21.2251 0.171 -0.859 0.483 118 113 117
105.4417 379.4215 -21.3343 0.236 -0.892 0.385 117 112 116
106.3678 379.6021 -21.4824 0.236 -0.892 0.385 119 114 118
107.2969 379.7834 -21.6310 0.236 -0.892 0.385 92 87 91
108.5210 381.1362 -21.8366 -0.925 -0.353 0.138 64 59 63
110.4295 374.6648 -22.0811 -0.938 -0.142 0.316 74 69 73
117.9595 392.9888 -23.4348 -0.466 -0.878 -0.110 64 58 62
124.5774 414.1952 -24.6699 -0.706 -0.678 -0.204 72 66 70
121.6620 338.4122 -23.5360 -0.545 -0.015 0.838 80 79 56
185.0224 390.7186 -34.0226 -0.749 0.004 0.663 60 76 48
204.1176 412.9270 -37.2402 -0.422 -0.814 -0.398 59 70 57
205.4256 395.8063 -37.2952 -0.469 -0.869 -0.159 49 53 55
208.2651 399.2582 -37.7750 -0.012 -0.949 0.315 48 52 54
209.4041 399.1845 -37.9545 -0.012 -0.949 0.315 40 44 47
210.1430 398.2919 -38.0634 -0.009 -0.944 0.329 19 23 26
211.2850 398.2181 -38.2434 -0.009 -0.944 0.329 10 14 17
211.2042 395.6822 -38.2081 -0.045 -0.919 0.391 14 18 21
212.3650 395.6495 -38.3914 -0.090 -0.907 0.412 20 25 28
211.4318 377.8929 -38.0862 -0.417 -0.663 -0.622 19 23 26
216.0564 382.2960 -38.8568 -0.315 -0.721 -0.618 28 33 33
259.1834 443.3082 -46.2202 -0.647 -0.761 0.048 26 32 25
215.9053 350.8989 -38.5542 -0.181 -0.823 0.538 25 33 28
197.9175 307.4940 -35.3236 -0.493 -0.869 0.039 32 40 35
281.0197 381.8022 -49.1283 -0.864 -0.396 0.311 50 60 50
279.4849 372.0095 -48.7986 -0.282 -0.809 -0.517 52 63 52
291.8095 375.9634 -50.7832 -0.735 -0.338 0.588 54 65 53
282.1956 342.1596 -48.9624 -0.628 -0.383 0.677 63 75 62
293.3141 338.0476 -50.6846 -0.452 -0.634 0.627 72 86 65
273.4227 300.7804 -47.2074 -0.662 -0.247 0.708 75 91 70
256.3413 270.5617 -44.2372 -0.840 -0.444 0.312 48 59 45
333.0212 182.0208 -55.5804 0.440 -0.878 -0.190 53 60 53
400.7002 202.3925 -66.4667 0.230 -0.929 -0.290 55 55 58
392.2448 196.2523 -65.0747 0.347 -0.901 -0.261 56 56 60
391.5210 195.0465 -64.9495 -0.009 -0.998 -0.069 55 55 59
384.6675 190.6561 -63.8264 -0.144 -0.955 0.259 54 54 58
338.5695 164.5533 -56.3030 -0.931 -0.332 -0.150 73 74 77
336.5990 162.8477 -55.9761 -0.893 -0.428 -0.140 80 83 84
434.5713 194.8387 -71.7573 -0.348 -0.934 -0.083 41 50 45
400.3331 176.5069 -66.1788 -0.504 -0.864 0.023 44 53 50
11.8598 250.7226 -5.9145 -0.978 -0.181 0.107 45 41 56
12.3094 249.1577 -5.9690 -0.146 -0.983 0.115 84 80 95
12.7541 248.8837 -6.0369 0.127 -0.992 0.018 91 87 102
13.1993 248.9394 -6.1084 0.127 -0.992 0.018 86 82 97
14.1070 251.7819 -6.2843 0.047 -0.999 0.017 93 89 104
15.0166 252.0775 -6.4325 -0.536 -0.472 0.699 71 67 81
15.4607 250.9882 -6.4913 -0.541 -0.463 0.702 45 42 52
115.3278 474.8585 -24.8621 -0.041 -0.677 0.735 72 71 67
102.5279 382.7030 -21.8124 0.113 -0.851 0.513 109 105 106
102.9282 380.6565 -21.8538 0.171 -0.847 0.504 106 102 103
103.6380 379.9453 -21.9592 0.174 -0.864 0.472 86 81 85
105.1642 378.9784 -22.1919 0.236 -0.892 0.385 90 84 88
106.2964 380.0073 -22.3836 0.228 -0.899 0.374 91 85 89
107.2860 380.4302 -22.5460 0.229 -0.895 0.383 82 76 80
110.5256 375.6875 -23.0104 -0.920 -0.357 0.161 70 63 70
124.4951 414.5799 -25.6631 -0.706 -0.678 -0.204 63 57 60
129.5217 397.5331 -26.2776 -0.051 -0.919 -0.391 82 79 72
136.8073 405.4506 -27.5257 -0.110 -0.919 -0.379 83 80 63
135.8588 360.5105 -26.8823 -0.799 -0.341 -0.496 99 97 79
203.6764 407.2556 -38.2043 -0.615 -0.788 -0.028 54 65 59
204.5397 406.5869 -38.3346 -0.615 -0.788 -0.028 60 71 65
205.3649 396.0322 -38.3506 -0.469 -0.869 -0.159 42 48 46
206.8325 396.6602 -38.5914 -0.488 -0.845 -0.218 37 43 41
208.9508 398.6063 -38.9503 -0.607 -0.787 0.112 19 25 23
209.7975 397.9356 -39.0780 -0.607 -0.787 0.112 19 25 23
210.8316 395.2727 -39.2136 -0.045 -0.919 0.391 17 25 23
211.9430 395.1435 -39.3894 -0.045 -0.919 0.391 14 23 24
215.3389 399.5492 -39.9789 -0.962 -0.266 -0.065 14 23 25
227.9388 398.1964 -41.9725 -0.584 -0.374 -0.720 38 48 42
264.7917 456.3854 -48.4842 -0.353 -0.839 -0.414 29 43 25
218.2061 313.7483 -39.4962 0.174 -0.981 0.083 46 62 42
268.5180 383.2439 -48.2771 0.400 -0.916 0.025 45 59 38
285.5538 382.6761 -50.9863 -0.884 -0.360 0.299 54 69 53
282.6578 376.6794 -50.4590 -0.888 -0.326 0.323 53 68 51
256.6500 271.0175 -45.1561 -0.856 -0.451 0.253 48 60 46
257.6561 270.8854 -45.3150 -0.862 -0.446 0.242 42 55 39
303.0804 182.3095 -51.5855 -0.693 -0.437 0.574 67 78 73
352.3700 200.6696 -59.6433 -0.044 -0.730 0.682 70 75 71
387.3561 191.2413 -65.1168 -0.417 -0.579 -0.700 54 64 59
368.5908 180.7466 -62.0107 -0.862 -0.444 -0.244 56 66 61
349.9955 169.7015 -58.9256 -0.893 -0.428 -0.140 55 69 61
345.6668 162.5762 -58.1576 -0.272 -0.348 0.897 62 72 65
449.9465 207.2627 -75.2692 -0.512 0.015 0.859 40 50 43
-54.2349 553.5383 0.2300 -0.825 -0.260 0.502 43 40 47
-51.5056 559.4851 -0.2859 -0.482 -0.391 -0.784 56 53 60
-47.2998 560.7905 -0.9784 -0.432 -0.417 -0.800 53 50 57
11.7467 250.5655 -6.4201 -0.971 -0.233 -0.041 43 39 54
12.6413 248.5743 -6.5379 -0.072 -0.997 -0.017 90 86 101
13.0854 248.1533 -6.6037 -0.032 -0.999 -0.025 81 77 92
13.5319 248.7679 -6.6834 0.128 -0.992 -0.007 87 83 98
13.9870 250.5520 -6.7798 0.095 -0.995 0.019 88 84 98
14.8971 251.4652 -6.9379 -0.536 -0.472 0.699 69 65 79
15.3455 250.8613 -7.0020 -0.536 -0.472 0.699 46 43 53
36.3539 432.9702 -12.7494 -0.249 -0.953 0.174 24 24 32
71.4438 401.3633 -17.9737 -0.929 -0.322 0.182 48 48 50
72.3096 401.5224 -18.1148 -0.972 -0.229 0.053 47 46 51
73.0076 394.9586 -18.1414 -0.036 -0.902 -0.430 47 47 48
74.8600 396.1239 -18.4541 -0.635 -0.726 -0.265 59 60 55
75.6880 396.0421 -18.5860 -0.617 -0.721 -0.315 59 60 54
123.1065 506.8423 -27.6462 0.355 -0.758 0.547 98 97 93
102.5117 383.3738 -22.7294 0.141 -0.867 0.478 84 80 79
102.6241 380.0887 -22.7046 0.171 -0.847 0.504 76 72 73
103.4543 379.8901 -22.8354 0.168 -0.865 0.472 46 42 43
104.2036 379.3481 -22.9487 0.151 -0.837 0.526 45 40 44
105.2150 379.8935 -23.1182 0.182 -0.859 0.478 46 41 45
106.7135 382.4186 -23.3918 0.253 -0.847 0.467 49 44 48
107.5605 382.2397 -23.5255 0.188 -0.863 0.469 60 55 59
124.8599 416.6402 -26.7524 -0.740 -0.659 -0.133 55 49 53
118.6646 386.5284 -25.3650 -0.941 -0.276 -0.193 66 61 65
130.4577 401.3587 -27.4524 -0.136 -0.959 0.247 73 70 61
133.4530 401.5112 -27.9355 -0.071 -0.912 -0.404 90 88 76
135.2631 404.2432 -28.2618 -0.080 -0.924 -0.373 83 79 67
132.5523 362.1151 -27.2775 -0.070 -0.773 0.631 87 84 68
133.9780 363.6481 -27.5265 -0.078 -0.770 0.633 92 90 74
132.0225 355.0001 -27.0997 -0.115 -0.688 0.717 93 90 74
133.8080 357.6222 -27.4206 -0.732 -0.310 0.607 93 90 74
144.5206 377.9848 -29.4066 -0.924 -0.275 -0.264 94 96 84
185.5685 390.2304 -36.1593 -0.779 0.003 0.627 55 70 37
187.4196 391.9258 -36.4787 -0.762 -0.020 0.647 56 71 40
188.0018 390.7419 -36.5568 0.529 -0.847 0.053 56 71 42
204.5874 409.5927 -39.4664 -0.569 -0.822 0.025 46 57 47
205.4799 408.9712 -39.6017 -0.569 -0.822 0.025 46 57 48
205.0729 393.3838 -39.3332 -0.522 -0.796 -0.307 34 41 35
207.0266 395.0138 -39.6683 -0.243 -0.938 -0.246 26 32 27
208.0537 394.7309 -39.8295 -0.287 -0.936 -0.203 26 32 27
209.4958 395.2851 -40.0684 -0.213 -0.945 -0.248 25 32 26
209.6273 393.1891 -40.0622 -0.211 -0.963 -0.166 26 34 29
210.5746 392.7433 -40.2085 -0.204 -0.965 -0.165 31 41 38
213.1501 381.8084 -40.4797 -0.399 -0.655 -0.642 35 45 43
229.5756 403.8806 -43.4056 -0.499 -0.490 -0.715 46 58 49
219.2325 315.5285 -40.5930 0.175 -0.980 0.089 56 74 52
265.3872 378.7469 -48.8302 0.411 -0.911 0.032 56 71 48
268.3562 381.2514 -49.3397 0.397 -0.918 0.021 58 73 50
274.9562 387.1520 -50.4767 0.442 -0.888 0.127 58 73 52
282.3463 396.1036 -51.7803 0.032 -0.995 0.093 58 73 52
278.9303 377.3186 -50.9869 -0.727 0.026 0.687 59 76 58
284.3761 366.2575 -51.7175 -0.739 -0.179 0.649 63 80 62
270.5311 342.3095 -49.1816 -0.518 -0.468 0.716 66 80 63
273.3550 339.3439 -49.5965 -0.605 -0.519 0.604 68 82 65
253.2000 272.2882 -45.4855 -0.127 -0.302 0.945 76 88 74
255.3141 273.4261 -45.8399 -0.134 -0.309 0.942 73 87 72
256.7795 272.5392 -46.0637 -0.728 -0.549 0.410 54 67 50
257.7104 272.3186 -46.2103 -0.697 -0.552 0.457 51 63 49
258.8740 269.8394 -46.3649 -0.303 -0.811 -0.501 57 74 53
250.1342 258.9488 -44.8192 -0.528 -0.608 -0.593 63 81 59
250.8601 147.7415 -43.4867 0.291 -0.530 0.796 72 83 75
289.4344 168.5518 -49.9537 -0.428 -0.550 0.717 72 82 74
351.3982 200.0978 -60.3174 -0.044 -0.730 0.682 71 81 73
237.5947 130.1937 -41.1274 -0.818 -0.402 0.411 52 62 53
274.4078 150.0744 -47.2994 0.412 -0.850 -0.327 54 66 56
401.6692 204.6229 -68.4509 -0.351 -0.612 -0.709 54 67 60
380.1879 189.9183 -64.8090 -0.427 -0.684 -0.592 56 69 62
349.6764 170.9787 -59.6614 -0.824 -0.438 -0.359 59 72 65
433.4577 200.1732 -73.4988 -0.540 -0.259 0.801 48 59 51
341.7820 148.7338 -58.1035 0.369 -0.885 0.285 43 54 48
354.4829 153.9259 -60.2112 0.402 -0.888 0.225 43 54 50
-51.8371 538.5037 -1.0063 -0.440 -0.410 -0.799 42 39 46
-2.2901 589.7941 -9.8002 0.219 -0.786 0.577 32 31 37
11.6342 250.2970 -6.9238 -0.971 -0.234 -0.038 40 36 50
12.9724 247.6070 -7.0997 -0.065 -0.997 0.030 77 73 88
14.3367 252.6735 -7.3971 -0.627 -0.639 0.446 76 72 86
14.7793 250.9986 -7.4434 -0.447 -0.641 0.625 77 73 87
15.2277 250.4613 -7.5078 -0.451 -0.642 0.620 52 49 59
74.4224 394.4569 -19.2639 -0.044 -0.900 -0.433 59 60 55
102.2189 382.8539 -23.5872 0.141 -0.867 0.478 71 67 66
102.3206 379.5222 -23.5533 0.171 -0.847 0.504 62 58 57
106.3609 381.6752 -24.2398 0.193 -0.865 0.463 41 39 42
107.2578 381.7057 -24.3854 0.188 -0.863 0.469 44 42 45
118.5984 383.5332 -26.2484 -0.942 -0.276 -0.192 69 64 65
134.6135 396.1600 -29.0311 -0.614 0.111 0.782 73 68 63
126.0054 345.2911 -26.8693 0.118 -0.595 0.795 88 81 71
143.5946 381.4695 -30.2627 -0.961 -0.186 -0.204 93 92 79
180.9451 390.0509 -36.4372 0.271 -0.706 0.655 70 83 53
182.1544 390.3290 -36.6371 0.271 -0.706 0.655 67 82 51
203.9163 393.7312 -40.2106 -0.519 -0.810 -0.272 51 59 47
197.1036 366.1061 -38.6905 -0.880 -0.467 -0.090 49 60 52
195.6932 361.1229 -38.3870 -0.727 -0.575 -0.375 49 60 54
194.4369 356.4973 -38.1138 -0.696 -0.594 -0.404 49 60 54
212.0603 377.8168 -41.2881 -0.453 -0.659 -0.600 54 66 54
236.0145 382.5115 -45.2359 0.001 -0.984 -0.178 62 81 61
263.2298 375.7162 -49.5378 0.406 -0.914 0.027 69 84 61
279.8048 392.5745 -52.4751 0.045 -0.995 0.091 65 80 59
282.8755 389.0654 -52.9190 -0.273 -0.753 0.599 64 81 63
282.7309 384.9153 -52.8329 -0.239 -0.811 0.534 65 82 64
283.0676 383.4477 -52.8652 -0.822 -0.058 0.567 65 82 64
283.9025 382.6977 -52.9890 -0.908 0.052 0.416 65 82 64
285.1549 382.5404 -53.1893 -0.929 0.062 0.364 65 82 64
265.7906 339.4824 -49.4047 -0.382 -0.536 0.753 71 85 68
266.4882 335.4084 -49.4561 -0.505 -0.349 0.789 72 86 69
208.9760 257.4308 -38.9699 0.125 -0.979 -0.159 73 87 70
257.1660 274.3645 -47.0249 -0.095 -0.321 0.942 51 63 49
360.9945 180.6049 -62.4121 -0.481 -0.478 -0.735 58 74 64
376.4138 187.9347 -65.0183 -0.343 -0.593 -0.729 58 74 64
349.5178 172.3495 -60.4299 0.215 -0.690 -0.691 67 83 73
381.7848 169.3246 -65.6064 0.401 -0.844 0.357 65 76 70
367.4890 158.5139 -63.1293 0.263 -0.878 0.399 43 54 48
-49.7129 570.2991 -2.9475 -0.415 -0.425 -0.804 52 49 56
-47.5642 593.1459 -3.6907 -0.310 -0.509 -0.803 56 53 62
-46.0821 606.8563 -4.1681 -0.345 -0.501 -0.793 50 47 58
11.5176 250.8650 -7.4403 -0.971 -0.234 -0.038 38 34 48
12.8599 247.7334 -7.6053 -0.081 -0.997 0.006 82 78 92
71.0668 425.9242 -20.1604 -0.511 -0.833 0.212 26 26 26
71.1859 396.3217 -19.6709 -0.392 -0.890 -0.232 57 58 59
115.6628 474.4134 -28.2662 0.435 -0.842 0.319 79 75 72
109.1915 435.2294 -26.5373 -0.817 0.163 0.553 64 60 61
101.9267 382.3352 -24.4432 0.141 -0.867 0.478 59 55 54
103.7791 382.7144 -24.7518 0.119 -0.870 0.478 44 40 41
104.6745 382.7562 -24.8985 0.119 -0.870 0.478 44 39 43
106.0956 377.6638 -25.0427 0.131 -0.768 0.627 46 41 45
108.0772 382.1069 -25.4422 -0.934 -0.160 0.320 47 42 46
109.0686 382.4945 -25.6106 -0.933 -0.314 0.175 47 42 46
118.0081 382.0015 -27.0598 -0.909 -0.348 -0.228 58 54 55
129.0535 372.4244 -28.6963 -0.889 -0.285 0.359 71 66 64
130.7191 365.9695 -28.8569 -0.319 -0.683 0.657 63 58 54
131.6194 365.9024 -29.0026 0.479 -0.856 0.194 75 70 66
142.6163 373.4347 -30.9253 -0.596 -0.677 0.432 85 87 74
142.4042 370.0493 -30.8325 -0.614 -0.687 0.389 85 87 74
181.4907 391.7249 -37.5789 0.279 -0.705 0.652 69 82 52
186.1060 384.7785 -38.2120 0.408 -0.875 -0.261 64 79 50
204.0156 394.2888 -41.2960 -0.485 -0.822 -0.297 68 77 58
196.5819 372.0167 -39.7009 -0.921 -0.306 -0.242 72 80 63
195.6382 367.8683 -39.4757 -0.913 -0.322 -0.251 72 80 63
191.4241 357.1703 -38.6046 -0.893 -0.281 -0.351 70 80 63
192.6890 316.6308 -38.1139 -0.371 -0.896 -0.243 70 85 62
194.5961 318.2289 -38.4523 -0.364 -0.896 -0.254 70 85 62
190.6427 279.0547 -37.1342 0.430 -0.883 -0.186 63 81 59
236.1373 342.0359 -45.6356 0.169 -0.922 0.349 74 92 70
265.7326 379.7325 -51.1097 0.320 -0.874 0.366 76 91 68
270.2100 382.5177 -51.8877 0.327 -0.867 0.376 72 87 64
272.3434 383.7237 -52.2563 -0.162 -0.983 0.084 72 87 66
283.7423 398.6442 -54.3716 0.046 -0.999 0.010 72 87 66
280.4901 385.8268 -53.6209 -0.442 -0.729 0.523 70 87 69
284.6690 385.9564 -54.3046 -0.896 0.058 0.439 73 90 72
277.2373 365.9680 -52.7491 -0.110 -0.901 -0.419 71 88 70
264.8102 338.3345 -50.2475 -0.391 -0.528 0.753 79 93 76
377.2795 194.8727 -66.1210 -0.993 -0.096 -0.064 58 80 57
278.8772 137.9072 -49.0955 -0.510 -0.630 0.586 62 79 69
335.8614 167.3559 -58.8940 -0.503 -0.526 -0.686 62 79 69
393.2770 191.8433 -68.6776 -0.057 -0.637 -0.769 79 95 85
-52.8085 542.5782 -3.0227 -0.358 -0.549 -0.755 37 34 41
-50.8021 594.8637 -4.3602 -0.318 -0.492 -0.810 48 45 52
-49.8319 594.4866 -4.5123 -0.318 -0.492 -0.810 48 45 52
-49.1983 597.3755 -4.6721 -0.304 -0.504 -0.809 49 46 55
-48.3361 598.1232 -4.8282 -0.296 -0.509 -0.808 56 53 62
-45.6995 610.0637 -5.4915 -0.003 -0.684 -0.729 49 46 57
11.3989 251.7295 -7.9648 -0.972 -0.230 -0.055 36 32 46
11.8548 249.6772 -8.0001 -0.947 -0.294 -0.126 72 68 82
70.1026 426.7649 -20.9833 -0.723 -0.575 -0.383 19 21 20
70.8281 425.5853 -21.0798 -0.586 -0.758 -0.286 27 29 26
71.3139 422.6819 -21.1036 -0.624 -0.720 -0.303 41 43 39
106.4483 524.3205 -28.8352 0.226 -0.968 -0.105 77 81 58
115.9518 520.0294 -30.3138 -0.331 -0.482 0.811 103 103 96
100.1063 386.7117 -25.1406 0.099 -0.957 -0.274 53 49 48
101.1333 387.3430 -25.3215 -0.173 -0.825 -0.538 42 38 37
101.7358 386.0952 -25.3964 -0.419 -0.642 -0.643 52 47 47
102.5313 385.6993 -25.5195 -0.419 -0.642 -0.643 63 57 57
120.0021 386.5311 -28.4058 -0.259 -0.846 0.466 55 50 48
120.1314 383.6421 -28.3714 -0.390 -0.602 -0.697 73 68 62
120.9508 383.2586 -28.4986 -0.390 -0.602 -0.697 84 80 71
128.7808 372.0795 -29.5695 -0.448 -0.054 0.892 100 94 100
129.0394 369.9323 -29.5706 -0.448 -0.054 0.892 94 87 93
129.1707 367.4064 -29.5435 -0.445 -0.058 0.894 77 71 77
129.2439 364.7297 -29.5039 -0.333 -0.678 0.655 78 71 76
130.1508 364.6996 -29.6523 0.320 -0.842 0.435 54 48 52
144.6805 388.5999 -32.5001 -0.962 -0.272 0.035 72 66 68
143.9104 325.1185 -31.1499 -0.228 -0.965 0.130 77 88 56
180.9981 388.4294 -38.4635 0.274 -0.709 0.650 67 82 51
187.5853 388.4648 -39.5464 0.413 -0.883 -0.225 73 88 57
192.3481 370.3824 -39.9803 0.194 -0.907 0.374 76 86 61
193.3690 368.0021 -40.1021 -0.408 -0.827 -0.386 73 83 58
195.1355 369.3890 -40.4191 -0.921 -0.309 -0.239 73 83 59
167.7798 272.5855 -34.0588 -0.831 -0.555 -0.047 72 87 64
275.9607 383.3769 -53.9676 -0.964 -0.265 -0.019 75 92 74
273.9365 378.4598 -53.5402 -0.940 -0.340 0.012 75 92 74
285.4749 391.2917 -55.6832 -0.329 -0.748 0.576 78 95 77
285.3314 389.0971 -55.6174 -0.792 -0.558 0.248 79 96 78
255.5054 324.2917 -49.4680 -0.500 -0.555 0.665 84 98 81
256.9021 324.5614 -49.7027 -0.551 -0.429 0.716 83 97 80
373.6513 170.5390 -65.9145 -0.517 -0.272 0.812 89 100 92
360.3755 156.5915 -63.4645 0.361 -0.931 -0.057 95 106 102
398.5030 171.1203 -70.0086 0.248 -0.940 -0.235 99 108 105
377.8677 154.9617 -66.3069 -0.490 0.020 0.872 80 81 86
-54.7385 602.8351 -5.0481 -0.153 -0.856 -0.494 42 39 46
-51.7798 601.5208 -5.5097 -0.331 -0.505 -0.797 43 40 47
-50.8412 601.5442 -5.6656 -0.331 -0.504 -0.798 43 40 47
-50.1140 603.6235 -5.8303 -0.333 -0.502 -0.798 44 41 50
-49.1241 603.2133 -5.9854 -0.333 -0.502 -0.798 50 47 56
-46.1358 601.8276 -6.4504 -0.332 -0.503 -0.798 51 48 59
10.8169 254.3493 -8.4539 -0.973 -0.225 -0.060 29 25 39
66.5703 414.5415 -21.1042 -0.272 -0.720 0.638 20 21 26
69.9703 427.2240 -21.9379 -0.726 -0.558 -0.402 18 20 18
70.8145 426.9121 -22.0710 -0.728 -0.554 -0.404 32 37 31
71.5281 425.6421 -22.1620 -0.724 -0.564 -0.396 56 61 54
72.2895 424.7391 -22.2687 -0.724 -0.564 -0.396 66 71 65
73.0494 423.8379 -22.3752 -0.724 -0.564 -0.396 66 72 65
77.9585 398.8366 -22.6537 -0.111 -0.889 -0.445 61 71 57
78.6765 398.0060 -22.7548 -0.125 -0.868 -0.481 69 78 65
98.5983 512.5722 -28.4996 -0.394 -0.478 0.785 69 79 65
105.5021 520.3150 -29.8077 -0.919 -0.314 0.237 79 84 63
108.5670 512.3845 -30.1456 -0.985 -0.157 -0.070 81 86 64
113.5127 514.6158 -31.0119 -0.304 -0.493 0.815 28 33 19
117.4665 384.6563 -28.8900 -0.482 -0.807 0.341 60 54 58
128.2831 377.0731 -30.5183 -0.479 0.050 0.876 58 50 63
128.1030 373.4305 -30.4107 -0.479 0.050 0.876 61 53 66
128.1216 370.4824 -30.3508 -0.583 -0.357 0.730 89 81 94
128.8820 364.0995 -30.3403 -0.333 -0.678 0.655 77 69 80
129.8081 364.1339 -30.4943 0.320 -0.842 0.435 61 53 65
144.7558 389.3364 -33.5068 -0.964 -0.265 0.024 73 67 72
144.6557 386.0978 -33.4210 -0.951 -0.309 -0.024 81 78 75
133.0600 338.9621 -30.4948 -0.647 -0.255 0.719 84 86 73
144.6739 338.8688 -32.4151 0.163 -0.986 0.029 83 94 62
145.6465 339.0249 -32.5794 0.163 -0.986 0.029 83 94 62
146.6225 339.1815 -32.7443 0.163 -0.986 0.029 83 94 62
157.1203 356.1343 -34.8440 0.363 -0.817 0.447 77 88 56
180.5376 363.7234 -38.8821 -0.788 -0.511 -0.342 73 89 54
189.8076 369.9345 -40.5492 0.242 -0.909 0.340 76 87 56
182.9742 346.9552 -38.9272 0.313 -0.910 0.272 73 84 54
185.0253 346.9490 -39.2666 0.282 -0.926 0.250 71 84 55
189.8950 354.7007 -40.2382 -0.399 -0.854 -0.334 72 85 56
195.3712 363.5722 -41.3341 -0.885 -0.281 -0.371 75 90 62
191.0934 350.7713 -40.3526 -0.938 -0.219 -0.270 75 89 64
371.6192 186.1983 -66.7169 0.286 -0.761 -0.583 71 87 77
370.0949 171.7297 -66.1555 -0.409 -0.328 0.852 86 97 89
365.2735 167.9320 -65.2764 -0.479 -0.241 0.844 84 95 87
365.5226 167.3358 -65.3049 -0.479 -0.241 0.844 84 95 87
365.7711 166.7411 -65.3333 -0.479 -0.241 0.844 84 95 87
366.0191 166.1478 -65.3617 -0.479 -0.241 0.844 87 98 90
375.5843 169.9971 -67.0271 -0.412 -0.259 0.873 87 98 92
-26.3828 564.4033 -10.0571 -0.176 -0.571 0.802 67 62 66
-24.2159 559.6484 -10.3069 -0.099 -0.713 0.695 40 35 39
72.2556 425.8828 -23.2560 -0.728 -0.554 -0.404 71 79 67
73.1735 426.0841 -23.4137 -0.724 -0.559 -0.405 70 78 67
77.7009 398.3602 -23.5185 -0.117 -0.866 -0.487 63 77 60
78.5815 398.5259 -23.6692 -0.125 -0.868 -0.481 71 84 69
104.3531 508.8838 -30.5545 -0.893 -0.325 0.310 76 85 66
109.3371 517.7859 -31.5943 -0.986 -0.153 -0.061 74 83 63
109.8516 514.4734 -31.6024 -0.986 -0.153 -0.061 57 66 46
101.5757 383.0552 -27.1406 -0.519 -0.588 -0.621 45 48 38
115.2022 383.7001 -29.4278 -0.534 -0.792 0.296 62 59 58
117.0931 383.9114 -29.7481 -0.502 -0.795 0.342 73 69 73
118.1290 384.3345 -29.9307 -0.508 -0.797 0.326 71 69 69
128.6791 363.9710 -31.2124 -0.337 -0.678 0.653 116 109 117
132.6915 343.4129 -31.3993 -0.737 -0.020 0.675 86 88 75
133.3831 340.3098 -31.4418 -0.727 -0.471 0.500 84 86 75
133.4414 337.9706 -31.3967 -0.227 -0.772 0.594 84 86 75
143.1816 342.5228 -33.1276 -0.282 -0.638 0.716 93 99 73
145.4520 341.2751 -33.4769 0.174 -0.983 0.050 89 100 68
146.4346 341.4406 -33.6446 0.174 -0.983 0.050 89 100 68
147.4207 341.6066 -33.8129 0.174 -0.983 0.050 88 99 67
148.4104 341.7733 -33.9819 0.174 -0.983 0.050 80 91 59
150.8370 345.5598 -34.4753 0.162 -0.985 0.062 77 88 56
150.9537 343.4965 -34.4464 0.258 -0.717 0.647 75 89 56
362.3187 162.9637 -65.4565 -0.357 -0.168 0.919 78 89 83
365.8250 160.4407 -65.9820 0.368 -0.738 0.565 71 82 74
352.2799 150.8854 -63.4994 -0.468 -0.144 0.872 69 80 74
343.6758 145.0930 -61.9288 -0.497 -0.137 0.857 82 88 89
397.5116 165.5584 -71.3856 -0.912 -0.028 0.409 92 98 98
-46.6883 601.9562 -8.7433 -0.189 -0.823 -0.535 48 45 55
11.0565 251.5693 -9.4934 -0.597 -0.492 -0.633 28 24 38
13.3067 252.2161 -9.8879 -0.688 -0.384 -0.615 84 80 94
14.1965 248.8217 -9.9506 -0.014 -0.958 0.286 93 89 102
69.8812 429.4830 -23.9185 -0.728 -0.554 -0.404 23 28 23
70.6475 428.5532 -24.0235 -0.728 -0.554 -0.404 41 48 39
71.4122 427.6253 -24.1282 -0.728 -0.554 -0.404 63 71 57
72.1754 426.6993 -24.2328 -0.728 -0.554 -0.404 76 84 69
95.9726 506.0645 -30.2572 -0.403 -0.475 0.782 68 85 67
103.7902 507.0172 -31.5947 -0.888 -0.348 0.299 74 85 69
109.1785 512.1179 -32.6300 -0.987 -0.138 0.086 46 57 40
102.4461 416.5645 -29.0586 -0.875 -0.476 0.092 61 74 54
102.0752 385.9836 -28.2152 -0.298 -0.745 -0.596 83 91 75
103.3948 387.8410 -28.4843 -0.286 -0.742 -0.606 83 90 76
117.8972 384.1158 -30.8251 -0.508 -0.797 0.326 78 78 77
119.1037 385.1491 -31.0542 -0.377 -0.913 0.156 72 73 68
119.9315 384.7853 -31.1839 -0.377 -0.913 0.156 74 75 69
131.8941 339.0066 -32.0241 -0.704 -0.465 0.538 80 82 70
133.5058 338.5768 -32.2838 -0.238 -0.768 0.595 93 95 84
132.8736 334.3181 -32.0688 -0.260 -0.807 0.530 83 85 74
133.6107 333.9333 -32.1828 -0.259 -0.807 0.531 77 79 64
136.8387 340.4432 -32.8913 -0.609 -0.589 0.531 86 89 70
142.8811 342.1270 -33.9493 -0.275 -0.636 0.721 97 102 80
143.4614 341.2486 -34.0243 0.167 -0.983 0.075 92 97 74
145.4088 341.5540 -34.3592 0.167 -0.983 0.075 85 96 66
146.2285 341.2971 -34.4904 0.171 -0.983 0.072 85 96 66
147.2112 341.4551 -34.6595 0.171 -0.983 0.072 102 113 83
148.2212 341.6749 -34.8347 0.164 -0.984 0.074 91 102 72
342.3562 147.0099 -62.4720 -0.445 -0.032 0.895 75 90 81
-49.3074 606.3625 -9.6145 -0.181 -0.857 -0.482 39 34 41
-47.7580 600.4492 -9.7133 -0.189 -0.863 -0.468 39 34 41
-24.4990 556.3369 -12.4297 -0.160 -0.588 0.793 40 35 39
-23.5528 555.8810 -12.5772 -0.160 -0.588 0.793 40 35 39
12.2926 249.5659 -10.1776 -0.825 -0.355 -0.440 78 74 86
13.6337 248.5877 -10.3774 -0.023 -0.960 0.280 89 85 99
14.0821 248.6290 -10.4545 -0.017 -0.964 0.264 92 88 102
14.5312 248.6005 -10.5296 -0.017 -0.964 0.264 86 83 92
14.9865 249.2014 -10.6233 0.009 -0.959 0.282 33 33 34
15.4492 250.2133 -10.7295 -0.009 -0.967 0.256 32 32 30
15.9213 251.6158 -10.8482 0.162 -0.984 0.080 31 31 31
37.4774 419.3347 -19.1303 0.346 -0.938 -0.014 13 12 19
70.4900 428.8293 -24.9785 -0.738 -0.561 -0.376 43 51 41
71.2545 427.8926 -25.0820 -0.738 -0.561 -0.376 68 76 63
96.1123 396.1294 -28.4102 -0.774 -0.633 0.002 68 84 61
109.0395 404.9059 -30.8400 -0.415 -0.632 -0.654 66 69 60
110.9151 404.8880 -31.1569 -0.325 -0.522 -0.789 65 68 59
112.2119 402.4735 -31.3096 -0.338 -0.511 -0.790 59 62 51
118.1298 385.6103 -31.8449 -0.251 -0.778 -0.576 84 84 82
132.6715 403.1158 -34.7892 -0.808 0.200 0.554 76 76 68
124.5456 363.4089 -32.3170 -0.488 0.040 0.872 74 69 63
126.4022 357.7729 -32.4754 0.460 -0.856 0.237 81 76 72
133.1750 338.0654 -33.0767 -0.238 -0.768 0.595 107 107 99
132.5749 333.8955 -32.8600 -0.260 -0.807 0.530 97 97 87
133.3334 333.5726 -32.9794 -0.260 -0.807 0.530 83 83 71
136.9695 341.2240 -33.8061 -0.565 -0.606 0.560 87 89 76
134.9684 323.8066 -32.9862 -0.583 -0.602 0.545 75 79 62
143.0929 340.6742 -34.8270 0.318 -0.763 0.563 81 89 67
146.1881 341.5812 -35.3757 0.207 -0.925 0.320 67 80 52
148.2455 339.7721 -35.6739 0.271 -0.862 0.428 93 106 78
146.2486 332.4317 -35.1331 0.243 -0.699 0.673 85 100 71
350.9011 152.8500 -64.7982 -0.820 -0.282 0.497 74 96 79
343.5307 144.3728 -63.3169 -0.525 -0.247 0.814 71 91 75
343.7458 143.8434 -63.3386 -0.525 -0.247 0.814 71 91 75
-47.7530 597.7262 -10.8225 -0.188 -0.856 -0.481 38 33 39
-23.7129 554.4995 -13.6346 -0.160 -0.588 0.793 37 32 36
10.8062 254.3034 -10.5933 -0.862 -0.337 -0.378 28 25 36
12.1766 250.4999 -10.7138 -0.825 -0.355 -0.440 78 74 88
12.6226 254.4255 -10.9065 -0.568 -0.412 -0.713 80 76 90
13.5200 248.4434 -10.8816 -0.023 -0.960 0.280 89 85 100
13.9682 248.4925 -10.9595 -0.017 -0.964 0.264 92 88 103
62.0026 411.0984 -23.9802 -0.013 -0.950 0.313 20 21 26
64.9294 414.2682 -24.5733 -0.118 -0.855 0.505 28 28 36
68.5643 429.1872 -25.6363 -0.587 -0.761 -0.275 26 27 30
69.6311 430.5486 -25.8586 -0.738 -0.561 -0.376 28 33 29
70.3990 429.6073 -25.9615 -0.738 -0.561 -0.376 52 59 50
71.1652 428.6679 -26.0642 -0.738 -0.561 -0.376 86 94 81
72.1285 429.1774 -26.2435 -0.733 -0.565 -0.379 93 101 88
73.8669 435.2193 -26.7194 -0.600 -0.749 -0.283 77 87 74
110.5352 503.9920 -35.0134 -0.659 -0.453 0.601 57 70 50
114.2417 505.7495 -35.6974 -0.641 -0.383 0.666 52 70 46
96.1113 401.3170 -29.5027 -0.679 -0.732 0.052 75 93 69
113.0871 402.9360 -32.4441 -0.454 -0.600 -0.659 59 62 53
128.8928 390.9087 -34.7803 -0.807 0.182 0.561 53 53 45
124.0608 359.4133 -33.0205 -0.656 -0.251 0.712 78 73 67
124.0376 356.4406 -32.9281 -0.469 -0.406 0.785 87 82 76
126.1224 357.3912 -33.3117 0.460 -0.856 0.237 68 63 59
127.8535 333.2091 -32.8879 -0.751 -0.024 0.660 77 77 67
129.3572 335.0713 -33.1995 -0.746 -0.023 0.666 77 77 67
130.8644 336.9099 -33.5110 -0.677 -0.505 0.535 86 86 76
131.4847 336.1808 -33.5951 -0.247 -0.623 0.742 107 107 97
