ply
format ascii 1.0
element vertex 850
property float x
property float y
property float z
property float nx
property float ny
property float nz
property uchar diffuse_red
property uchar diffuse_green
property uchar diffuse_blue
end_header
-84.5343 -35.2089 -12.5399 0.752 0.644 0.141 207 213 211
-84.7801 -35.0525 -12.5459 0.733 0.669 0.119 116 122 118
-307.8337 -39.2164 -35.5248 0.438 -0.873 0.214 76 61 58
-344.1627 9.8674 -33.2799 0.591 -0.688 0.421 104 91 85
-345.6492 11.6623 -33.2137 0.870 0.426 -0.247 75 64 62
-345.8049 12.5318 -33.1248 0.859 0.464 -0.215 68 57 55
-353.1480 25.2796 -32.3309 0.787 0.373 0.491 99 89 87
-353.6269 26.2068 -32.2676 0.787 0.373 0.491 104 96 92
-353.6981 40.3888 -30.5683 0.403 -0.729 0.554 117 108 101
-352.6252 41.1326 -30.3707 0.403 -0.729 0.554 105 96 89
-351.6137 42.7636 -30.0725 0.393 0.070 0.917 81 72 65
-334.0357 42.8383 -28.2922 0.758 0.268 0.594 87 78 71
-340.3323 44.6190 -28.7124 0.784 0.000 0.620 87 79 71
-348.0780 51.0358 -28.7209 0.711 -0.567 -0.416 65 62 57
-349.5402 56.5679 -28.2026 0.721 -0.665 -0.196 72 64 61
-349.5591 67.1857 -26.9269 0.632 0.485 -0.604 80 68 72
-352.1803 68.6223 -27.0182 0.812 -0.186 -0.554 80 68 70
-347.3414 79.0805 -25.2722 0.733 -0.568 -0.373 92 86 86
-333.8810 84.3508 -23.2816 0.824 -0.490 0.284 103 99 98
-333.4820 85.0975 -23.1516 0.824 -0.490 0.284 88 84 81
-333.0837 85.8426 -23.0218 0.824 -0.490 0.284 98 90 88
-336.2238 94.4461 -22.3030 0.928 -0.266 0.263 132 121 119
-334.7256 94.8651 -22.1016 0.927 -0.266 0.264 126 115 113
-338.0272 98.4450 -22.0036 0.801 -0.200 0.565 70 59 57
-337.8998 99.2741 -21.8910 0.801 -0.200 0.565 64 53 51
-338.4033 100.2973 -21.8186 0.812 0.068 0.580 73 62 60
-336.9376 100.7112 -21.6211 0.834 0.047 0.550 91 80 78
-326.5993 104.2285 -20.1560 0.796 -0.261 0.546 88 78 76
-332.1351 118.9299 -18.9450 0.925 0.208 -0.317 83 80 73
-333.2454 121.0645 -18.8000 0.886 0.281 -0.369 81 78 71
-333.5144 122.0289 -18.7111 0.886 0.281 -0.369 76 73 66
-334.7922 123.3762 -18.6777 0.937 0.197 -0.289 92 89 82
-334.9591 124.3075 -18.5825 0.937 0.197 -0.289 106 103 96
-335.0019 126.0611 -18.3758 0.934 0.169 -0.315 109 106 99
-331.7440 133.4263 -17.1613 0.916 0.146 0.373 92 88 79
-331.0794 138.3284 -16.5045 0.616 -0.764 -0.190 73 65 62
-326.7609 205.5138 -7.9853 0.838 -0.509 -0.197 80 73 67
-330.9209 213.4380 -7.4510 0.828 0.475 0.299 89 82 76
-328.5047 228.6376 -5.3787 0.801 -0.597 0.051 83 81 77
-328.5275 241.0630 -3.8859 0.846 -0.024 -0.532 76 68 66
-326.2840 242.0747 -3.5380 0.799 0.602 0.007 76 68 66
-326.4439 243.9606 -3.3273 0.863 0.005 -0.504 60 52 50
-325.7576 258.4915 -1.5097 0.601 0.641 -0.478 70 65 61
-282.8076 246.4688 1.3719 0.638 -0.174 -0.750 60 59 58
-62.7310 -36.5616 -10.6853 0.584 0.801 -0.130 210 215 219
-73.7578 -36.1703 -11.7763 0.347 0.936 0.053 188 191 209
-74.1592 -35.7022 -11.7614 0.934 -0.189 -0.303 109 114 118
-74.1452 -35.2985 -11.7115 0.955 -0.285 0.079 45 52 42
-84.5112 -35.1862 -12.7678 0.752 0.644 0.141 212 218 216
-84.6675 -35.0050 -12.7622 0.752 0.644 0.141 128 134 130
-85.5089 -34.5570 -12.7952 0.884 0.465 -0.052 73 79 77
-117.2566 -33.1592 -15.9038 0.667 0.743 0.050 109 115 115
-117.7208 -32.6404 -15.8894 0.790 0.610 0.050 185 190 193
-117.9269 -32.3744 -15.8787 0.790 0.610 0.050 17 22 25
-344.3568 -47.7282 -41.0929 0.842 -0.512 0.169 57 47 46
-337.6600 4.6028 -34.1129 0.309 0.405 0.861 92 79 73
-339.8495 5.5267 -34.2279 0.335 0.410 0.848 98 85 79
-344.4408 11.7021 -33.9596 0.590 -0.545 0.596 65 54 52
-341.9848 14.1235 -33.4151 0.923 -0.271 0.274 81 70 68
-354.8940 17.5821 -34.3318 0.464 -0.223 -0.857 95 84 82
-344.1526 24.5721 -32.3832 0.658 -0.708 -0.256 88 78 77
-350.3131 43.5837 -30.7343 0.319 0.106 0.942 78 69 62
-350.6057 49.8054 -30.0168 0.737 -0.438 -0.515 70 67 62
-348.7021 51.2613 -29.6454 0.735 -0.555 -0.390 71 68 63
-339.3011 72.0822 -26.1730 0.942 0.207 0.266 60 49 49
-348.1068 77.6276 -26.4154 0.989 0.044 -0.140 61 55 55
-347.2249 78.3023 -26.2432 0.547 -0.680 -0.489 63 57 57
-342.8734 85.1308 -24.9735 0.959 0.279 0.048 121 117 116
-336.7559 97.3335 -22.8757 0.862 -0.094 0.498 115 104 102
-338.6541 100.5154 -22.6892 0.805 0.057 0.591 87 76 74
-337.1956 100.9318 -22.4887 0.872 0.014 0.489 99 88 86
-337.7341 101.9679 -22.4197 0.865 0.006 0.502 102 92 90
-338.9590 104.9681 -22.1856 0.852 0.026 0.523 87 77 75
-327.1012 104.5336 -21.0140 0.799 -0.278 0.533 84 74 72
-324.8843 105.4771 -20.6718 0.797 -0.271 0.540 89 82 76
-332.3958 125.2057 -19.0762 0.580 -0.140 0.802 128 125 118
-334.0230 126.7006 -19.0645 0.504 0.082 0.860 126 123 116
-337.8659 131.7022 -18.8600 0.372 0.178 0.911 90 85 79
-338.5857 133.7486 -18.6884 0.429 0.100 0.898 102 98 89
-330.8081 133.1941 -17.9523 0.945 0.304 0.125 102 98 89
-328.9464 230.0219 -6.1239 0.783 -0.606 0.143 84 81 76
-324.0452 228.3563 -5.8182 0.727 -0.620 0.295 85 82 77
-320.7715 229.5239 -5.3400 0.515 -0.567 -0.643 82 79 74
-328.7773 241.4426 -4.7340 0.834 0.023 -0.552 76 71 68
-327.8014 241.6169 -4.6123 0.834 0.019 -0.551 75 70 67
-327.7943 245.1620 -4.1855 0.761 -0.004 -0.648 57 52 48
-322.5080 260.5338 -1.7926 0.669 0.661 -0.340 69 68 64
-330.1543 268.4578 -1.6295 0.998 0.062 -0.033 76 75 71
-52.3285 -37.9474 -9.9325 0.624 -0.208 -0.754 183 196 202
-97.4279 -56.1384 -16.8803 0.634 0.086 0.769 152 163 165
-62.0961 -36.9949 -10.8501 0.977 0.042 0.208 90 95 99
-62.1856 -36.8587 -10.8432 0.974 0.010 0.226 185 190 194
-62.8058 -36.7523 -10.8959 0.594 0.799 -0.095 178 183 187
-62.7930 -36.5752 -10.8733 0.593 0.796 -0.119 210 215 219
-62.9679 -36.1228 -10.8375 0.531 0.824 0.198 148 158 157
-67.4532 -35.2153 -11.2024 0.825 0.538 -0.176 55 61 58
-74.2468 -35.7168 -11.9803 0.961 -0.273 0.046 111 116 119
-74.1222 -35.2780 -11.9145 0.955 -0.285 0.079 55 62 56
-83.6964 -35.6106 -12.9658 0.946 -0.282 -0.162 128 128 148
-84.4642 -35.1569 -12.9925 0.746 0.656 0.115 215 221 219
-85.5433 -34.5495 -13.0336 0.889 0.456 -0.040 58 64 62
-95.1908 -35.4002 -14.1549 0.488 -0.838 -0.244 83 88 94
-96.2929 -34.1633 -14.1228 0.799 0.390 0.458 176 182 182
-96.4110 -33.9384 -14.1083 0.799 0.390 0.458 39 45 43
-106.3778 -33.5329 -15.1126 0.505 0.859 -0.087 192 196 199
-117.8664 -32.3367 -16.1827 0.808 0.575 0.129 17 22 25
-346.7753 -47.9135 -42.2346 0.778 -0.594 0.203 56 46 45
-354.4761 -1.7179 -37.5035 0.709 0.688 -0.156 82 68 65
-338.0165 5.5583 -34.8914 0.335 0.412 0.847 91 78 72
-355.6830 69.6232 -29.0683 0.807 -0.184 -0.562 77 65 67
-336.0651 67.1981 -27.2869 0.711 -0.245 -0.659 72 60 60
-340.0137 69.7785 -27.3943 0.811 -0.113 0.574 73 61 61
-339.9433 72.3578 -27.0773 0.910 0.207 0.360 74 63 63
-331.9909 84.1115 -24.8264 0.825 -0.482 0.296 91 87 86
-336.2845 97.3301 -23.6934 0.862 -0.094 0.498 82 71 69
-337.4646 98.5533 -23.6713 0.795 -0.002 0.606 101 90 88
-337.7729 99.5153 -23.5884 0.809 0.064 0.585 105 94 92
-341.1372 105.8113 -23.1881 0.695 -0.159 0.701 87 77 75
-332.9674 115.2195 -21.1958 0.936 -0.103 -0.335 70 65 59
-329.8146 116.6579 -20.6901 0.946 -0.107 -0.304 78 75 68
-329.5981 117.4331 -20.5742 0.951 -0.096 -0.294 78 75 68
-334.1732 129.5141 -19.6075 0.508 0.092 0.857 94 89 83
-336.0285 131.9965 -19.5056 0.424 0.104 0.900 105 100 94
-334.1844 132.9952 -19.1909 0.511 0.176 0.841 114 110 101
-332.5317 133.1893 -18.9930 0.724 0.673 0.154 113 109 100
-334.1843 137.3469 -18.6685 0.960 0.229 0.159 95 91 82
-328.9951 209.9245 -9.4092 0.836 -0.485 -0.257 113 106 100
-328.0015 210.1691 -9.2748 0.891 0.444 0.098 104 97 91
-330.1121 213.2881 -9.1235 0.898 0.428 0.102 89 82 76
-327.4505 230.0548 -6.8299 0.704 -0.624 0.340 82 76 70
-327.7071 242.6324 -5.3473 0.773 0.625 -0.112 86 81 77
-328.5192 245.9001 -5.0409 0.761 -0.004 -0.648 58 53 49
-310.7744 247.0892 -3.0236 0.848 -0.526 -0.071 62 58 55
-321.8754 260.2310 -2.6190 0.665 0.659 -0.351 68 67 62
-318.2698 272.1620 -0.8060 0.995 0.005 0.103 67 66 61
-48.6328 -39.8391 -9.9143 0.520 -0.571 -0.636 131 140 139
-100.7315 -54.2215 -17.2692 0.487 -0.840 -0.240 146 156 157
-62.1478 -37.0054 -11.0353 0.973 0.034 0.230 107 110 115
-62.1580 -36.8386 -11.0164 0.973 0.034 0.230 166 169 174
-62.8339 -36.7532 -11.0793 0.594 0.799 -0.095 173 176 181
-62.8234 -36.4044 -11.0363 0.673 0.726 -0.138 160 167 169
-63.0081 -36.1277 -11.0231 0.572 0.816 0.086 131 141 140
-69.5556 -35.9145 -11.7052 0.915 0.340 -0.217 55 61 59
-73.9443 -36.8018 -12.2859 0.994 -0.071 0.084 134 140 138
-73.6159 -36.4949 -12.2136 0.994 -0.109 0.026 131 137 138
-74.2319 -35.6988 -12.1847 0.961 -0.273 0.046 110 115 119
-74.0567 -35.2441 -12.1113 0.955 -0.291 0.064 58 64 64
-83.7353 -35.6058 -13.2007 0.946 -0.282 -0.162 127 127 145
-95.4817 -35.4547 -14.4521 0.402 -0.882 -0.246 61 66 72
-96.3315 -34.9115 -14.4789 0.680 0.653 -0.333 167 171 180
-110.0414 -33.1488 -15.7493 0.587 0.803 -0.100 77 80 85
-248.1892 -60.7573 -33.9897 0.236 -0.863 0.447 83 86 91
-116.6831 -31.4859 -16.2678 0.907 0.411 -0.095 29 33 34
-331.2812 3.7475 -35.2376 0.409 -0.186 0.893 86 72 69
-342.2418 36.6425 -32.4789 0.907 0.372 0.199 99 88 82
-340.4688 44.9949 -31.2860 0.928 0.188 -0.322 75 67 59
-351.8269 47.5861 -32.2030 0.787 -0.502 -0.360 70 66 61
-357.9766 51.2302 -32.4308 0.792 -0.534 -0.294 69 66 61
-359.1974 52.3308 -32.4308 0.816 -0.472 -0.334 83 80 75
-368.1682 58.4272 -32.6695 0.747 -0.551 -0.373 87 79 76
-324.2113 59.8137 -27.7525 0.638 0.274 0.720 83 71 75
-338.3484 71.2618 -27.9081 0.758 -0.063 -0.650 74 62 62
-337.3269 71.8903 -27.7223 0.926 0.198 0.321 74 63 62
-352.1026 84.2312 -27.8399 0.652 -0.373 -0.661 74 68 68
-350.3643 84.6858 -27.5975 0.698 -0.339 -0.630 75 69 69
-349.2354 85.2892 -27.4032 0.641 0.063 -0.765 76 72 71
-337.2720 98.6344 -24.5104 0.835 0.021 0.550 59 48 46
-337.3587 99.5282 -24.4127 0.835 0.021 0.550 83 72 70
-338.0075 100.5968 -24.3547 0.802 0.079 0.592 97 86 84
-338.7115 106.0465 -23.7775 0.787 0.026 0.616 90 80 78
-337.6752 106.5806 -23.6015 0.713 0.647 0.271 98 88 86
-340.9145 109.3972 -23.6139 0.540 0.681 0.494 108 98 96
-342.7948 110.9051 -23.6364 0.540 0.681 0.494 110 101 96
-326.7455 201.6805 -11.0200 0.793 0.370 -0.484 92 84 81
-326.7184 238.5630 -6.5957 0.947 0.273 0.170 65 60 54
-327.9206 240.3234 -6.5146 0.934 0.109 0.339 73 70 65
-326.2581 239.9953 -6.3743 0.806 0.591 0.009 83 80 75
-328.4094 243.3474 -6.2050 0.773 0.625 -0.112 98 95 90
-328.4895 246.0773 -5.8864 0.757 -0.007 -0.653 57 54 49
-323.4948 254.6733 -4.3161 0.949 0.313 0.022 56 52 49
-322.4215 254.7138 -4.1952 0.936 0.340 0.089 57 53 50
-301.0855 240.4650 -3.5974 0.671 0.646 -0.365 58 54 51
-318.4049 272.4845 -1.6308 0.958 0.006 0.288 67 66 62
-318.6928 273.6040 -1.5278 0.955 0.026 0.296 67 66 62
-52.8528 -42.7504 -10.8746 0.706 -0.309 -0.637 126 132 128
-60.8870 -37.0129 -11.0756 0.738 0.653 -0.172 84 87 92
-62.2513 -37.0359 -11.2291 0.976 0.188 0.106 107 110 115
-62.2466 -36.8630 -11.2079 0.989 0.029 0.143 158 161 166
-62.8504 -36.7497 -11.2610 0.588 0.802 -0.107 173 176 181
-62.9690 -36.1032 -11.1967 0.633 0.773 -0.050 101 110 109
-73.9258 -36.7830 -12.4890 0.994 -0.071 0.084 139 145 143
-73.6089 -36.4798 -12.4177 0.994 -0.109 0.026 128 133 135
-74.1878 -36.0712 -12.4328 0.977 0.160 -0.144 198 203 207
-74.2691 -35.8974 -12.4209 0.949 -0.211 -0.233 221 229 232
-83.0168 -35.6061 -13.3529 0.611 0.756 0.235 107 106 124
-84.2942 -35.3012 -13.4575 0.751 0.655 0.077 208 213 214
-84.6132 -34.9409 -13.4496 0.738 0.673 0.046 138 144 140
-95.3895 -35.1617 -14.6670 0.635 -0.745 -0.204 133 138 144
-96.4568 -34.9227 -14.7564 0.680 0.653 -0.333 179 183 192
-95.8084 -34.5116 -14.6355 0.602 0.796 0.055 201 206 212
-96.2972 -34.3777 -14.6735 0.790 0.460 0.406 170 175 179
-106.5087 -33.5151 -15.6988 0.505 0.859 -0.087 200 200 206
-110.1072 -33.1382 -16.0513 0.587 0.803 -0.100 71 72 78
-116.5617 -33.8524 -16.8502 0.935 0.341 0.097 120 123 128
-117.7835 -32.5731 -16.8320 0.970 0.242 -0.011 192 197 200
-117.8558 -32.2817 -16.8051 0.970 0.242 -0.011 12 17 20
-116.3716 -31.4031 -16.5359 0.811 0.528 -0.253 37 41 42
-348.8979 -46.2765 -44.0148 0.199 -0.978 -0.055 56 48 45
-328.2474 6.1968 -35.4501 0.313 0.271 0.910 66 53 46
-325.6310 8.5254 -34.8822 0.508 0.168 0.845 66 52 46
-335.9030 9.8658 -35.8569 0.550 0.123 0.826 74 61 55
-359.5112 16.4500 -37.6777 0.526 0.732 0.432 80 68 66
-341.3177 36.6418 -33.2496 0.823 0.192 -0.535 89 78 72
-342.8692 42.0168 -32.7775 0.408 0.034 0.912 89 80 74
-350.7789 47.5488 -32.9893 0.784 -0.495 -0.375 71 65 62
-349.5569 49.1256 -32.6655 0.763 -0.543 -0.351 71 65 62
-360.3572 52.6462 -33.4376 0.804 -0.493 -0.333 75 70 66
-350.7853 52.8616 -32.3540 0.793 -0.547 -0.269 75 69 65
-362.2232 56.6054 -33.1698 0.826 -0.432 -0.361 88 80 77
-335.4625 97.3592 -25.3330 0.873 -0.080 0.482 77 66 64
-337.4102 99.6842 -25.2699 0.803 0.077 0.591 71 60 58
-338.0302 101.6145 -25.1073 0.814 0.096 0.574 73 62 60
-338.6674 107.0485 -24.5271 0.711 0.655 0.256 102 92 90
-346.1077 115.7329 -24.3096 0.831 0.003 0.556 101 94 86
-341.4513 118.5409 -23.4588 0.943 -0.094 0.319 96 91 85
-343.9233 120.3136 -23.5198 0.984 -0.161 0.070 86 83 76
-333.3031 117.3568 -22.7001 0.949 -0.070 -0.308 80 77 70
-334.0684 126.3014 -21.7137 0.797 0.594 0.103 86 79 69
-333.8685 129.6964 -21.2852 0.815 -0.295 -0.498 83 78 69
-334.4351 134.2747 -20.7997 0.783 0.622 -0.014 115 111 102
-335.5136 136.4652 -20.6566 0.804 0.593 -0.030 114 110 101
-339.9178 140.0636 -20.7125 0.947 0.273 0.168 105 101 92
-329.4329 209.6900 -11.2176 0.786 -0.613 -0.079 115 108 102
-327.8833 209.5827 -11.0592 0.788 -0.611 -0.075 115 108 102
-334.0723 226.0835 -9.7676 0.358 -0.204 0.911 91 82 77
-326.5990 238.6720 -7.4345 0.947 0.273 0.170 56 51 45
-328.3323 240.8206 -7.3688 0.934 0.129 0.333 74 71 64
-327.6494 242.0976 -7.1405 0.976 0.179 -0.120 99 98 93
-327.7383 243.0511 -7.0361 0.798 0.600 -0.054 99 96 91
-323.7133 255.9286 -5.0495 0.867 -0.219 0.447 58 54 51
-326.5385 259.0343 -4.9899 0.843 -0.228 0.488 55 51 50
-333.4823 271.7754 -4.2319 0.996 0.088 0.008 76 75 70
-334.6247 273.6122 -4.1382 0.592 -0.132 0.795 79 78 73
-319.6081 272.8342 -2.5718 0.894 -0.347 -0.283 67 66 64
-319.3258 273.4733 -2.4641 0.894 -0.347 -0.283 67 66 64
-319.0608 274.1257 -2.3567 0.891 -0.308 -0.334 67 66 64
-318.4953 274.5209 -2.2469 0.955 0.026 0.296 64 63 61
-319.1015 275.9156 -2.1469 0.959 0.028 0.281 56 55 53
-62.3823 -37.0770 -11.4278 0.657 0.753 -0.048 103 107 110
-62.7778 -36.8849 -11.4495 0.571 0.815 -0.095 222 226 229
-62.8633 -36.7449 -11.4425 0.579 0.806 -0.122 173 177 180
-63.0119 -36.1091 -11.3832 0.632 0.773 -0.053 74 83 82
-62.9774 -35.9233 -11.3571 0.549 0.835 -0.027 109 119 118
-74.0138 -36.7994 -12.7085 0.977 -0.212 -0.004 140 144 145
-73.6019 -36.4648 -12.6220 0.994 -0.109 0.026 128 133 135
-74.2332 -36.0727 -12.6464 0.975 0.154 -0.158 196 204 207
-74.3228 -35.9014 -12.6360 0.949 -0.211 -0.233 221 229 232
-96.4330 -41.2061 -15.7679 0.902 -0.233 -0.363 48 51 43
-84.4540 -35.1053 -13.6852 0.755 0.647 0.105 202 206 204
-84.6055 -34.9225 -13.6805 0.743 0.657 0.132 148 154 150
-95.6671 -35.4633 -14.9946 0.408 -0.871 -0.274 39 44 50
-95.3711 -35.1378 -14.9223 0.617 -0.749 -0.244 133 138 144
-96.4313 -34.8968 -15.0132 0.677 0.655 -0.336 181 186 192
-95.6422 -34.4515 -14.8708 0.597 0.800 0.061 197 202 208
-96.1966 -34.3336 -14.9194 0.790 0.460 0.406 172 175 179
-96.9353 -34.0023 -14.9632 0.945 0.326 0.023 35 36 38
-96.6920 -33.6906 -14.8984 0.944 0.309 0.112 49 50 52
-97.1832 -33.5502 -14.9371 0.519 0.854 0.019 73 74 76
-106.5743 -33.5061 -15.9927 0.505 0.859 -0.087 202 202 212
-110.1731 -33.1276 -16.3539 0.587 0.803 -0.100 67 67 77
-117.8350 -32.8614 -17.1875 0.968 0.236 -0.084 156 160 161
-117.8087 -32.5514 -17.1475 0.970 0.241 -0.037 195 199 200
-117.8790 -32.2594 -17.1205 0.968 0.249 -0.019 11 15 16
-331.9805 -41.1541 -42.3685 0.397 -0.903 0.165 72 63 56
-353.6089 -8.4309 -40.8987 0.533 0.471 0.703 69 54 54
-351.3674 16.0245 -37.7212 0.522 0.709 0.475 80 66 58
-366.8761 18.8781 -39.1318 0.645 0.709 0.285 80 65 59
-344.7906 38.0642 -34.3428 0.780 0.137 -0.611 100 89 86
-349.5639 48.3674 -33.6500 0.724 -0.570 -0.390 93 83 81
-350.0418 49.3252 -33.5895 0.753 -0.543 -0.372 92 83 80
-351.9827 67.4506 -31.6413 0.752 -0.084 -0.654 67 55 59
-354.6628 86.9672 -29.6103 0.750 -0.551 -0.366 74 64 63
-347.0940 91.2271 -28.2460 0.673 -0.366 -0.643 88 79 72
-335.7857 102.7838 -25.5867 0.641 0.010 0.767 104 97 91
-336.6928 103.9399 -25.5509 0.691 -0.148 0.708 110 103 97
-336.6227 104.7854 -25.4419 0.691 -0.148 0.708 117 110 104
-337.0991 105.8085 -25.3734 0.698 -0.155 0.700 116 109 103
-340.5503 118.3678 -24.2614 0.945 -0.103 0.309 85 78 72
-344.2502 120.5819 -24.4146 0.982 -0.182 0.052 90 84 78
-335.0155 128.5610 -22.4174 0.770 -0.277 -0.575 106 97 86
-334.2442 129.9974 -22.1585 0.760 -0.253 -0.599 92 82 73
-334.1368 134.3061 -21.6311 0.785 0.619 -0.018 109 105 96
-345.1354 142.4138 -21.9040 0.770 0.596 0.229 107 103 94
-328.0640 201.9792 -12.8530 0.890 0.431 -0.147 107 99 96
-329.4326 203.7028 -12.8015 0.901 0.415 -0.124 93 85 82
-329.9468 204.9030 -12.7161 0.904 0.402 -0.146 84 76 73
-330.6514 206.2248 -12.6376 0.900 0.309 -0.307 76 68 65
-333.0934 208.6386 -12.6248 0.899 0.427 -0.100 79 71 68
-333.6829 209.9003 -12.5405 0.899 0.427 -0.100 88 80 77
-332.1902 225.0049 -10.5658 0.371 -0.296 0.880 92 83 78
-331.9058 225.7060 -10.4498 0.371 -0.296 0.880 82 73 68
-326.4648 238.7703 -8.2730 0.925 0.368 0.092 66 62 57
-328.0305 240.7976 -8.2074 0.934 0.129 0.333 86 84 79
-328.2072 241.8158 -8.1057 0.934 0.129 0.333 104 101 96
-327.8125 242.4151 -7.9894 0.976 0.179 -0.120 104 101 96
-327.9865 243.4323 -7.8874 0.976 0.179 -0.120 86 83 78
-327.4393 243.9167 -7.7677 0.929 0.303 0.214 68 65 60
-327.8513 245.1111 -7.6714 0.929 0.303 0.214 58 55 50
-333.4313 271.9462 -5.0929 0.989 0.145 -0.041 77 76 71
-333.4358 272.8610 -4.9840 0.603 -0.123 0.788 80 79 74
-319.8508 273.2483 -3.4031 0.886 -0.314 -0.341 62 61 57
-319.2452 274.4919 -3.1860 0.891 -0.308 -0.334 59 58 54
-318.1886 274.4686 -3.0695 0.957 0.021 0.289 55 54 50
-318.8597 275.9187 -2.9719 0.959 0.028 0.281 50 49 45
-128.2771 -79.0707 -24.2267 0.404 -0.441 -0.801 138 147 146
-107.9832 -57.4005 -19.2968 0.529 -0.264 0.806 141 151 152
-62.4189 -37.0816 -11.6121 0.658 0.704 -0.267 98 101 106
-63.0129 -36.0994 -11.5633 0.629 0.776 -0.044 78 86 88
-62.9931 -35.9189 -11.5395 0.549 0.835 -0.027 105 115 114
-74.2257 -37.2561 -12.9954 0.916 -0.360 0.178 75 79 80
-74.1437 -37.0291 -12.9589 0.916 -0.360 0.178 53 57 58
-73.7279 -36.4934 -12.8469 0.992 -0.117 0.047 128 133 136
-74.3752 -36.1053 -12.8752 0.949 -0.218 -0.228 196 204 207
-74.3170 -35.8863 -12.8424 0.949 -0.218 -0.228 219 229 233
-84.1248 -35.4453 -13.9215 0.756 0.647 0.099 123 127 132
-84.3941 -35.0724 -13.9081 0.756 0.642 0.126 202 208 205
-84.5845 -34.9003 -13.9095 0.743 0.657 0.132 158 164 160
-95.9307 -35.5106 -15.2917 0.408 -0.870 -0.276 39 44 50
-96.5398 -33.6349 -15.1380 0.952 0.270 0.142 49 50 52
-97.2004 -33.5338 -15.2022 0.519 0.854 0.019 72 73 75
-105.8703 -33.8858 -16.2447 0.509 0.860 -0.048 114 114 123
-106.5671 -33.4816 -16.2768 0.513 0.856 -0.060 201 201 211
-110.2392 -33.1169 -16.6571 0.587 0.803 -0.100 68 68 79
-117.8563 -32.5339 -17.4664 0.973 0.221 -0.062 199 203 204
-117.9212 -32.2407 -17.4389 0.973 0.221 -0.062 10 14 15
-117.9435 -31.9393 -17.4055 0.994 0.103 -0.024 38 42 43
-357.8102 -1.2411 -41.4198 0.717 0.653 -0.245 89 76 71
-335.5665 6.7062 -37.9038 0.506 -0.225 0.833 72 55 47
-352.0014 17.0557 -38.5644 0.522 0.709 0.475 80 66 57
-340.6329 38.5022 -34.6911 0.912 0.374 0.165 118 107 105
-339.5847 40.0761 -34.3822 0.903 0.393 0.170 82 72 70
-340.8636 41.1101 -34.4063 0.893 0.414 0.175 81 71 69
-347.7962 49.9713 -34.1481 0.713 -0.621 -0.326 120 110 108
-346.3201 51.4846 -33.7970 0.718 -0.571 -0.399 85 75 73
-345.6218 52.2430 -33.6258 0.718 -0.571 -0.399 78 68 66
-355.0335 57.4163 -34.0941 0.530 -0.586 -0.612 75 64 62
-342.5780 59.5426 -32.4028 0.737 0.529 -0.420 61 50 48
-337.3562 66.2671 -30.9971 0.758 0.653 -0.016 63 51 53
-358.4973 80.7835 -31.7032 0.837 0.412 -0.361 66 58 55
-358.9753 81.8126 -31.6354 0.837 0.412 -0.361 66 58 55
-347.0442 80.7013 -30.3913 0.729 -0.565 -0.387 65 57 54
-332.0104 84.6463 -28.1853 0.894 0.419 -0.156 60 50 49
-346.6254 90.3491 -29.1907 0.663 -0.361 -0.656 74 64 61
-350.4873 93.2015 -29.2958 0.875 -0.459 0.153 78 69 60
-348.5196 93.5465 -29.0275 0.889 -0.420 0.181 76 67 60
-338.4874 91.5953 -28.1028 0.876 -0.391 0.282 92 83 78
-339.9152 92.8727 -28.1150 0.854 -0.431 0.294 120 111 104
-336.1863 99.5874 -26.8828 0.672 -0.286 -0.684 80 70 71
-322.3330 97.8115 -25.4962 0.958 -0.276 0.080 92 82 80
-339.2959 107.5421 -26.2916 0.775 -0.228 0.590 111 104 98
-341.4312 109.1239 -26.3491 0.796 -0.244 0.554 106 99 93
-345.1069 111.2297 -26.5218 0.800 -0.182 0.572 100 93 87
-346.5068 112.5902 -26.5209 0.803 -0.258 0.537 97 90 82
-326.8859 113.6239 -24.1332 0.892 -0.183 0.414 100 93 87
-326.8978 114.4761 -24.0328 0.868 -0.127 0.480 96 89 83
-338.6083 138.9447 -22.4620 0.775 0.596 0.209 110 106 97
-340.9347 140.8068 -22.5080 0.782 0.598 0.177 108 104 95
-329.0742 201.0235 -13.9478 0.927 0.026 -0.374 57 49 46
-328.3894 202.3604 -13.7091 0.890 0.431 -0.147 83 75 72
-328.9769 203.6024 -13.6286 0.890 0.431 -0.147 93 85 82
-330.2506 205.2742 -13.5759 0.904 0.402 -0.146 82 74 71
-331.1080 206.6930 -13.5054 0.900 0.309 -0.307 76 68 65
-332.5654 208.4925 -13.4587 0.897 0.431 -0.100 78 70 67
-333.9464 210.2517 -13.4080 0.899 0.427 -0.100 90 82 79
-335.6703 212.2350 -13.3701 0.953 0.302 0.015 94 86 83
-330.9005 223.4341 -11.4821 0.373 -0.293 0.880 89 80 75
-330.3436 224.8379 -11.2502 0.373 -0.293 0.880 81 72 67
-312.8493 215.5024 -10.3463 0.490 -0.744 0.454 79 70 65
-320.9019 223.6275 -10.3052 0.333 -0.255 0.908 80 71 64
-321.2858 224.7618 -10.2141 0.360 -0.249 0.899 79 70 63
-326.4561 238.9600 -9.1151 0.925 0.368 0.092 77 73 68
-327.6569 240.7220 -9.0432 0.972 0.093 0.217 86 85 80
-327.9053 241.7923 -8.9440 0.934 0.129 0.333 94 91 86
-328.4774 243.1023 -8.8536 0.961 0.159 0.226 89 86 81
-328.1501 243.7515 -8.7383 0.976 0.179 -0.120 73 70 65
-327.7145 245.2085 -8.5140 0.908 0.411 0.081 52 49 44
-328.5275 246.7048 -8.4292 0.932 0.305 0.194 53 50 45
-327.8270 267.6242 -5.8500 0.649 0.070 0.758 76 75 70
-331.2934 272.2410 -5.6986 0.647 0.041 0.761 84 83 78
-330.6733 272.6409 -5.5793 0.630 0.042 0.775 84 83 78
-325.9303 270.5517 -5.2815 0.803 -0.264 -0.534 78 77 72
-320.6788 274.1581 -4.2448 0.691 -0.311 -0.652 57 56 52
-320.3164 274.7323 -4.1344 0.691 -0.311 -0.652 55 54 50
-319.9547 275.3055 -4.0242 0.691 -0.311 -0.652 53 52 48
-319.1638 275.5107 -3.9084 0.891 -0.308 -0.334 50 49 45
-317.6911 275.1278 -3.7842 0.993 0.012 0.117 48 47 43
-55.2157 -38.1604 -11.0716 0.947 -0.320 0.007 148 159 161
-106.9772 -56.9756 -19.4156 0.837 0.064 -0.544 135 145 146
-63.2320 -36.1704 -11.7789 0.458 0.826 0.328 99 107 109
-63.0088 -35.9146 -11.7221 0.549 0.835 -0.027 116 126 125
-74.2831 -37.2627 -13.2115 0.922 -0.353 0.158 74 78 79
-74.0935 -36.9997 -13.1578 0.916 -0.360 0.178 56 60 61
-74.0280 -36.7785 -13.1237 0.974 -0.225 -0.027 135 139 140
-74.6138 -36.1688 -13.1200 0.817 -0.574 -0.054 198 206 209
-74.2953 -35.0646 -12.9508 0.619 -0.781 -0.077 58 67 71
-84.3605 -35.4958 -14.1883 0.989 0.008 -0.144 125 132 136
-84.3746 -35.0507 -14.1369 0.756 0.642 0.126 198 207 204
-84.5141 -34.8645 -14.1311 0.730 0.683 0.038 168 174 170
-96.1066 -35.5357 -15.5773 0.591 -0.775 -0.223 41 44 51
-95.3568 -35.0957 -15.4364 0.606 -0.763 -0.227 131 134 141
-96.5092 -33.6075 -15.3947 0.952 0.270 0.142 49 50 52
-97.0363 -33.4755 -15.4411 0.511 0.859 0.006 73 74 76
-263.5062 -70.7089 -39.4996 0.944 -0.079 -0.320 86 87 89
-108.0716 -32.9337 -16.6769 0.543 0.798 0.261 81 81 93
-110.3365 -33.1126 -16.9652 0.597 0.798 -0.082 68 68 80
-117.5161 -33.0527 -17.8041 0.658 0.751 0.057 96 100 101
-117.9065 -32.5169 -17.7862 0.970 0.233 -0.062 197 201 202
-117.9462 -32.2187 -17.7553 0.973 0.221 -0.062 11 15 16
-340.7828 -1.4532 -40.3455 0.731 -0.681 0.054 90 76 71
-342.6861 2.8438 -40.0573 0.680 -0.730 0.068 83 70 64
-332.5496 30.8480 -35.5225 0.788 0.524 -0.324 95 86 79
-350.6292 47.8940 -35.6199 0.662 -0.745 -0.079 85 75 73
-345.0753 51.4010 -34.5471 0.781 -0.493 -0.383 86 76 74
-344.5068 52.1783 -34.3874 0.781 -0.493 -0.383 78 68 66
-348.2661 58.9852 -34.0185 0.539 -0.524 -0.659 80 69 67
-352.3251 70.4706 -33.1268 0.794 0.608 0.002 63 51 51
-339.8728 98.2409 -28.3471 0.655 -0.451 -0.607 99 89 88
-338.2292 98.6162 -28.1086 0.680 -0.288 -0.674 88 78 76
-338.3338 103.0058 -27.5974 0.876 -0.459 0.150 88 80 77
-333.2476 103.1174 -26.9847 0.667 -0.566 0.484 99 92 86
-343.6194 121.5461 -26.0088 0.720 0.602 -0.344 97 90 84
-348.5739 124.2499 -26.2701 0.727 0.497 -0.474 91 84 78
-328.9875 123.9226 -24.0010 0.927 0.236 -0.290 97 87 77
-336.2331 129.3434 -24.2083 0.752 -0.248 -0.611 89 79 69
-335.8849 130.0807 -24.0793 0.752 -0.248 -0.611 76 66 56
-329.1939 203.0378 -14.5887 0.961 -0.030 -0.274 59 51 48
-330.8210 205.8118 -14.4496 0.907 0.405 -0.115 76 68 65
-331.9835 207.4234 -14.3944 0.902 0.422 -0.090 86 78 75
-339.2092 216.4770 -14.1660 0.919 0.380 -0.104 87 80 74
-330.4311 211.7656 -13.6935 0.772 -0.576 -0.269 77 70 64
-339.2673 221.0609 -13.6261 0.593 0.804 0.051 66 59 53
-327.4754 240.7865 -9.8837 0.972 0.093 0.217 79 78 73
-328.2694 243.1475 -9.6956 0.937 0.200 0.288 80 75 71
-330.6812 249.4111 -9.2327 1.000 -0.027 -0.008 51 48 43
-326.8512 267.9377 -6.5716 0.634 0.086 0.768 73 72 67
-327.9806 269.7531 -6.4882 0.646 0.088 0.759 76 75 70
-321.9294 265.7039 -6.2580 0.848 -0.423 -0.320 79 78 73
-321.9944 267.5228 -6.0487 0.874 -0.182 -0.451 75 74 69
-320.1868 274.8324 -4.9639 0.689 -0.320 -0.651 54 53 49
-63.1697 -36.1373 -11.9494 0.458 0.826 0.328 100 108 110
-101.3239 -47.3576 -17.8756 0.865 0.496 -0.078 64 68 69
-74.2609 -37.4424 -13.4391 0.936 -0.323 0.138 57 61 62
-74.0433 -36.9702 -13.3567 0.916 -0.360 0.178 65 69 70
-74.0140 -36.7611 -13.3282 0.977 -0.215 -0.011 123 127 128
-74.2124 -36.2267 -13.2884 0.983 0.178 -0.055 141 149 152
-74.5632 -36.1394 -13.3202 0.818 -0.574 -0.048 195 203 206
-83.7328 -35.7486 -14.3767 0.733 0.578 -0.359 88 87 103
-84.3952 -35.4895 -14.4255 0.989 0.008 -0.144 123 127 133
-84.3654 -35.0318 -14.3674 0.748 0.653 0.121 208 214 212
-268.9343 -71.2317 -40.8814 0.860 -0.497 0.113 57 58 60
-106.1941 -33.6336 -16.8266 0.583 0.797 0.157 119 119 131
-106.5689 -33.4360 -16.8481 0.568 0.799 0.195 197 197 209
-117.9321 -32.4952 -18.1029 0.970 0.233 -0.062 197 201 202
-118.0008 -32.2022 -18.0763 0.970 0.233 -0.062 9 13 16
-116.9187 -31.3956 -17.8500 0.889 0.455 -0.056 40 41 43
-359.2585 -41.7482 -48.2341 0.549 -0.812 0.198 56 47 40
-328.5000 -3.2207 -39.9446 0.194 -0.459 0.867 99 81 81
-347.9698 34.4498 -37.7990 0.850 0.431 -0.303 97 86 82
-351.2449 36.6022 -37.9365 0.833 0.485 -0.268 97 86 84
-340.0925 36.9486 -36.5537 0.896 0.383 0.222 93 82 80
-340.4965 37.8583 -36.4940 0.896 0.383 0.222 99 88 86
-341.1890 39.6688 -36.3616 0.803 0.494 -0.334 96 86 84
-351.1248 46.3202 -36.7644 0.929 0.302 0.216 84 74 72
-351.8770 48.2092 -36.6298 0.667 -0.743 -0.052 70 60 58
-346.4698 50.8792 -35.6614 0.735 -0.553 -0.393 86 76 74
-345.2417 51.5514 -35.4335 0.745 -0.534 -0.400 85 75 73
-344.3575 52.2760 -35.2409 0.734 -0.513 -0.445 79 69 67
-357.5642 58.1241 -36.1328 0.203 -0.092 0.975 64 53 51
-340.3513 70.6267 -32.5729 0.739 -0.665 -0.104 78 64 64
-332.6006 79.1028 -30.6308 0.685 -0.663 -0.302 65 57 54
-336.8946 87.0923 -30.1956 0.876 -0.101 -0.471 96 86 85
-337.2386 98.4551 -28.8834 0.682 -0.336 -0.650 67 57 55
-338.3403 102.2774 -28.5605 0.932 0.328 0.154 103 93 92
-338.1754 103.0976 -28.4430 0.943 0.281 0.178 100 92 89
-339.4234 104.3681 -28.4418 0.812 -0.517 -0.272 95 88 82
-338.3980 107.5350 -27.9412 0.803 -0.533 -0.267 92 84 81
-337.4403 108.0917 -27.7596 0.802 -0.187 0.567 91 84 78
-336.7657 130.5825 -24.9992 0.917 0.187 -0.353 79 69 59
-335.6861 133.6539 -24.5035 0.764 -0.254 -0.592 95 91 82
-335.8432 134.5937 -24.4104 0.766 -0.244 -0.595 106 102 93
-338.0320 202.3583 -16.6011 0.406 -0.161 0.900 70 60 59
-332.5204 207.9433 -15.2728 0.814 0.255 -0.522 100 92 89
-334.0752 209.8099 -15.2374 0.892 0.439 -0.108 99 91 88
-342.5648 217.8909 -15.2960 0.509 0.331 0.795 87 80 74
-344.4343 221.8468 -15.0496 0.933 0.121 -0.340 65 58 52
-331.6135 222.5107 -13.4283 0.703 0.703 0.106 74 65 60
-329.7741 232.8443 -11.9761 0.834 -0.523 0.176 70 61 54
-327.9713 232.4637 -11.8045 0.861 -0.491 0.135 70 61 54
-327.2939 240.8509 -10.7239 0.972 0.093 0.217 75 74 69
-327.1422 241.6276 -10.6131 0.960 0.163 0.228 79 76 71
-327.3415 242.6623 -10.5138 0.960 0.163 0.228 74 69 65
-327.5411 243.6986 -10.4144 0.960 0.163 0.228 61 58 53
-331.1417 249.0586 -10.2090 0.918 0.348 0.193 51 48 43
-320.8996 261.5499 -7.4889 0.875 0.438 -0.207 57 56 51
-325.7640 267.2628 -7.3935 0.634 0.086 0.768 61 60 55
-320.9953 265.1463 -7.0720 0.853 -0.420 -0.310 72 71 66
-131.5416 -81.0022 -25.8610 0.399 -0.285 -0.872 131 140 139
-54.8996 -38.1599 -11.3570 0.686 0.727 0.024 176 187 189
-106.8883 -56.6388 -19.9365 0.676 -0.462 0.574 110 118 120
-62.7657 -36.8416 -12.1656 0.497 0.866 -0.056 225 226 231
-62.9476 -36.7378 -12.1756 0.497 0.866 -0.056 183 184 189
-63.2062 -36.1407 -12.1363 0.457 0.828 0.326 75 83 85
-74.2393 -36.6227 -13.5478 0.745 0.665 0.056 152 157 160
-74.1889 -36.2061 -13.4920 0.959 0.225 -0.170 139 147 150
-84.3875 -35.0217 -14.6029 0.753 0.647 0.123 212 216 215
-84.5525 -34.8422 -14.6018 0.733 0.680 0.016 177 183 181
-89.1462 -32.5601 -14.8941 0.841 0.475 -0.258 183 186 191
-96.5387 -33.8283 -15.9523 0.926 0.371 0.074 45 46 48
-105.9524 -33.8356 -17.1085 0.561 0.801 0.207 124 124 133
-106.2227 -33.6169 -17.1157 0.568 0.799 0.195 118 118 130
-117.3462 -33.5760 -18.4761 0.660 0.748 0.069 121 125 127
-117.7345 -33.0421 -18.4602 0.664 0.745 0.065 103 107 108
-117.9977 -32.4809 -18.4258 0.927 0.361 0.106 194 198 199
-118.1109 -32.1958 -18.4057 0.927 0.361 0.106 6 9 12
-316.7283 -5.6619 -39.6264 0.271 -0.622 0.735 104 86 86
-349.0746 4.1173 -42.4330 0.564 -0.682 0.465 82 69 63
-302.2892 13.9240 -35.5240 0.790 -0.366 0.492 78 64 55
-347.2492 31.8612 -38.9081 0.993 0.113 0.019 87 78 69
-358.6484 38.5328 -39.5134 0.913 0.342 -0.222 76 65 63
-345.4484 39.4900 -37.7794 0.897 0.387 0.214 89 78 76
-343.2693 42.6657 -37.1341 0.549 -0.687 -0.476 85 75 73
-354.3458 60.3712 -36.3871 0.794 -0.494 -0.355 71 60 58
-353.4924 62.0055 -36.0879 0.247 -0.221 0.943 71 60 58
-339.7088 70.6127 -33.3721 0.738 -0.668 -0.094 85 71 71
-349.4742 91.5494 -32.0796 0.667 -0.367 -0.648 83 73 70
-352.1024 93.1744 -32.2089 0.701 -0.268 -0.661 88 79 72
-351.6348 93.9466 -32.0596 0.682 -0.286 -0.673 94 85 76
-340.5435 96.9713 -30.3384 0.668 -0.382 -0.638 80 70 69
-338.2384 102.3871 -29.4112 0.932 0.328 0.154 70 60 59
-338.5841 105.9911 -29.0248 0.812 -0.517 -0.272 68 61 55
-338.0823 106.7015 -28.8787 0.812 -0.517 -0.272 55 48 42
-337.1082 107.2541 -28.6934 0.841 -0.531 -0.106 44 37 31
-336.8770 108.0487 -28.5705 0.802 -0.187 0.567 49 42 36
-338.2156 109.3673 -28.5779 0.805 -0.158 0.572 75 68 62
-338.1736 110.2277 -28.4704 0.802 -0.166 0.574 97 90 82
-340.4589 117.1663 -27.9253 0.596 0.568 -0.567 100 93 85
-335.6538 116.3340 -27.4346 0.605 0.651 -0.459 102 95 87
-343.1427 119.8955 -27.9300 0.769 0.515 -0.379 101 94 88
-348.3926 132.6316 -27.0591 0.954 0.003 -0.301 85 75 65
-348.3602 133.5248 -26.9488 0.954 0.003 -0.301 85 77 66
-335.2872 131.8967 -25.5380 0.945 0.144 -0.295 88 79 70
-336.5974 135.0570 -25.3228 0.766 -0.280 -0.579 103 99 90
-331.2047 195.7926 -17.4348 0.666 -0.676 0.315 77 67 66
-331.3618 202.9677 -16.6004 0.924 0.100 -0.369 68 60 57
-330.1091 203.0831 -16.4329 0.924 0.064 -0.378 68 60 57
-334.3317 211.0527 -16.0030 0.900 0.421 -0.111 69 61 58
-335.6950 212.8125 -15.9609 0.897 0.431 -0.097 71 63 60
-337.2627 214.7095 -15.9276 0.891 0.446 -0.090 75 68 62
-322.6097 215.8014 -13.9993 0.599 -0.686 0.414 74 65 60
-324.8540 233.9753 -12.1124 0.505 -0.593 -0.627 73 64 57
-325.0915 239.4357 -11.4919 0.928 0.314 0.201 69 68 63
-325.5154 240.6298 -11.4019 0.928 0.314 0.201 73 70 65
-326.4457 242.1999 -11.3293 0.937 0.294 0.188 68 63 59
-321.0673 262.7700 -8.2217 0.615 0.056 0.787 51 50 45
-321.7305 264.1898 -8.1342 0.619 0.063 0.783 50 49 44
-321.4783 264.8662 -8.0228 0.853 -0.420 -0.310 56 55 50
-98.4534 -76.2035 -21.4914 0.974 -0.174 -0.142 91 104 113
-54.3757 -38.0724 -11.4425 0.639 0.765 -0.086 171 185 188
-56.8286 -38.6939 -11.8234 0.769 0.622 -0.150 149 160 162
-107.1940 -56.2021 -20.2089 0.787 -0.433 0.439 144 156 156
-62.4779 -36.8943 -12.3168 0.713 0.700 -0.035 133 136 141
-62.8702 -36.8716 -12.3632 0.531 0.846 -0.057 223 226 231
-62.9705 -36.7366 -12.3597 0.497 0.866 -0.056 181 184 189
-84.4029 -35.2345 -14.8643 0.643 0.733 -0.222 189 194 196
-84.3525 -34.9957 -14.8296 0.749 0.652 0.117 214 219 217
-96.5293 -33.8059 -16.2126 0.900 0.435 -0.016 45 46 48
-96.5809 -33.5637 -16.1903 0.930 0.361 0.068 71 72 74
-106.1742 -33.5836 -17.3936 0.568 0.799 0.195 117 117 127
-106.4717 -33.3693 -17.4054 0.568 0.799 0.195 196 196 206
-118.0349 -32.4613 -18.7450 0.929 0.347 0.128 196 200 203
-118.1107 -32.1691 -18.7198 0.995 0.093 -0.027 6 10 13
-343.4149 4.0304 -42.6232 0.507 -0.336 0.794 82 69 63
-329.5804 28.3529 -38.0011 0.927 0.365 -0.080 83 74 65
-346.4034 32.7542 -39.5842 0.922 0.386 0.035 83 74 67
-342.6256 38.3684 -38.4441 0.664 0.700 -0.264 50 39 37
-343.5716 41.0925 -38.2388 0.548 -0.715 -0.435 62 52 50
-340.3833 43.2328 -37.5854 0.727 -0.549 -0.413 88 78 76
-340.6756 49.3084 -36.9000 0.244 -0.053 0.968 80 70 68
-343.1489 50.5785 -37.0587 0.243 -0.064 0.968 66 56 54
-344.0815 51.6035 -37.0537 0.231 -0.233 0.945 63 53 51
-360.0551 64.3054 -37.5440 0.828 -0.382 -0.411 63 51 53
-340.9433 71.8877 -34.2505 0.752 -0.136 -0.645 69 55 55
-329.7924 79.4993 -31.9501 0.650 -0.726 -0.227 69 59 57
-339.1172 91.4531 -31.6970 0.658 -0.256 -0.708 99 90 83
-337.1077 98.6951 -30.5849 0.633 -0.657 0.409 89 79 77
-336.5019 99.3779 -30.4279 0.671 -0.337 -0.660 77 67 66
-337.7776 101.5123 -30.3340 0.932 0.328 0.154 93 83 82
-338.0654 105.9660 -29.8408 0.841 -0.531 -0.106 66 59 53
-337.8370 106.7648 -29.7173 0.834 -0.537 -0.127 76 67 62
-336.6744 107.2545 -29.5136 0.835 -0.541 -0.101 88 79 74
-337.5613 110.1663 -29.2786 0.805 -0.158 0.572 107 100 92
-337.4974 111.8918 -29.0656 0.791 -0.160 0.591 112 105 97
-340.5104 113.8046 -29.2155 0.766 0.339 -0.546 117 110 102
-343.0992 118.2515 -29.0111 0.793 0.374 -0.482 97 90 82
-342.6105 118.9661 -28.8650 0.723 0.459 -0.516 96 89 81
-332.0036 124.6708 -26.8593 0.896 0.306 -0.322 97 89 78
-332.2577 129.0976 -26.3651 0.694 0.133 0.707 93 83 73
-330.2664 129.1680 -26.1075 0.723 0.171 0.669 94 84 74
-329.8867 129.8771 -25.9757 0.969 0.106 0.225 93 84 75
-333.6767 132.2727 -26.1655 0.992 -0.044 0.117 83 76 66
-336.6036 134.3360 -26.2867 0.786 -0.328 0.523 75 71 62
-335.9210 135.8118 -26.0259 0.970 -0.243 0.033 56 52 43
-330.5250 194.6864 -18.3545 0.643 -0.691 0.330 79 69 68
-330.8456 195.7587 -18.2672 0.666 -0.676 0.315 83 75 73
-332.4304 203.8055 -17.5094 0.706 0.201 0.679 69 61 58
-331.0971 203.8737 -17.3344 0.695 0.192 0.693 73 65 62
-331.7857 205.1861 -17.2647 0.798 -0.054 0.600 72 64 61
-324.7000 238.4632 -12.4234 0.656 0.227 0.720 62 59 54
-325.2318 239.7347 -12.3389 0.656 0.227 0.720 65 64 59
-325.7654 241.0105 -12.2541 0.656 0.227 0.720 68 67 62
-326.3009 242.2908 -12.1690 0.656 0.227 0.720 63 60 55
-326.7808 244.4212 -11.9760 0.961 0.150 0.234 43 40 35
-328.7428 246.7731 -11.9421 0.935 0.283 0.212 50 47 42
-319.2664 261.5139 -9.0042 0.933 0.183 -0.308 45 44 39
-319.9031 262.9081 -8.9182 0.937 0.188 -0.294 45 44 39
-320.2355 264.0574 -8.8233 0.893 -0.180 -0.413 51 50 45
-54.2966 -44.8318 -12.3950 0.962 0.046 -0.268 61 66 59
-279.6741 -150.5187 -53.7040 0.675 -0.672 -0.304 142 155 161
-59.2696 -41.8813 -12.6796 0.489 -0.864 -0.119 137 150 156
-56.8575 -38.6992 -11.9940 0.769 0.622 -0.150 149 160 162
-62.1640 -36.9358 -12.4621 0.713 0.697 -0.067 97 103 109
-62.4578 -36.8770 -12.4926 0.716 0.697 -0.044 131 136 142
-63.1004 -36.6024 -12.5420 0.568 0.818 0.086 208 213 219
-101.7765 -47.4645 -18.7676 0.401 -0.812 -0.424 48 52 53
-95.4690 -35.0465 -16.4888 0.547 -0.836 0.025 127 132 138
-96.5748 -33.7965 -16.4816 0.893 0.450 -0.016 45 46 48
-96.6796 -33.5664 -16.4677 0.905 0.425 -0.014 71 71 73
-97.0303 -33.3925 -16.4918 0.536 0.841 -0.075 55 56 58
-106.4102 -33.3332 -17.6820 0.565 0.804 0.186 195 195 205
-106.7115 -33.1182 -17.6949 0.565 0.804 0.186 155 155 163
-107.0930 -32.9184 -17.7199 0.545 0.807 0.228 50 50 58
-117.9822 -32.7309 -19.0875 0.883 0.396 0.251 158 162 165
-118.0044 -32.4290 -19.0545 0.929 0.347 0.128 197 201 204
-118.1141 -32.1430 -19.0346 0.929 0.347 0.128 6 9 12
-118.1491 -31.8428 -19.0034 0.995 0.093 -0.027 34 38 41
-334.9674 30.7237 -39.2522 0.934 0.345 -0.093 76 67 58
-334.0578 49.2006 -36.9434 0.215 -0.122 0.969 66 56 54
-334.9744 50.2014 -36.9416 0.202 -0.180 0.963 65 55 53
-351.1281 58.2457 -38.0487 0.374 -0.557 0.741 65 54 52
-351.2791 59.1645 -37.9590 0.314 -0.427 0.848 61 50 48
-338.8527 72.4103 -34.8009 0.692 -0.220 -0.688 70 56 56
-330.8537 79.9010 -32.8910 0.671 -0.685 -0.284 69 59 57
-329.3589 83.7467 -32.2438 0.850 0.517 -0.102 74 64 63
-343.8839 89.4069 -33.4260 0.926 -0.152 -0.347 86 76 74
-350.0939 95.5967 -33.4840 0.608 -0.409 -0.680 112 103 98
-349.6682 96.3736 -33.3375 0.664 -0.343 -0.665 116 107 100
-346.2254 98.0536 -32.6987 0.676 -0.330 -0.659 93 83 81
-340.0607 98.8603 -31.8161 0.627 -0.670 0.399 98 88 87
-337.2258 99.7409 -31.3498 0.671 -0.337 -0.660 130 120 119
-338.3531 106.2029 -30.7268 0.834 -0.537 -0.127 67 58 51
-337.8695 106.9190 -30.5801 0.834 -0.537 -0.127 87 78 71
-338.5159 110.6335 -30.2217 0.775 -0.271 0.571 99 90 83
-339.4233 112.6974 -30.0926 0.781 -0.228 0.582 105 96 87
-341.2536 114.2084 -30.1469 0.792 -0.108 0.601 111 102 93
-343.4151 117.6233 -30.0175 0.793 0.374 -0.482 123 114 105
-344.1180 118.7631 -29.9720 0.776 -0.313 0.548 124 115 108
-340.5612 118.3831 -29.5631 0.740 -0.243 0.628 125 116 109
-340.6830 119.3105 -29.4686 0.765 -0.325 0.557 125 116 111
-332.7718 117.3254 -28.6944 0.746 0.537 -0.394 123 116 110
-332.1334 125.7356 -27.6148 0.907 0.271 -0.323 98 88 78
-330.9752 131.3308 -26.8030 0.973 0.119 0.197 103 96 86
-334.2532 133.5321 -26.9601 0.983 -0.180 0.016 83 79 70
-334.7451 134.6069 -26.8954 0.977 -0.212 -0.017 51 47 38
-334.3656 135.3248 -26.7617 0.977 -0.211 -0.016 37 33 24
-332.9406 135.6067 -26.5464 0.951 0.123 -0.283 43 39 28
-331.4463 195.4092 -19.2585 0.620 -0.706 0.342 80 72 70
-331.8169 197.4004 -19.0695 0.410 -0.153 0.899 82 72 71
-331.7421 198.2422 -18.9601 0.410 -0.153 0.899 73 63 62
-328.4016 198.8775 -18.4583 0.472 -0.116 0.874 56 48 45
-331.9551 204.5853 -18.2345 0.706 0.201 0.679 74 69 65
-332.0545 205.5359 -18.1343 0.777 -0.020 0.630 76 71 67
-331.3339 209.5309 -17.5682 0.524 0.258 0.812 68 63 59
-330.1649 226.5643 -15.3976 0.668 -0.621 0.410 67 60 54
-325.1519 238.1062 -13.3880 0.466 0.448 0.763 77 73 64
-324.9765 240.6270 -13.0664 0.622 0.451 0.640 85 84 79
-326.3813 242.5479 -13.0178 0.629 0.444 0.638 80 77 72
-326.9332 243.8444 -12.9344 0.631 0.452 0.630 67 66 61
-329.2995 247.3890 -12.8157 0.662 0.470 0.583 51 50 45
-331.8012 250.1588 -12.8063 0.660 0.471 0.585 51 50 45
-54.5268 -37.9732 -11.7713 0.654 0.746 -0.127 176 190 193
-56.8865 -38.7046 -12.1649 0.769 0.622 -0.150 147 161 164
-110.4393 -58.8775 -21.5226 0.471 -0.333 -0.817 131 142 144
-110.6432 -58.3994 -21.4925 0.484 -0.408 -0.774 156 167 169
-75.2097 -41.9471 -14.9329 0.384 0.641 0.665 101 110 117
-62.1808 -36.7614 -12.6233 0.796 0.582 -0.165 141 149 157
-63.0922 -36.5894 -12.7215 0.568 0.818 0.086 197 205 211
-74.7312 -36.1404 -14.1824 0.826 -0.555 -0.101 194 201 204
-95.7047 -35.0858 -16.7858 0.545 -0.838 0.009 125 126 134
-96.5482 -33.7701 -16.7396 0.902 0.432 -0.017 50 51 53
-96.6577 -33.5411 -16.7267 0.902 0.432 -0.017 59 59 61
-96.8602 -33.3328 -16.7284 0.691 0.712 0.125 53 53 55
-117.9708 -32.7023 -19.3999 0.905 0.389 0.170 158 162 165
-118.0957 -32.4194 -19.3827 0.905 0.389 0.170 205 209 213
-118.1865 -32.1296 -19.3601 0.905 0.399 0.144 5 8 12
-118.3143 -31.8459 -19.3431 0.905 0.399 0.144 31 35 38
-339.9285 -7.7342 -45.3150 0.652 -0.161 -0.741 86 70 70
-320.5696 -6.1537 -42.6092 0.655 0.053 -0.753 82 66 66
-320.1276 -4.5600 -42.3628 0.659 0.054 -0.751 89 73 73
-344.1548 12.8596 -43.4239 0.767 -0.351 -0.537 66 52 43
-346.7943 40.0244 -40.5475 0.848 0.412 -0.334 73 61 58
-344.5499 41.4647 -40.0848 0.548 -0.715 -0.435 118 107 105
-338.9772 68.2405 -36.1862 0.779 0.626 -0.033 64 52 52
-338.0801 68.9090 -35.9903 0.817 -0.574 -0.054 63 50 50
-342.3361 71.5895 -36.2262 0.746 -0.029 -0.665 65 51 52
-337.9312 76.6505 -35.0533 0.763 -0.386 -0.518 65 57 54
-347.6305 95.0348 -34.1361 0.634 -0.732 0.249 97 88 83
-347.7109 97.7406 -33.8259 0.603 -0.720 0.342 88 79 73
-338.2558 99.3263 -32.4079 0.633 -0.668 0.391 114 104 102
-338.8802 100.3914 -32.3629 0.916 0.259 0.305 121 111 110
-338.8809 106.5183 -31.6368 0.895 -0.443 0.056 64 54 46
-337.9019 107.0734 -31.4436 0.834 -0.537 -0.127 83 73 65
-337.4192 107.7879 -31.2961 0.834 -0.537 -0.127 113 103 95
-339.9216 118.3033 -30.3753 0.513 -0.556 0.654 115 105 98
-339.8543 119.1613 -30.2649 0.526 -0.573 0.629 123 114 109
-332.0838 123.2703 -28.7670 0.902 0.311 -0.299 138 131 124
-334.0864 128.3855 -28.4212 0.722 -0.445 -0.530 85 77 66
-331.0507 195.3544 -20.0887 0.620 -0.706 0.342 84 76 74
-327.4545 197.6061 -19.3540 0.479 -0.101 0.872 56 48 46
-332.9056 205.3550 -19.1447 0.736 0.173 0.654 83 78 74
-329.6092 225.4859 -16.3298 0.994 0.043 0.100 72 65 59
-325.2787 241.9310 -13.8173 0.639 0.441 0.631 92 88 85
-327.2693 246.0733 -13.5853 0.663 0.466 0.586 52 51 46
-330.5719 249.4400 -13.6159 0.660 0.471 0.585 51 50 45
-322.1637 266.0463 -10.5538 0.945 0.198 -0.259 48 47 42
-322.8568 267.4999 -10.4717 0.938 0.227 -0.261 54 53 48
-53.9489 -37.5581 -11.8065 0.525 -0.296 0.798 149 163 166
-111.8767 -59.1716 -22.0430 0.476 -0.427 -0.769 143 154 158
-61.7615 -36.5915 -12.7276 0.699 0.712 -0.070 140 149 156
-63.0128 -36.7232 -12.9090 0.497 0.866 -0.052 172 181 188
-63.0913 -36.5792 -12.9024 0.525 0.851 -0.038 196 205 211
-63.4954 -36.2069 -12.9119 0.596 0.803 -0.030 59 64 61
-74.7188 -36.1232 -14.3896 0.821 -0.562 -0.100 199 203 204
-74.2272 -34.9623 -14.1870 0.725 -0.616 -0.309 53 57 59
-105.3531 -42.9441 -19.2574 0.367 -0.899 -0.240 67 66 71
-84.4180 -35.1900 -15.5647 0.639 0.732 -0.235 177 192 189
-95.5221 -35.0209 -17.0165 0.550 -0.835 0.010 126 125 135
-94.4974 -34.5165 -16.8209 0.588 -0.809 0.003 136 139 148
-96.5678 -33.7545 -17.0052 0.900 0.435 -0.016 54 53 55
-96.6782 -33.5255 -16.9927 0.900 0.435 -0.016 48 48 48
-96.7870 -33.2956 -16.9799 0.695 0.707 0.129 49 51 50
-327.1007 -52.8849 -49.8255 0.438 0.128 0.890 49 39 38
-365.0731 13.2858 -47.0255 0.781 -0.120 -0.614 88 74 67
-345.5881 39.1091 -41.3861 0.842 0.405 -0.355 82 68 60
-346.6016 40.1174 -41.4010 0.839 0.401 -0.367 68 54 46
-344.2650 54.6232 -39.3742 0.714 -0.151 -0.684 72 58 57
-349.0282 81.2508 -36.8535 0.791 0.402 0.462 63 52 50
-332.1777 80.5021 -34.7087 0.664 -0.695 -0.277 64 53 51
-346.1340 93.8577 -34.9775 0.646 -0.717 0.263 67 59 56
-349.0739 98.2836 -34.8433 0.589 -0.722 0.363 82 74 71
-336.4088 98.0334 -33.1942 0.620 -0.673 0.405 104 94 92
-341.0251 114.4247 -31.8657 0.820 -0.101 0.563 100 88 77
-337.5659 118.4846 -30.9267 0.522 -0.542 0.658 121 111 102
-329.0586 120.5516 -29.5544 0.972 -0.030 -0.233 127 120 114
-331.5797 122.3633 -29.6741 0.807 0.358 0.469 127 120 114
-331.1644 123.0689 -29.5355 0.758 0.390 0.522 127 120 112
-334.0945 125.0560 -29.6887 0.897 0.317 -0.307 107 100 91
-335.0607 128.0468 -29.4627 0.722 -0.445 -0.530 69 62 52
-347.1626 133.6842 -30.3994 0.881 -0.187 -0.435 85 78 68
-321.8436 127.0837 -27.8248 0.897 0.013 0.442 91 84 74
-320.4819 159.4266 -23.8157 0.776 -0.540 0.326 77 68 73
-322.1067 161.0954 -23.8336 0.769 -0.555 0.317 78 69 74
-331.2246 196.5216 -20.8485 0.627 -0.700 0.342 91 83 81
-331.7476 207.4922 -19.6191 0.834 -0.101 0.542 112 107 103
-331.4952 210.8937 -19.1830 0.841 -0.015 0.540 60 52 49
-329.2835 225.4553 -17.1662 0.992 0.041 0.116 84 77 71
-332.7435 230.5131 -17.0260 0.606 -0.721 0.336 75 68 62
-334.4397 232.5878 -17.0053 0.633 -0.716 0.294 70 63 55
-321.8091 238.6860 -14.6093 0.644 0.607 0.467 103 102 97
-323.9646 242.9202 -14.3938 0.625 0.508 0.593 71 70 65
-327.4831 247.3248 -14.3387 0.663 0.466 0.586 50 49 44
-321.8846 265.1408 -11.4877 0.797 0.080 -0.598 43 42 37
-321.8958 266.0342 -11.3834 0.797 0.080 -0.598 49 48 43
-126.7466 -85.4132 -27.4517 0.907 0.204 -0.368 79 88 79
-52.3724 -43.4731 -12.4527 0.793 0.536 -0.290 99 104 97
-59.2364 -41.8451 -13.1869 0.481 -0.876 -0.038 135 148 154
-53.6867 -38.6419 -12.0590 0.572 0.434 0.696 175 188 194
-53.4425 -37.3275 -11.8706 0.501 -0.326 0.802 150 164 167
-61.7323 -36.5708 -12.9003 0.667 0.726 -0.167 138 147 154
-63.0347 -36.7217 -13.0940 0.497 0.866 -0.052 171 180 187
-63.1682 -36.5982 -13.0974 0.511 0.854 -0.099 195 204 210
-63.2878 -36.4689 -13.0982 0.520 0.853 -0.054 198 208 211
-63.5305 -36.3846 -13.1210 0.557 0.830 0.000 49 54 55
-63.6991 -36.2719 -13.1305 0.555 0.832 -0.001 52 57 54
-72.3395 -36.5242 -14.3268 0.707 0.364 -0.606 45 49 50
-72.8009 -35.8900 -14.3141 0.620 0.629 -0.470 124 128 129
-74.5539 -36.0571 -14.5705 0.995 -0.081 -0.061 203 207 208
-74.5109 -35.8420 -14.5393 0.994 -0.063 -0.089 168 172 173
-74.3344 -35.5850 -14.4850 0.812 -0.579 -0.079 109 113 114
-74.3433 -34.9845 -14.4152 0.725 -0.616 -0.309 53 57 58
-95.5908 -35.0186 -17.2877 0.555 -0.831 0.018 127 125 136
-94.5118 -34.5007 -17.0808 0.700 -0.706 0.108 137 139 149
-96.5806 -33.7374 -17.2699 0.900 0.435 -0.016 54 52 54
-96.6911 -33.5082 -17.2577 0.900 0.435 -0.016 48 48 48
-96.7040 -33.2560 -17.2296 0.753 0.642 0.142 49 51 50
-102.7054 -34.0983 -18.1394 0.374 0.922 0.104 75 75 75
-117.8372 -32.9302 -20.0441 0.858 0.419 0.296 101 106 112
-298.6021 -49.0560 -46.3539 0.422 0.244 0.873 45 35 34
-338.7563 -41.0491 -50.8281 0.760 0.112 -0.641 57 48 43
-330.2788 2.3330 -44.5548 0.269 0.270 0.925 96 77 71
-338.2538 4.2634 -45.4032 0.576 -0.453 0.681 78 61 54
-339.6410 6.0090 -45.3841 0.559 -0.411 0.720 68 54 48
-347.6008 41.2486 -42.2925 0.922 0.340 -0.188 66 53 47
-347.6588 42.1350 -42.1956 0.902 0.363 -0.233 71 57 54
-347.2048 50.8602 -41.1027 0.756 -0.505 -0.416 66 55 51
-345.4873 55.8395 -40.2822 0.759 -0.405 -0.509 68 54 53
-329.9913 86.8605 -34.5228 0.673 -0.686 -0.277 77 67 66
-345.1023 95.4814 -35.5435 0.611 -0.742 0.277 88 80 78
-339.5468 103.5115 -33.8442 0.913 0.273 0.303 108 97 93
-340.4527 104.6781 -33.8286 0.912 0.273 0.305 107 94 85
-338.9966 106.8439 -33.3759 0.892 -0.447 0.069 99 82 72
-335.0870 108.1710 -32.6912 0.785 -0.250 0.567 81 64 54
-340.5845 114.4199 -32.6946 0.703 -0.131 0.699 100 86 75
-340.4789 116.1498 -32.4759 0.703 -0.131 0.699 114 100 89
-342.0749 118.4862 -32.4151 0.697 -0.260 0.669 116 102 91
-335.8482 126.7552 -30.5969 0.707 -0.457 0.540 108 101 91
-334.7617 128.0816 -30.2934 0.727 -0.531 0.436 69 62 52
-333.9110 128.6199 -30.1149 0.731 -0.531 0.429 83 76 66
-333.8324 134.6947 -29.3861 0.941 0.207 -0.266 68 61 51
-333.5583 135.4545 -29.2593 0.940 0.200 -0.276 62 55 45
-332.8887 166.7064 -25.4741 0.915 -0.402 0.034 77 68 73
-324.1369 196.8250 -20.7319 0.468 -0.108 0.877 107 102 98
-328.0065 202.6944 -20.5604 0.806 0.585 0.084 104 99 95
-329.6521 204.5958 -20.5577 0.817 0.572 0.073 107 102 98
-331.3947 207.4558 -20.4548 0.882 0.468 0.059 116 111 107
-332.1299 208.8075 -20.3943 0.877 0.473 0.081 108 103 99
-331.2198 209.1249 -20.2339 0.848 -0.032 0.529 90 85 81
-330.7099 211.4688 -19.8880 0.837 0.001 0.547 64 54 52
-328.1780 224.8919 -17.9592 0.994 0.107 0.007 96 89 83
-328.9658 234.3344 -16.9492 0.483 -0.541 -0.688 67 61 49
-328.5198 234.9090 -16.8211 0.487 -0.517 -0.704 67 61 49
-327.6475 235.1771 -16.6716 0.486 -0.518 -0.704 81 75 63
-327.0343 247.1884 -15.1688 0.638 0.470 0.610 50 49 44
-328.4031 249.1110 -15.1263 0.645 0.459 0.611 50 49 44
-322.6273 266.8406 -12.2505 0.797 0.080 -0.598 49 48 43
-322.9252 267.9723 -12.1569 0.838 0.090 -0.538 54 53 48
-323.3020 269.1709 -12.0661 0.890 0.179 -0.420 56 55 50
-53.2824 -45.4429 -12.9655 0.528 -0.443 -0.725 121 140 134
-52.4580 -43.5152 -12.6246 0.794 0.530 -0.298 88 93 86
-59.2442 -41.8419 -13.3598 0.481 -0.876 -0.038 136 149 155
-53.8588 -38.7144 -12.2503 0.579 0.663 0.474 174 187 193
