ply
format ascii 1.0
element vertex 870
property float x
property float y
property float z
property float nx
property float ny
property float nz
property uchar diffuse_red
property uchar diffuse_green
property uchar diffuse_blue
end_header
-17.0012 5.3699 -33.6149 0.927 0.245 0.285 88 80 104
-16.8266 5.8162 -33.5330 0.877 -0.477 0.052 88 79 106
-16.8300 6.0129 -33.5363 0.867 -0.489 0.090 87 78 105
-46.5152 1.1712 -48.0342 0.171 -0.666 0.726 82 78 92
-45.0249 2.3471 -47.3140 0.162 -0.084 0.983 68 64 78
-44.8500 3.1849 -47.2351 0.413 0.491 0.767 58 51 59
-37.3488 25.9863 -43.7469 0.954 0.274 -0.122 42 36 40
-40.0929 31.1565 -45.1327 0.094 -0.141 0.986 35 29 33
-36.5264 38.3945 -43.4450 0.859 -0.191 -0.476 41 30 34
-39.3993 39.7262 -44.8627 0.397 -0.098 0.912 40 28 31
-39.1458 39.9980 -44.7408 0.391 -0.048 0.919 40 28 30
-38.4256 40.2334 -44.3900 0.462 0.012 0.887 41 29 31
-40.1870 41.8357 -45.2656 0.460 -0.013 0.888 42 31 39
-36.8204 52.3296 -43.7022 0.220 0.244 0.945 41 28 38
-36.2509 60.3448 -43.4884 0.625 0.426 0.654 32 25 32
-35.4676 63.1897 -43.1279 0.376 0.421 0.825 38 28 36
-37.9964 71.8865 -44.4370 0.714 -0.355 -0.604 40 31 34
-35.9365 77.8833 -43.4769 0.611 0.712 0.346 72 55 73
-34.8053 78.0475 -42.9243 0.106 -0.521 0.847 77 58 78
-35.6425 80.0374 -43.3505 0.189 -0.770 0.610 92 73 93
-37.8707 87.0995 -44.4990 0.703 0.701 -0.120 66 48 63
-34.6878 89.8448 -42.9626 0.900 0.435 0.025 78 62 75
-32.4375 92.6078 -41.8831 0.749 0.644 0.154 42 29 38
-32.7468 94.1301 -42.0469 0.769 0.633 0.084 45 34 40
-33.1884 109.6774 -42.3894 0.666 -0.352 -0.657 81 63 77
-32.3599 109.7773 -41.9845 0.537 -0.554 -0.637 82 64 80
-32.8164 110.4731 -42.2138 0.697 -0.210 -0.686 82 64 80
-32.9643 110.9411 -42.2900 0.696 -0.214 -0.685 86 69 85
-32.3684 111.5648 -42.0032 0.549 -0.402 -0.733 93 75 91
-29.3804 117.0417 -40.5845 0.489 0.246 0.837 40 29 40
-29.5072 117.5054 -40.6503 0.419 0.156 0.895 41 31 39
-27.6540 116.6547 -39.7359 0.376 0.096 0.921 51 40 48
-29.3394 128.2948 -40.6558 0.773 0.628 0.085 50 33 52
-30.1322 129.4193 -41.0532 0.780 0.620 0.087 57 40 58
-29.2594 131.2040 -40.6403 0.826 0.320 -0.463 48 29 52
-27.4827 138.8382 -39.8322 0.765 0.151 -0.626 62 62 71
-27.4925 139.2299 -39.8402 0.769 0.122 -0.628 65 65 74
-27.3260 139.4324 -39.7603 0.764 0.099 -0.638 67 67 75
-25.6788 140.2971 -38.9607 0.856 0.295 0.425 59 61 56
-26.2148 141.2693 -39.2311 0.763 0.468 0.445 54 56 53
-24.5049 146.9695 -38.4400 0.587 -0.688 -0.427 80 79 79
-24.8724 150.5121 -38.6488 0.028 -0.130 0.991 60 59 54
-56.7503 -30.4120 -53.1205 0.882 0.468 0.059 81 76 98
-49.4144 -23.9075 -49.5640 0.309 -0.510 0.803 88 85 104
-50.0530 -23.4452 -49.8826 0.567 0.340 0.750 97 94 113
-50.5882 -23.4333 -50.1463 0.522 -0.057 0.851 103 100 119
-50.5703 -23.1722 -50.1397 0.522 -0.057 0.851 111 108 129
-50.4427 -22.8622 -50.0796 0.509 -0.091 0.856 111 108 127
-50.7091 -22.7267 -50.2120 0.456 -0.192 0.869 112 109 128
-53.6632 -20.8934 -51.6831 0.376 0.601 0.706 105 102 123
-48.8310 -17.8633 -49.3295 0.457 0.651 0.606 107 104 125
-47.1932 -13.9142 -48.5572 0.103 -0.694 0.713 103 102 108
-48.1278 -12.7309 -49.0279 0.234 0.432 0.871 100 99 107
-17.3188 4.4691 -34.0028 0.830 -0.423 0.363 78 73 95
-17.1271 4.9222 -33.9123 0.812 -0.548 0.200 84 79 102
-17.0287 5.1491 -33.8659 0.964 0.045 0.262 83 78 101
-17.0606 5.5354 -33.8850 0.918 -0.196 0.346 83 77 103
-16.8112 6.0038 -33.7662 0.867 -0.489 0.090 99 93 119
-45.8867 1.3162 -48.0468 0.151 -0.671 0.726 92 85 101
-42.0428 16.8706 -46.2894 0.831 0.456 -0.319 52 41 45
-47.5615 17.8710 -49.0164 0.741 0.671 0.009 51 40 44
-43.2194 29.6955 -46.9810 0.036 -0.206 0.978 40 31 34
-39.2045 31.1681 -45.0162 0.012 -0.207 0.978 46 40 42
-37.5855 39.8974 -44.2951 0.150 -0.495 0.856 53 41 45
-37.3192 42.4593 -44.1863 0.436 -0.314 0.843 46 37 42
-37.5226 42.7680 -44.2892 0.509 -0.187 0.840 47 38 43
-36.6619 43.5443 -43.8720 0.793 -0.040 0.608 48 37 43
-38.3248 48.4396 -44.7339 0.089 0.193 0.977 47 34 43
-41.4530 50.1344 -46.2895 0.026 0.052 0.998 51 39 49
-36.2041 51.6465 -43.7173 0.080 -0.130 0.988 48 35 45
-34.1535 62.5392 -42.8024 0.930 -0.333 0.155 39 29 37
-35.0095 63.3969 -43.2316 0.498 0.415 0.761 39 29 37
-36.4199 69.4512 -43.9792 0.990 0.084 -0.115 37 27 35
-34.1812 73.0564 -42.9080 0.996 0.021 0.084 64 48 59
-35.1362 73.7433 -43.3844 0.671 0.730 0.127 58 42 55
-33.9760 76.4609 -42.8367 0.638 0.731 0.243 68 49 68
-36.6109 79.8602 -44.1642 0.240 -0.915 0.325 73 54 74
-36.3002 80.0522 -44.0129 0.255 -0.822 0.509 73 54 74
-37.4069 84.8937 -44.6003 -0.065 -0.449 0.891 86 69 85
-34.0996 84.6105 -42.9688 0.812 0.581 0.049 67 49 65
-29.5769 100.2809 -40.8780 0.867 0.435 -0.244 69 57 67
-29.9184 100.8476 -41.0512 0.913 0.229 -0.336 70 56 69
-26.2407 104.6425 -39.2728 0.318 -0.935 -0.159 69 53 66
-21.5818 102.8076 -36.9620 0.458 0.458 0.762 73 56 72
-29.6767 116.6632 -41.0703 0.941 0.120 -0.315 54 40 54
-29.7646 117.0941 -41.1174 0.946 0.141 -0.293 51 37 51
-29.0781 117.2353 -40.7805 0.414 0.163 0.895 41 30 39
-28.1206 118.9168 -40.3235 0.501 -0.036 0.865 68 56 67
-28.8557 119.9117 -40.6943 0.927 -0.335 0.168 68 56 67
-29.0673 120.4560 -40.8033 0.917 -0.386 0.099 67 57 66
-28.6710 127.0264 -40.6655 0.786 0.605 0.128 51 38 55
-29.3896 128.0730 -41.0286 0.786 0.610 0.099 51 38 54
-27.0908 138.1545 -39.9844 0.888 0.453 -0.073 39 37 50
-27.0286 138.4676 -39.9565 0.950 0.295 0.101 40 38 51
-26.8878 138.6963 -39.8891 0.929 -0.279 0.244 41 39 52
-26.7938 138.9749 -39.8453 0.916 -0.323 0.237 41 41 52
-26.6689 139.2199 -39.7859 0.915 -0.323 0.243 47 48 53
-26.5799 139.5033 -39.7445 0.915 -0.323 0.243 51 52 53
-25.5699 138.7837 -39.2408 0.914 -0.377 0.153 49 51 48
-25.4769 140.5699 -39.2106 0.475 0.261 0.840 36 38 35
-24.8258 140.9794 -38.8934 0.307 -0.944 0.123 38 40 37
-24.5575 147.1576 -38.8153 0.587 -0.688 -0.427 63 61 65
-24.5193 147.4979 -38.7994 0.559 -0.694 -0.454 59 57 61
-48.6346 -23.5855 -49.4949 0.551 0.192 0.812 100 97 114
-49.6641 -23.3038 -50.0076 0.572 0.355 0.739 108 105 124
-49.8114 -23.1187 -50.0823 0.100 -0.343 0.934 111 108 127
-49.5935 -22.7697 -49.9776 0.100 -0.343 0.934 113 110 130
-49.4808 -22.4682 -49.9246 0.115 -0.328 0.938 113 110 130
-52.7613 -21.3321 -51.5604 0.398 0.592 0.701 115 112 133
-53.1835 -20.9874 -51.7728 0.398 0.589 0.703 115 112 133
-47.1244 -10.0778 -48.8731 0.506 0.063 0.860 61 58 68
-17.0936 4.9169 -34.1355 0.811 -0.553 0.192 105 100 123
-16.9830 5.5433 -34.0866 0.918 -0.196 0.346 83 77 103
-16.8026 6.1899 -34.0033 0.918 -0.240 0.315 119 113 139
-44.0069 2.3080 -47.4445 0.138 -0.331 0.933 76 69 85
-43.9283 2.5903 -47.4082 0.137 -0.328 0.935 82 75 90
-42.0828 4.6083 -46.5127 0.572 0.128 0.810 70 60 68
-42.6278 4.7405 -46.7840 0.457 0.165 0.874 86 76 84
-40.8135 15.1442 -45.9825 0.113 0.351 0.930 70 59 63
-42.7641 17.0463 -46.9666 0.812 0.451 -0.372 58 47 51
-33.7030 22.0327 -42.5242 0.627 0.040 -0.778 60 50 51
-40.5258 21.6796 -45.9011 0.971 0.104 0.216 61 50 54
-40.5922 21.9479 -45.9365 0.937 0.301 0.176 59 50 53
-41.7242 29.7282 -46.5701 0.138 -0.118 0.983 54 45 50
-38.5584 30.3419 -45.0074 0.021 -0.143 0.990 55 47 50
-38.7491 30.6183 -45.1045 -0.018 -0.247 0.969 57 51 51
-37.0053 42.1573 -44.3485 0.443 -0.308 0.842 53 44 49
-35.5539 43.1571 -43.6388 0.911 -0.105 -0.400 53 45 50
-40.4628 51.2200 -46.1462 0.177 0.065 0.982 61 48 58
-39.8330 51.4165 -45.8360 0.310 0.437 0.845 58 45 55
-40.0336 51.7570 -45.9386 0.310 0.437 0.845 54 41 51
-36.3217 51.3958 -44.0963 0.288 -0.111 0.951 54 41 51
-36.3397 51.6952 -44.1080 0.265 0.002 0.964 54 41 51
-37.6678 52.5381 -44.7738 0.134 0.174 0.976 53 40 50
-35.4047 63.5476 -43.7556 0.351 0.246 0.904 39 28 36
-35.1239 67.7941 -43.6562 0.322 0.625 0.712 38 27 35
-35.5678 68.2555 -43.8804 0.321 0.618 0.718 38 27 35
-37.5182 70.1913 -44.8648 0.940 -0.102 -0.327 37 26 34
-32.5689 74.0357 -42.4488 0.420 -0.432 0.798 57 40 53
-35.3367 75.7888 -43.8365 0.498 0.053 0.865 60 42 58
-35.5830 76.2116 -43.9624 0.519 0.076 0.851 61 43 59
-35.6072 76.5446 -43.9775 0.519 0.076 0.851 61 42 61
-35.5125 76.8286 -43.9333 0.600 0.212 0.771 61 42 61
-35.6338 77.2029 -43.9969 0.456 0.620 0.639 62 43 62
-35.4741 77.4597 -43.9201 0.525 0.678 0.514 62 43 62
-35.8643 77.9497 -44.1181 0.525 0.671 0.524 62 44 60
-36.5084 78.5512 -44.4428 0.465 0.551 0.693 63 44 63
-36.0535 79.9935 -44.2309 0.255 -0.822 0.509 67 48 68
-35.5213 80.7397 -43.9742 0.622 0.280 0.731 68 51 70
-35.6626 83.4432 -44.0695 -0.060 -0.194 0.979 68 52 70
-36.6931 84.9403 -44.5940 -0.074 -0.427 0.901 61 43 59
-35.9330 85.2389 -44.2202 -0.048 -0.362 0.931 61 43 59
-30.3462 100.5287 -41.5955 0.776 0.594 -0.215 55 43 53
-29.9297 100.5889 -41.3897 0.867 0.430 -0.252 55 43 53
-30.1814 101.0968 -41.5191 0.912 0.224 -0.343 54 42 52
-30.7968 103.9124 -41.8504 0.587 0.072 0.806 56 42 55
-31.2880 104.9478 -42.1034 0.732 -0.664 -0.156 57 43 56
-30.9690 105.7630 -41.9530 0.654 -0.601 -0.459 63 49 62
-27.0956 104.6754 -40.0239 0.320 -0.933 -0.166 71 57 70
-31.3413 115.9598 -42.2328 0.667 0.488 0.563 54 40 53
-29.8563 116.9016 -41.5059 0.946 0.141 -0.293 54 39 50
-29.9324 117.3238 -41.5476 0.946 0.141 -0.293 52 39 49
-18.4409 114.5372 -35.8284 0.615 0.699 0.364 61 48 58
-28.0997 126.2237 -40.7229 0.941 0.265 0.209 59 48 62
-28.6755 127.1319 -41.0166 0.797 0.598 0.084 58 47 61
-26.1427 136.8814 -39.8530 0.865 0.407 -0.292 38 35 49
-26.7054 137.8579 -40.1409 0.889 0.457 -0.034 38 35 49
-24.8436 139.6086 -39.2349 0.375 0.346 0.860 39 39 38
-25.2587 140.4456 -39.4484 0.373 0.299 0.878 32 34 32
-24.6833 140.9381 -39.1680 0.309 -0.948 0.075 32 33 31
-24.5306 146.8661 -39.1478 0.740 -0.474 -0.477 49 47 52
-24.6102 147.3463 -39.1917 0.587 -0.688 -0.427 46 43 50
-24.0607 149.0072 -38.9350 0.278 -0.747 0.604 44 41 49
-47.1394 -23.4263 -49.0642 0.109 -0.099 0.989 94 91 110
-49.2661 -23.9080 -50.1191 0.130 -0.456 0.880 99 96 115
-48.4930 -22.0622 -49.7523 0.054 -0.446 0.894 113 110 128
-48.0747 -19.1264 -49.5731 0.483 0.781 0.396 115 112 133
-48.2368 -18.9430 -49.6557 0.674 -0.217 0.706 114 111 132
-48.1816 -18.6678 -49.6309 0.630 -0.460 0.626 110 107 128
-48.6470 -17.0849 -49.8786 0.662 -0.269 0.700 83 81 93
-48.5467 -16.7898 -49.8316 0.654 -0.268 0.708 86 85 93
-48.8431 -16.6530 -49.9806 0.752 -0.038 0.658 90 89 96
-49.8381 -16.7919 -50.4751 0.838 0.419 0.349 96 93 102
-48.8355 -16.1381 -49.9820 -0.077 -0.451 0.889 101 98 107
-46.7078 -10.2137 -48.9809 0.563 -0.049 0.825 76 72 88
-17.0680 4.5142 -34.3588 0.925 -0.371 -0.085 91 85 111
-17.0309 4.7228 -34.3424 0.928 -0.362 -0.089 114 108 134
-17.0428 4.9169 -34.3503 0.811 -0.553 0.192 114 108 134
-16.8759 5.1643 -34.2696 0.982 -0.186 -0.040 104 98 124
-16.8960 5.5539 -34.2835 0.897 -0.163 0.411 89 83 109
-16.7249 6.1978 -34.2047 0.918 -0.247 0.309 106 100 126
-42.7726 16.4912 -47.2863 0.825 0.438 -0.357 74 63 67
-42.9159 16.7471 -47.3603 0.826 0.439 -0.353 65 54 58
-42.9008 17.0242 -47.3555 0.828 0.437 -0.351 64 53 57
-37.9475 29.8022 -45.0148 -0.079 -0.076 0.994 70 64 66
-36.9611 39.5942 -44.6209 0.145 -0.507 0.850 89 75 82
-36.7227 40.1460 -44.5076 0.593 0.410 0.693 97 82 89
-36.9091 47.9754 -44.6786 0.086 0.182 0.980 99 82 93
-35.9252 51.3482 -44.2219 0.288 -0.111 0.951 66 50 60
-39.0937 54.9731 -45.8369 0.115 0.066 0.991 74 58 66
-25.6812 54.6385 -39.1504 0.489 -0.822 0.292 45 29 39
-37.0999 59.4318 -44.8879 0.370 -0.334 0.867 46 34 41
-37.8138 61.1623 -45.2608 0.527 0.767 0.367 46 34 41
-38.3650 61.6215 -45.5401 0.526 0.761 0.380 46 34 41
-34.1337 62.2978 -43.4384 0.930 -0.333 0.155 56 43 50
-34.9648 63.1468 -43.8610 0.360 0.243 0.901 53 38 48
-35.0615 63.4816 -43.9125 0.360 0.243 0.901 53 38 48
-34.6285 72.6834 -43.7885 0.982 0.061 0.181 63 48 58
-35.4783 75.8931 -44.2440 0.600 -0.422 0.679 62 41 56
-35.5173 76.2316 -44.2668 0.625 0.063 0.778 62 41 58
-35.5657 77.5466 -44.3040 0.481 0.605 0.635 60 39 58
-35.7726 77.9593 -44.4112 0.471 0.597 0.649 61 40 57
-36.5802 79.9478 -44.8335 0.237 -0.911 0.338 62 42 59
-36.4773 80.2322 -44.7850 0.228 -0.913 0.339 64 43 61
-34.5632 82.9727 -43.8586 -0.062 -0.146 0.987 65 47 63
-34.6307 83.3338 -43.8958 -0.055 -0.180 0.982 59 41 57
-32.1432 84.0750 -42.6637 -0.082 -0.170 0.982 54 36 52
-32.0498 91.9061 -42.6953 0.687 0.725 0.033 57 44 51
-35.8857 95.8391 -44.6459 0.690 0.720 0.070 59 47 54
-30.6968 100.8345 -42.1101 0.780 0.574 -0.250 43 32 40
-30.1046 100.7780 -41.8145 0.875 0.431 -0.222 42 30 40
-30.0236 101.0627 -41.7770 0.793 -0.421 0.440 47 35 45
-31.2698 105.7068 -42.4442 0.588 -0.610 -0.531 59 45 58
-29.0449 105.1489 -41.3300 0.724 -0.445 -0.527 65 51 64
-27.7047 117.3204 -40.7836 0.907 -0.420 -0.024 55 43 53
-27.5917 117.5781 -40.7299 0.910 -0.414 -0.021 57 45 55
-27.5257 117.8759 -40.6999 0.900 -0.435 0.027 57 45 55
-27.8957 126.1328 -40.9666 0.832 0.513 -0.209 71 59 73
-27.9424 127.2774 -41.0013 0.963 -0.134 -0.235 70 56 69
-27.6261 129.9246 -40.8701 0.211 -0.346 0.914 59 45 58
-27.4964 130.1679 -40.8079 0.211 -0.346 0.914 55 41 54
-25.0151 135.7943 -39.6276 0.908 0.410 -0.090 37 27 43
-25.5451 137.1072 -39.9048 0.895 0.417 -0.160 36 27 42
-24.4658 141.1899 -39.4077 0.271 -0.962 0.041 35 32 37
-23.9605 144.4049 -39.1880 0.108 -0.955 0.276 47 44 52
-23.5019 144.2499 -38.9579 0.652 0.488 0.581 48 45 53
-23.4244 144.5390 -38.9222 0.666 0.480 0.571 48 45 51
-23.4340 144.9305 -38.9309 0.697 0.277 0.661 47 45 51
-24.0759 146.0693 -39.2621 0.915 -0.007 0.403 48 45 52
-23.6022 150.1271 -39.0665 0.033 -0.138 0.990 54 51 60
-23.5952 150.5067 -39.0668 0.033 -0.143 0.989 57 54 64
-23.9490 151.3331 -39.2513 0.032 -0.149 0.988 60 57 68
-22.4506 154.5210 -38.5365 0.337 0.276 0.900 61 54 64
-48.4097 -17.0188 -50.0777 0.662 -0.269 0.700 90 86 101
-48.3316 -16.7328 -50.0416 0.662 -0.269 0.700 93 90 103
-48.7839 -16.6586 -50.2690 0.768 -0.056 0.639 96 92 105
-48.0890 -10.7250 -49.9836 0.243 0.379 0.893 78 74 91
-17.0471 4.7025 -34.5905 0.946 -0.317 -0.066 125 119 145
-16.9707 4.9232 -34.5545 0.946 -0.317 -0.066 126 120 146
-16.9202 5.1360 -34.5315 0.983 -0.185 -0.018 118 112 138
-16.8713 5.7445 -34.5134 0.910 -0.413 0.033 86 80 106
-16.6409 6.2075 -34.4029 0.921 -0.244 0.303 92 86 112
-16.7554 6.3732 -34.4620 0.916 0.258 0.308 96 90 116
-44.8326 0.4835 -48.4703 -0.024 -0.512 0.859 102 95 111
-43.1372 2.4963 -47.6420 0.480 -0.166 0.862 85 78 94
-41.8824 4.6273 -47.0357 0.258 -0.001 0.966 85 78 85
-41.5394 4.9680 -46.8675 0.070 -0.737 0.672 97 90 97
-39.0629 14.3347 -45.7255 0.404 -0.039 0.914 77 68 69
-39.1871 14.5787 -45.7904 0.241 -0.708 0.664 86 75 79
-34.1707 21.7285 -43.3521 0.188 0.445 0.875 72 62 63
-37.3703 28.7194 -45.0296 0.004 0.117 0.993 109 100 105
-36.3716 33.9604 -44.5846 0.576 -0.106 0.810 80 68 72
-36.9780 37.3394 -44.9243 0.170 0.423 0.890 85 71 78
-37.3759 37.6431 -45.1269 0.860 -0.324 -0.395 86 72 79
-37.0329 39.0433 -44.9698 0.151 -0.496 0.855 117 102 109
-36.7991 39.3118 -44.8555 0.151 -0.496 0.855 127 111 121
-36.5348 41.8577 -44.7500 0.425 -0.327 0.844 88 72 82
-36.3321 43.5594 -44.6664 0.868 0.281 -0.408 118 103 112
-37.0833 44.2203 -45.0499 0.817 0.536 -0.211 84 68 79
-38.4683 51.2261 -45.8182 0.299 0.404 0.864 98 80 90
-39.6035 54.7974 -46.4249 0.043 0.185 0.982 112 91 103
-38.3207 54.8399 -45.7824 0.087 0.019 0.996 108 88 99
-34.5267 57.0186 -43.9042 0.574 -0.817 -0.058 51 33 45
-33.7125 57.4199 -43.5004 0.642 -0.766 -0.022 61 44 55
-34.0950 58.1082 -43.6994 0.452 -0.770 0.450 58 42 50
-34.6803 61.2706 -44.0262 0.505 -0.835 0.219 59 44 51
-33.9567 62.5839 -43.6775 0.929 -0.337 0.152 78 60 70
-35.0097 72.8723 -44.3141 0.980 0.191 -0.051 50 34 42
-33.7085 72.6903 -43.6601 0.877 0.417 0.240 61 41 50
-32.2619 74.6271 -42.9556 0.786 0.529 0.319 82 62 74
-35.2253 77.4508 -44.4706 0.481 0.605 0.635 72 51 67
-35.4931 77.8890 -44.6095 0.480 0.600 0.640 72 51 66
-35.8469 78.3660 -44.7918 0.480 0.600 0.640 72 51 65
-35.0684 78.6810 -44.4050 0.178 -0.594 0.785 67 46 59
-34.8318 78.9024 -44.2888 0.186 -0.567 0.803 61 39 52
-35.8668 80.0120 -44.8192 0.269 -0.832 0.486 62 40 54
-34.9569 80.5868 -44.3693 0.451 0.443 0.775 62 41 54
-35.0405 80.9520 -44.4151 0.518 0.336 0.786 71 49 65
-35.0980 81.3061 -44.4476 0.207 -0.540 0.816 74 52 71
-34.4828 83.3167 -44.1606 -0.089 -0.231 0.969 69 48 65
-39.0435 86.1960 -46.4767 -0.046 -0.369 0.928 69 49 66
-35.4335 84.7712 -44.6525 -0.112 -0.453 0.884 69 48 65
-34.9714 85.2089 -44.4255 -0.112 -0.454 0.884 63 42 59
-31.0672 86.1712 -42.4791 -0.048 -0.328 0.943 67 49 61
-31.4220 95.6140 -42.7569 0.462 0.812 0.356 54 42 51
-31.2550 96.5207 -42.6828 0.336 0.680 0.652 50 37 47
-30.3530 97.9709 -42.2461 0.480 0.477 0.736 48 36 46
-33.2998 101.2517 -43.7577 0.884 -0.367 0.289 53 41 51
-33.3061 101.6040 -43.7646 0.886 -0.390 0.252 53 41 51
-29.1173 99.5151 -41.6433 0.877 0.467 -0.112 46 34 44
-29.4268 100.0576 -41.8041 0.877 0.467 -0.112 45 33 43
-30.1196 101.5401 -42.1670 0.814 -0.374 0.444 45 31 44
-31.0941 105.3114 -42.6953 0.712 -0.674 -0.196 59 45 58
-28.5792 109.3565 -41.4778 0.794 0.465 -0.392 52 35 51
-28.5461 109.6776 -41.4646 0.813 0.299 -0.499 50 33 49
-25.1590 108.0790 -39.7502 0.510 0.602 0.615 48 31 47
-24.2554 108.0420 -39.2970 0.593 0.647 0.479 47 30 46
-26.7580 124.4412 -40.7248 0.843 0.451 -0.292 74 62 76
-26.8342 128.8864 -40.8101 0.136 -0.710 0.691 75 61 74
-26.7136 129.1360 -40.7523 0.134 -0.716 0.686 70 56 69
-26.6310 129.4224 -40.7139 0.133 -0.719 0.682 61 47 60
-26.6010 129.7606 -40.7024 0.276 -0.342 0.898 53 39 52
-26.7191 130.2458 -40.7667 0.278 -0.308 0.910 47 33 46
-25.6408 129.9085 -40.2228 0.291 -0.290 0.912 55 45 56
-25.5360 130.1696 -40.1730 0.291 -0.290 0.912 54 44 55
-24.8094 139.8045 -39.9109 0.702 0.573 0.424 34 28 40
-25.4327 140.8749 -40.2347 0.695 0.581 0.424 36 30 41
-24.2252 144.0727 -39.6633 0.087 -0.985 0.151 43 37 49
-23.8029 143.9635 -39.4506 0.103 -0.988 0.113 46 40 52
-21.8263 153.8508 -38.5647 0.337 0.276 0.900 56 48 62
-22.5369 159.9134 -38.9850 0.404 0.378 0.833 53 53 53
-48.6525 -17.4013 -50.5129 0.520 0.768 0.374 99 94 115
-17.0170 4.6961 -34.8159 0.987 -0.155 0.044 134 128 154
-16.6871 6.3784 -34.6685 0.910 0.251 0.330 96 90 116
-42.4361 2.3987 -47.6016 0.139 -0.333 0.933 73 66 84
-41.6676 4.1451 -47.2339 0.282 -0.174 0.944 99 92 100
-41.9482 4.3372 -47.3775 0.463 0.323 0.826 90 85 91
-36.8155 7.8135 -44.8295 0.474 -0.597 0.647 98 88 99
-43.1842 17.8089 -48.1514 0.185 -0.281 0.942 76 65 69
-37.6865 37.6714 -45.6031 0.856 -0.312 -0.412 121 104 112
-38.4947 38.0014 -46.0141 0.895 -0.210 -0.394 123 107 114
-38.4114 38.2840 -45.9753 0.895 -0.210 -0.394 124 107 115
-36.8380 38.7594 -45.1876 0.251 -0.466 0.848 125 108 118
-35.9323 40.9641 -44.7558 0.464 -0.366 0.807 101 81 92
-36.2229 41.8443 -44.9122 0.425 -0.327 0.844 100 83 93
-35.5559 42.9213 -44.5880 0.504 0.205 0.839 139 122 132
-36.0635 43.2602 -44.8477 0.906 -0.073 -0.416 146 129 139
-36.4189 43.5856 -45.0304 0.892 0.245 -0.380 151 134 144
-36.8542 43.9221 -45.2536 0.823 0.533 -0.199 142 124 136
-37.1745 44.2482 -45.4187 0.785 0.616 -0.072 143 125 139
-36.6768 45.0617 -45.1769 0.087 -0.211 0.974 125 107 121
-34.1878 57.2654 -44.0592 0.585 -0.808 -0.071 68 48 60
-33.6940 57.4445 -43.8124 0.642 -0.766 -0.022 68 48 60
-33.1666 57.9090 -43.5518 0.440 -0.737 0.513 67 47 56
-35.7241 59.7557 -44.8615 0.361 0.375 0.853 70 51 60
-35.9367 60.1160 -44.9727 0.361 0.376 0.853 70 51 60
-36.5834 60.5922 -45.3039 0.427 0.441 0.790 70 51 60
-36.9908 61.0087 -45.5139 0.407 0.342 0.847 68 48 57
-34.6176 60.9826 -44.3175 0.543 -0.748 0.381 68 48 57
-34.4185 61.2314 -44.2200 0.500 -0.834 0.235 68 48 57
-34.4632 61.5471 -44.2460 0.541 -0.811 0.224 67 47 56
-35.2868 65.1622 -44.7016 0.848 -0.461 -0.262 75 54 66
-35.6213 65.5766 -44.8749 0.840 -0.444 -0.312 62 44 52
-32.7788 68.9666 -43.4802 0.881 -0.185 0.436 59 42 48
-34.9081 72.2422 -44.5901 0.396 -0.485 0.780 56 44 48
-35.2287 77.8249 -44.8143 0.487 0.610 0.625 109 87 99
-35.4962 78.2645 -44.9540 0.511 0.592 0.623 108 85 98
-35.3633 80.1664 -44.9083 0.268 -0.832 0.487 80 55 68
-34.4330 80.0750 -44.4384 0.411 0.470 0.781 81 55 69
-34.9129 80.6181 -44.6864 0.386 0.597 0.703 79 56 69
-34.7803 80.8848 -44.6225 0.441 0.428 0.789 80 57 72
-31.3805 81.2391 -42.9130 -0.058 -0.210 0.976 74 49 68
-31.2788 81.5096 -42.8647 0.099 0.326 0.940 74 49 68
-33.9383 85.0816 -44.2452 -0.109 -0.485 0.868 67 42 61
-30.6251 86.6426 -42.5928 -0.050 -0.269 0.962 58 37 52
-35.2120 95.2288 -45.0009 0.709 0.704 0.035 65 47 62
-31.0781 96.4780 -42.9313 0.538 0.755 0.374 53 38 51
-29.3292 95.7192 -42.0414 0.494 0.584 0.645 48 33 46
-34.8672 101.9993 -44.9030 0.856 -0.449 0.257 56 43 53
-34.5316 104.6094 -44.7631 0.952 -0.286 -0.112 42 26 39
-33.3916 104.8920 -44.1916 0.881 -0.470 -0.046 58 42 55
-33.2514 105.1480 -44.1238 0.881 -0.470 -0.046 59 43 56
-23.6719 106.9985 -39.3164 0.609 0.527 0.593 54 37 53
-24.0177 107.6015 -39.4974 0.609 0.527 0.593 54 37 53
-24.2338 108.1052 -39.6120 0.618 0.599 0.509 54 37 53
-24.7760 108.8687 -39.8938 0.611 0.621 0.491 53 36 52
-27.6376 117.0894 -41.4282 0.979 0.196 0.053 53 41 51
-27.7202 117.5144 -41.4746 0.979 0.196 0.053 53 41 51
-30.1450 124.7215 -42.7775 0.726 -0.580 -0.368 69 53 63
-29.9236 124.8911 -42.6678 0.700 -0.637 -0.323 69 53 64
-29.4616 125.2094 -42.4385 0.700 -0.648 -0.301 67 53 66
-26.4082 123.8533 -40.8844 0.842 0.466 -0.271 67 54 71
-27.6711 125.7569 -41.5422 0.835 0.507 -0.216 76 64 78
-29.2442 127.9736 -42.3600 0.835 0.506 -0.217 76 65 79
-25.2581 129.9965 -40.3736 0.996 0.070 0.056 58 48 59
-23.6069 140.8343 -39.6628 0.227 -0.741 0.633 38 32 46
-24.9259 148.1025 -40.4090 0.794 -0.426 -0.434 44 35 52
-22.6988 148.1215 -39.2868 0.166 -0.838 0.520 45 36 54
-21.4521 153.5024 -38.7187 0.317 0.260 0.912 52 43 60
-48.9675 -24.3726 -50.9083 0.038 -0.369 0.929 94 91 112
-48.1138 -17.7199 -50.5542 0.521 0.768 0.374 106 98 121
-48.5652 -17.1407 -50.7899 0.947 0.053 0.318 99 91 115
-16.9729 4.4963 -35.0320 0.789 -0.063 0.611 99 93 119
-16.7883 5.7392 -34.9532 0.915 -0.303 0.267 113 107 133
-16.4805 6.2247 -34.8029 0.797 0.185 0.575 113 107 133
-16.5802 6.3945 -34.8554 0.911 0.222 0.348 107 101 127
-16.8668 6.5122 -35.0021 0.800 0.506 0.322 105 99 125
-17.0594 6.6577 -35.1015 0.760 0.553 0.341 101 95 121
-41.5706 3.6362 -47.4901 0.116 -0.350 0.930 130 125 132
-41.2271 4.2371 -47.3231 0.420 0.053 0.906 115 108 115
-38.4335 14.1574 -46.0243 0.596 0.453 0.663 88 80 78
-38.7086 14.3761 -46.1664 0.638 -0.239 0.732 89 79 80
-38.6416 14.6491 -46.1357 0.638 -0.239 0.732 90 80 81
-38.7773 14.8913 -46.2073 0.562 0.311 0.766 91 79 83
-33.1175 21.5687 -43.4174 0.230 0.542 0.808 75 64 70
-37.6916 23.5418 -45.7593 0.073 -0.046 0.996 93 81 83
-36.7750 38.4843 -45.4714 0.243 -0.469 0.849 137 120 130
-36.4493 38.7474 -45.3094 0.251 -0.466 0.848 139 119 130
-35.3738 39.8028 -44.7767 0.285 -0.471 0.835 126 104 117
-36.2286 41.5744 -45.2309 0.432 -0.325 0.842 113 93 104
-35.9124 41.8311 -45.0737 0.425 -0.327 0.844 112 95 105
-35.0617 42.6027 -44.6516 0.567 0.195 0.800 125 108 118
-35.3716 42.9186 -44.8124 0.501 0.178 0.847 130 113 123
-32.7889 42.9314 -43.5034 0.396 0.078 0.915 136 119 129
-36.2491 43.5842 -45.2651 0.795 0.604 -0.061 141 123 135
-36.6904 43.9212 -45.4928 0.789 0.610 -0.077 148 130 142
-35.9687 44.7053 -45.1362 0.085 -0.077 0.993 150 132 146
-33.9214 45.5971 -44.1090 0.828 0.004 -0.561 123 105 119
-34.1449 45.9111 -44.2260 0.840 0.189 -0.508 119 101 113
-34.2661 46.2128 -44.2910 0.883 -0.079 -0.462 122 104 116
-34.4807 46.5284 -44.4035 0.884 -0.097 -0.457 128 110 122
-33.8575 56.0291 -44.2000 -0.090 0.116 0.989 104 84 96
-34.4123 56.4529 -44.4862 0.082 0.204 0.976 96 76 88
-35.8782 57.0924 -45.2368 0.146 0.347 0.926 71 51 63
-34.9516 57.1764 -44.7681 0.529 -0.684 0.502 67 47 59
-33.8837 57.5195 -44.2309 0.646 -0.764 -0.012 59 39 50
-33.8733 57.8148 -44.2291 0.719 -0.686 0.115 73 53 63
-33.9418 58.4287 -44.2711 0.261 -0.789 0.557 73 53 62
-34.6870 58.9160 -44.6546 0.393 0.332 0.858 73 53 62
-33.5921 59.5359 -44.1069 0.273 -0.580 0.767 71 51 60
-34.8262 64.7476 -44.7941 0.415 0.541 0.731 80 56 70
-35.3684 65.2239 -45.0745 0.848 -0.461 -0.262 75 52 65
-35.7684 65.6593 -45.2824 0.820 -0.529 -0.217 67 48 56
-34.3971 72.7258 -44.6709 0.165 0.579 0.798 76 60 63
-33.8647 76.6503 -44.4475 0.690 0.720 -0.077 121 99 112
-34.1298 77.0829 -44.5870 0.743 0.669 0.025 122 100 112
-34.6247 77.6156 -44.8441 0.740 0.664 0.110 121 99 111
-34.9934 78.0973 -45.0367 0.775 0.611 0.162 122 99 110
-32.0250 78.7214 -43.5395 0.237 -0.256 0.937 91 65 76
-34.0320 79.9449 -44.5712 0.411 0.470 0.781 90 64 75
-34.6947 80.8973 -44.9184 0.446 0.468 0.763 90 63 79
-32.6112 82.8473 -43.8854 0.098 0.193 0.976 83 58 77
-33.0494 83.7118 -44.1177 -0.051 0.036 0.998 81 58 76
-30.9120 85.2331 -43.0523 0.003 -0.612 0.791 74 53 68
-28.2731 86.4015 -41.7285 -0.149 -0.549 0.822 73 50 68
-28.0458 86.5958 -41.6156 -0.153 -0.546 0.824 72 49 67
-32.2991 89.2406 -43.8028 -0.015 -0.293 0.956 70 47 65
-30.2886 93.7211 -42.8367 -0.032 -0.440 0.898 82 60 77
-29.3623 94.4821 -42.3762 0.684 0.452 0.572 77 57 72
-28.4251 94.2339 -41.8981 0.558 0.786 0.266 72 51 68
-28.1292 96.0189 -41.7693 0.455 0.578 0.678 58 40 58
-34.0383 101.5310 -44.8297 0.660 -0.742 0.117 67 54 64
-19.4062 97.1682 -37.3613 0.559 0.664 0.498 64 46 60
-20.9868 98.6049 -38.1795 0.553 0.739 0.386 64 46 60
-24.6390 102.8500 -40.0809 0.479 0.705 0.522 60 42 56
-25.2375 103.6183 -40.3934 0.445 0.654 0.612 59 41 55
-22.9155 105.5002 -39.2386 0.808 0.275 -0.521 62 44 60
-28.2358 116.2653 -42.0627 0.693 0.697 0.185 56 44 56
-26.9595 124.4641 -41.5127 0.854 0.454 -0.254 69 56 73
-25.3850 129.4978 -40.7742 0.135 -0.724 0.677 56 44 56
-23.4514 138.9043 -39.9053 0.899 0.316 -0.303 46 39 55
-23.9671 139.8544 -40.1779 0.959 -0.168 -0.227 46 39 55
-20.8636 153.2623 -38.7633 0.267 0.213 0.940 48 39 56
-21.0267 153.8619 -38.8531 0.267 0.213 0.940 48 40 56
-48.3104 -24.3512 -50.8888 0.278 -0.491 0.826 95 90 111
-48.3747 -23.6368 -50.9304 0.019 -0.375 0.927 103 98 120
-16.6606 3.9856 -35.1075 0.668 0.013 0.744 70 64 90
-16.8196 4.5274 -35.1953 0.747 -0.075 0.661 93 87 113
-16.4870 6.0103 -35.0442 0.903 -0.244 0.353 115 109 135
-16.3950 6.4330 -35.0026 0.859 0.268 0.436 119 113 139
-16.6837 6.5498 -35.1512 0.772 0.158 0.616 117 111 137
-17.2068 6.8028 -35.4210 0.266 -0.617 0.741 108 102 128
-10.9101 17.3465 -32.3424 0.539 -0.351 0.765 87 75 87
-38.2211 13.9227 -46.2219 0.602 0.425 0.676 95 85 86
-38.4955 14.1403 -46.3646 0.622 0.383 0.683 95 85 84
-39.0459 14.8439 -46.6539 0.651 0.368 0.664 97 85 89
-34.5916 31.7734 -44.5939 0.348 0.049 0.936 108 92 102
-35.7730 34.5278 -45.2304 0.533 -0.619 0.577 113 95 109
-35.3679 38.9720 -45.0792 0.281 -0.432 0.857 134 114 126
-35.2015 39.2415 -44.9978 0.281 -0.432 0.857 133 113 125
-35.7060 41.2582 -45.2800 0.513 -0.013 0.858 120 102 114
-35.6989 41.5420 -45.2799 0.513 -0.013 0.858 122 104 116
-35.2553 41.7857 -45.0569 0.588 -0.360 0.724 122 105 115
-35.0804 42.9049 -44.9816 0.501 0.178 0.847 130 113 123
-35.6197 43.2466 -45.2608 0.520 -0.021 0.854 137 120 130
-35.7021 43.5419 -45.3065 0.498 -0.045 0.866 141 123 135
-35.2246 44.3481 -45.0731 0.134 0.081 0.988 154 136 150
-36.2877 45.0509 -45.6237 0.114 -0.061 0.992 142 124 140
-36.1204 45.6102 -45.5455 0.069 -0.233 0.970 129 111 125
-34.6374 45.7084 -44.7907 0.812 0.280 -0.512 124 106 120
-34.8603 46.3121 -44.9118 0.852 -0.291 -0.436 131 113 125
-33.9086 57.8530 -44.5703 0.734 -0.673 0.090 82 65 74
-33.8504 58.1372 -44.5442 0.722 -0.692 0.001 80 63 71
-33.1229 58.2541 -44.1748 0.549 -0.672 0.498 78 61 69
-32.5560 58.9998 -43.8951 0.751 0.419 -0.510 71 54 62
-31.3628 59.2781 -43.2903 0.188 -0.675 0.714 71 54 62
-31.0937 59.5001 -43.1559 0.237 -0.626 0.743 73 56 64
-35.1760 60.8946 -45.2543 0.220 0.150 0.964 73 56 64
-33.9792 63.9119 -44.6817 0.332 0.582 0.742 79 57 70
-34.3921 64.6505 -44.9014 0.411 0.532 0.740 74 52 65
-34.9693 65.7565 -45.2094 0.437 -0.727 0.530 72 55 61
-32.6273 68.9930 -44.0558 0.907 -0.205 0.368 68 51 57
-32.8095 71.2268 -44.1765 0.187 0.386 0.903 59 47 51
-32.9085 71.5754 -44.2313 0.184 0.379 0.907 67 55 59
-31.9518 73.3872 -43.7662 0.960 -0.036 0.276 105 86 92
-33.9056 76.7150 -44.8035 0.747 0.627 -0.220 103 81 94
-34.2058 77.1631 -44.9621 0.742 0.670 0.030 104 82 95
-34.4519 77.5902 -45.0929 0.737 0.666 0.119 104 82 95
-33.7353 77.6048 -44.7278 0.969 -0.206 0.138 105 83 95
-33.8149 78.2824 -44.7768 0.195 -0.486 0.852 117 94 104
-33.6516 79.8238 -44.7127 0.408 0.462 0.787 81 58 68
-34.0072 80.3092 -44.9001 0.364 0.564 0.741 81 57 70
-32.7035 81.6493 -44.2521 0.098 -0.710 0.697 110 85 104
-31.6885 82.1315 -43.7407 0.110 0.320 0.941 111 86 105
-31.4288 84.2597 -43.6349 -0.038 -0.562 0.826 108 85 103
-29.8585 86.3496 -42.8604 -0.055 -0.378 0.924 99 78 93
-31.7654 89.0084 -43.8655 -0.015 -0.293 0.956 88 65 83
-31.9049 94.7588 -44.0082 -0.006 -0.449 0.893 89 64 83
-27.9557 94.9904 -41.9979 0.541 0.328 0.774 80 58 79
-28.5352 101.6915 -42.3767 0.443 -0.556 0.703 66 48 64
-28.7458 102.1754 -42.4901 0.871 -0.420 -0.255 66 48 64
-25.2083 104.0043 -40.7096 0.456 0.668 0.588 69 48 63
-24.1509 106.8643 -40.2062 0.711 0.177 -0.680 68 50 64
-27.4413 111.8379 -41.9454 0.382 -0.892 -0.243 64 48 61
-27.1970 127.3423 -42.0138 0.396 -0.837 0.378 75 63 75
-26.0353 126.5939 -41.4123 0.650 -0.713 0.262 78 64 77
-23.8092 139.4199 -40.4371 0.899 0.323 -0.297 49 43 57
-24.0508 140.4425 -40.5730 0.253 -0.967 0.001 49 43 57
-15.9962 138.7582 -36.4461 0.730 0.567 0.383 55 44 60
-16.9112 140.2215 -36.9308 0.719 0.579 0.385 54 43 60
-20.8034 146.4382 -38.9922 0.835 0.523 0.170 57 46 63
-21.2882 147.4126 -39.2515 0.785 -0.203 -0.586 56 45 62
-21.4373 147.9769 -39.3345 0.755 -0.226 -0.616 56 45 62
-21.3202 148.2133 -39.2778 0.755 -0.226 -0.616 55 44 61
-48.2174 -24.3427 -51.1550 0.100 -0.294 0.951 95 90 112
-47.3813 -23.4621 -50.7379 0.044 -0.379 0.924 99 94 117
-16.7816 4.7209 -35.4194 0.785 -0.065 0.616 102 96 122
-16.5970 5.3694 -35.3332 0.873 -0.388 0.295 115 109 135
-16.5118 5.5924 -35.2924 0.873 -0.388 0.295 115 109 135
-16.4266 5.8152 -35.2517 0.873 -0.388 0.295 114 108 134
-16.3474 6.0361 -35.2140 0.907 -0.244 0.342 114 108 134
-10.3336 15.1202 -32.2497 0.113 -0.616 0.780 77 67 80
-32.9620 20.8133 -43.9244 0.362 0.729 0.580 95 84 92
-36.6875 23.6174 -45.8710 0.369 0.724 0.582 93 81 83
-34.5618 30.1586 -44.8667 0.419 -0.405 0.813 126 109 119
-33.3593 31.2448 -44.2644 0.230 -0.091 0.969 121 108 118
-33.4198 31.5123 -44.2989 0.222 -0.088 0.971 115 102 112
-36.8923 35.1259 -46.1263 0.446 -0.093 0.890 116 98 112
-33.1490 38.8374 -44.2558 -0.002 0.094 0.996 126 108 120
-33.5185 39.4151 -44.4528 0.167 0.468 0.868 126 108 120
-34.8471 45.7543 -45.2167 0.812 0.282 -0.511 139 121 135
-34.5014 46.2828 -45.0464 0.852 0.461 -0.247 144 126 138
-35.5002 46.9978 -45.5678 0.809 0.361 -0.463 142 124 136
-34.4329 47.1356 -45.0224 0.968 0.224 -0.110 146 128 140
-34.0161 58.2081 -44.9535 0.789 -0.602 0.123 93 76 84
-32.2729 62.2318 -44.1124 0.202 0.180 0.963 83 63 75
-34.1283 64.6054 -45.0945 0.395 0.557 0.731 79 59 71
-35.4760 65.6418 -45.7990 0.411 0.308 0.858 77 60 67
-35.2907 65.8951 -45.7073 0.504 -0.764 0.402 77 60 66
-32.2832 70.7623 -44.2291 0.334 0.091 0.938 66 54 58
-32.3040 71.0798 -44.2439 0.195 0.401 0.895 67 55 59
-32.4775 71.4555 -44.3378 0.195 0.401 0.895 70 58 62
-33.8819 73.2481 -45.0812 0.211 0.596 0.775 104 81 89
-31.8936 73.4083 -44.0640 0.954 -0.068 0.293 116 97 103
-31.8239 74.0043 -44.0361 0.963 -0.048 0.266 101 78 86
-33.6909 76.3522 -45.0238 0.749 0.621 -0.232 94 71 87
-33.7264 77.0074 -45.0506 0.848 -0.529 -0.017 106 83 99
-33.5673 77.2601 -44.9723 0.848 -0.529 -0.017 107 84 99
-33.6032 77.5963 -44.9951 0.952 -0.302 0.059 107 85 98
-33.1076 78.0225 -44.7466 0.249 -0.422 0.872 121 99 111
-32.9117 78.2567 -44.6493 0.251 -0.427 0.869 120 99 108
-32.6408 78.4569 -44.5130 0.438 0.359 0.824 118 97 106
-33.3174 79.7233 -44.8764 0.412 0.460 0.787 106 83 93
-33.5563 80.1551 -45.0045 0.364 0.564 0.741 105 84 94
-33.0010 81.8426 -44.7419 0.047 -0.734 0.678 93 70 88
-31.2112 82.2744 -43.8300 0.070 0.274 0.959 124 101 119
-31.8426 83.2270 -44.1661 0.015 0.161 0.987 123 102 119
-31.1157 84.1568 -43.8056 -0.043 -0.559 0.828 129 106 124
-31.1343 84.8123 -43.8238 -0.002 -0.582 0.813 103 80 98
-30.8677 84.9990 -43.6895 -0.002 -0.582 0.813 95 74 89
-32.0827 87.9207 -44.3506 -0.135 -0.483 0.865 121 100 117
-26.7735 86.3312 -41.6080 0.755 0.523 0.394 98 77 94
-31.3948 90.5153 -44.0318 0.922 -0.379 0.075 80 59 78
-31.0405 94.6388 -43.9041 0.055 0.319 0.946 91 66 85
-28.9214 93.6835 -42.8052 -0.033 -0.435 0.900 88 65 83
-28.9044 94.3314 -42.8050 0.684 0.452 0.572 89 66 84
-29.0424 94.7465 -42.8811 0.785 0.603 0.143 94 71 91
-29.5307 95.3809 -43.1397 0.637 0.727 0.256 101 78 98
-30.2921 96.1897 -43.5407 0.637 0.727 0.256 100 78 99
-29.2752 101.5965 -43.0900 0.417 -0.455 0.787 80 59 76
-23.8579 100.7972 -40.3024 0.584 0.512 0.630 77 53 69
-24.3538 101.4786 -40.5655 0.599 0.490 0.633 77 53 69
-24.5380 103.5852 -40.6875 0.604 0.695 0.390 76 52 68
-27.0509 111.9567 -42.0851 0.449 -0.891 0.072 76 60 71
-28.6762 121.8615 -43.0477 0.407 0.602 0.687 67 51 64
-29.4488 122.9150 -43.4575 0.408 0.581 0.704 65 49 62
-28.2757 129.2216 -42.9386 0.509 0.619 0.598 78 64 77
-24.8140 129.1377 -41.1628 0.132 -0.724 0.678 80 66 79
-23.9093 140.4017 -40.8462 0.258 -0.966 -0.006 51 45 57
-23.8487 141.0881 -40.8242 0.255 -0.966 0.046 53 47 59
-21.2254 147.8434 -39.5676 0.641 -0.197 -0.742 61 50 67
-20.9670 147.9039 -39.4359 0.638 -0.202 -0.743 61 50 67
-20.8358 148.1213 -39.3715 0.595 -0.235 -0.768 60 49 65
-20.7333 148.3739 -39.3222 0.590 -0.250 -0.768 60 49 64
-42.4177 -8.1007 -48.7015 0.415 0.244 0.877 77 69 92
-38.7960 -5.8767 -46.8648 0.768 0.475 0.430 81 73 96
-39.1943 -5.5242 -47.0750 0.645 0.642 0.414 82 74 97
-16.6977 5.7213 -35.6312 0.799 -0.599 0.052 114 108 134
-16.5354 6.3644 -35.5564 0.806 0.171 0.567 109 103 129
-16.5991 6.5453 -35.5916 0.804 0.172 0.569 105 99 125
-13.9797 14.1780 -34.3458 0.181 -0.043 0.983 79 68 76
-35.5489 15.6185 -45.4851 0.185 -0.024 0.983 110 94 104
-38.8844 16.9773 -47.2233 0.053 0.211 0.976 100 88 92
-30.8265 20.0342 -43.1110 0.130 0.288 0.949 101 89 93
-35.6358 23.9618 -45.6441 0.400 0.713 0.575 93 81 83
-34.3260 29.6301 -45.0465 0.445 -0.386 0.808 103 87 97
-34.1019 30.1710 -44.9384 0.429 -0.376 0.822 108 92 102
-33.7580 30.4440 -44.7648 0.448 -0.357 0.820 110 94 104
-33.9423 32.0570 -44.8819 0.359 0.133 0.924 107 91 101
-32.9317 40.4911 -44.4763 0.594 -0.706 0.385 131 111 123
-35.9827 47.0856 -46.1395 0.804 0.369 -0.465 139 121 133
-33.5849 49.9081 -44.9420 -0.027 -0.014 1.000 135 115 126
-32.9992 57.6895 -44.7466 0.788 0.608 -0.101 122 105 114
-34.8149 65.1619 -45.7849 0.425 -0.010 0.905 92 71 83
-35.2495 65.6078 -46.0151 0.420 0.291 0.860 79 62 69
-31.0062 65.7782 -43.8298 0.376 0.323 0.869 80 63 69
-31.9108 70.6656 -44.3631 0.392 -0.010 0.920 76 64 68
-31.6334 70.8707 -44.2229 0.488 0.438 0.755 72 60 64
-31.8124 71.2468 -44.3203 0.309 0.527 0.792 70 58 62
-32.1900 71.6999 -44.5212 0.314 0.626 0.713 87 75 79
-33.6289 73.5101 -45.2878 0.295 0.377 0.878 103 82 89
-33.7574 74.1949 -45.3634 0.231 0.170 0.958 109 90 96
-32.5079 75.5871 -44.7383 0.774 0.579 -0.256 101 79 92
-32.9703 76.0973 -44.9836 0.774 0.579 -0.256 101 79 92
-33.5487 77.3003 -45.2983 0.848 -0.529 -0.017 112 90 103
-32.5808 77.8410 -44.8067 0.260 -0.476 0.840 118 96 108
-32.5625 78.1520 -44.8016 0.251 -0.427 0.869 119 96 106
-32.4111 78.4044 -44.7269 0.439 0.358 0.824 119 96 106
-32.9242 79.5960 -45.0078 0.412 0.460 0.787 127 104 114
-33.3161 84.6641 -45.2792 -0.004 0.154 0.988 130 109 126
-30.6843 83.9939 -43.9132 -0.056 -0.529 0.847 131 108 126
-29.9221 84.8891 -43.5325 -0.003 -0.592 0.806 103 82 97
-30.9849 95.3425 -44.2235 0.047 0.300 0.953 87 64 82
-23.7186 100.1209 -40.5429 0.620 -0.715 -0.323 79 58 75
-25.6620 102.1605 -41.5727 0.243 0.059 0.968 82 59 75
-28.7197 130.1297 -43.5319 0.501 0.593 0.630 78 64 77
-24.1504 140.0360 -41.3120 0.946 -0.037 -0.323 70 64 78
-24.1757 140.4419 -41.3305 0.914 -0.101 -0.394 65 59 73
-23.7489 140.3397 -41.1091 0.257 -0.966 -0.008 60 54 66
-15.3702 137.8833 -36.7560 0.625 0.568 0.535 66 55 72
-21.1786 147.5330 -39.8825 0.732 0.491 0.472 65 54 71
-20.9854 150.3497 -39.8215 0.722 -0.285 -0.630 61 53 66
-22.1914 159.3647 -40.5666 0.308 0.238 0.921 53 44 61
-23.1937 161.1165 -41.1073 0.396 0.312 0.863 54 45 62
-44.3252 -22.8417 -49.7874 0.122 -0.769 0.628 88 85 103
-44.4405 -22.6555 -49.8499 0.041 -0.687 0.726 95 90 112
-43.4792 -21.9701 -49.3613 0.056 -0.670 0.740 97 92 115
-45.8423 -22.8209 -50.5742 0.067 -0.343 0.937 100 95 118
-16.6314 5.7259 -35.8391 0.800 -0.597 0.057 115 111 136
-10.5341 15.8367 -32.8228 0.681 0.722 0.119 41 33 47
-10.8809 17.9218 -33.0324 0.521 0.231 0.822 97 86 95
-38.2914 14.9387 -47.2000 0.405 0.242 0.882 114 102 107
-38.6737 15.1445 -47.4012 0.483 0.233 0.844 116 100 110
-37.6818 17.1322 -46.9154 0.050 0.176 0.983 102 90 94
-34.0848 26.7090 -45.1877 0.328 0.178 0.928 95 84 90
-32.7092 40.4868 -44.6717 0.600 -0.669 0.438 132 110 123
-31.4592 42.0285 -44.0458 0.345 -0.517 0.783 112 92 103
-31.3210 47.2895 -44.0494 0.533 -0.578 0.617 135 117 129
-34.2039 58.3146 -45.7018 0.227 0.737 0.637 125 105 114
-30.3734 59.1085 -43.7273 0.270 -0.640 0.719 115 95 104
-32.7134 63.0306 -44.9965 0.915 0.248 -0.317 110 88 100
-35.2588 68.1520 -46.3894 0.186 -0.837 0.515 89 70 76
-32.6040 69.4141 -45.0312 0.749 -0.583 0.315 80 62 68
-32.0600 69.8359 -44.7552 0.265 -0.587 0.765 66 54 58
-31.8813 70.0791 -44.6660 0.220 -0.553 0.804 76 63 67
-31.5343 70.2595 -44.4887 0.341 0.167 0.925 86 73 77
-31.5024 70.5554 -44.4764 0.391 -0.025 0.920 87 75 79
-31.2263 70.7600 -44.3362 0.497 0.433 0.752 77 65 69
-31.4048 71.1350 -44.4341 0.497 0.433 0.752 71 59 63
-31.5840 71.5117 -44.5324 0.497 0.433 0.752 83 70 74
-33.2194 73.3938 -45.4072 0.595 0.456 0.662 103 82 88
-31.3928 73.2973 -44.4588 0.983 -0.014 -0.183 102 83 88
-31.4216 73.6199 -44.4784 0.986 -0.024 -0.164 107 86 92
-32.1809 77.7145 -44.9306 0.254 -0.480 0.840 112 89 99
-32.1100 78.0016 -44.8980 0.287 -0.410 0.866 112 89 99
-31.8949 78.2245 -44.7896 0.428 0.340 0.837 112 89 97
-31.8817 78.5368 -44.7873 0.349 0.583 0.734 129 106 114
-30.4877 84.5928 -44.1513 -0.066 -0.537 0.841 127 106 121
-29.6343 84.7958 -43.7118 -0.011 -0.592 0.806 104 83 98
-30.2806 89.0258 -44.1074 0.755 0.435 -0.491 105 80 99
-24.8314 93.2211 -41.3424 0.562 0.670 0.485 101 82 101
-29.2195 101.0257 -43.7290 0.616 0.401 0.678 97 79 95
-29.4094 101.4947 -43.8341 0.616 0.401 0.678 95 77 93
-24.1706 100.8396 -41.1088 0.268 -0.301 0.915 90 67 83
-26.4147 107.4974 -42.3675 0.215 -0.972 -0.097 114 91 109
-26.0513 107.5592 -42.1800 0.215 -0.972 -0.097 116 93 111
-27.2515 111.9395 -42.8649 0.359 -0.933 0.008 88 70 82
-18.7780 113.2389 -38.4907 0.319 0.550 0.771 82 64 78
-27.2488 128.0682 -43.0944 0.887 0.204 -0.415 95 78 91
-28.0462 129.2087 -43.5241 0.910 0.175 -0.376 92 77 90
-22.2468 128.9188 -40.5134 0.330 -0.510 0.794 87 75 87
-23.0500 130.1020 -40.9467 0.219 -0.564 0.796 77 67 78
-23.5008 138.3036 -41.2978 0.859 0.513 -0.005 116 110 124
-24.0463 139.2838 -41.5946 0.878 0.479 0.010 109 103 117
-24.5109 140.1786 -41.8483 0.928 0.370 -0.038 100 94 108
-24.2835 140.3030 -41.7322 0.946 -0.037 -0.323 88 82 96
-24.3293 140.7330 -41.7621 0.914 -0.101 -0.394 81 75 89
-23.6656 140.3644 -41.4128 0.257 -0.966 -0.008 75 69 83
-20.9141 147.3344 -40.0860 0.732 0.491 0.472 92 80 100
-45.1546 -22.5374 -50.5291 0.063 -0.362 0.930 100 95 118
-44.9695 -13.5873 -50.5663 0.515 0.641 0.569 96 88 111
-46.2796 -12.5675 -51.2645 0.651 0.684 0.330 94 90 107
-42.5556 -6.1876 -49.4184 0.125 0.204 0.971 84 76 99
-11.0819 16.3101 -33.3465 0.641 -0.344 0.686 53 44 61
-37.7477 14.4915 -47.2208 0.373 -0.014 0.928 93 83 80
-38.1642 14.9514 -47.4448 0.480 0.259 0.838 108 96 102
-38.3965 15.1796 -47.5693 0.483 0.233 0.844 106 93 102
-29.1429 19.7290 -42.8131 0.712 0.677 0.186 106 94 98
-34.0368 22.7713 -45.4099 0.433 0.801 0.414 87 75 79
-34.9633 24.0113 -45.9114 0.217 0.237 0.947 80 68 70
-34.7637 26.9460 -45.8512 0.028 -0.106 0.994 91 78 87
-32.6235 34.4844 -44.8480 -0.009 -0.419 0.908 122 104 118
-31.2573 39.5637 -44.2117 0.134 0.399 0.907 137 116 131
-33.0535 57.7618 -45.4199 0.223 0.738 0.636 115 94 107
-34.4743 59.6205 -46.1883 0.755 0.415 -0.507 112 92 103
-29.9306 59.6037 -43.8193 0.548 0.026 0.836 109 91 102
-30.3966 60.6095 -44.0773 0.503 0.505 0.702 123 106 116
-30.5510 61.2416 -44.1672 0.714 0.306 0.630 134 117 127
-32.7939 62.7864 -45.3596 0.918 0.318 -0.237 126 103 118
-33.1963 63.2083 -45.5757 0.910 0.324 -0.259 121 99 114
-33.0919 69.3183 -45.6125 0.671 -0.583 0.458 84 67 73
-31.5109 69.9845 -44.7983 0.110 -0.682 0.723 84 68 75
-30.7645 70.0164 -44.4096 0.824 0.404 0.397 96 80 88
-30.7808 70.3283 -44.4228 0.804 0.371 0.466 97 82 89
-30.9002 70.6793 -44.4903 0.779 0.399 0.483 84 69 76
-31.0271 71.0342 -44.5617 0.664 0.476 0.577 73 58 65
-31.2422 71.4239 -44.6797 0.599 0.591 0.540 80 64 71
-31.5167 71.8381 -44.8290 0.599 0.591 0.540 96 76 84
-31.2714 72.0529 -44.7043 0.842 -0.175 0.510 103 82 91
-31.8547 74.1517 -45.0397 0.888 -0.438 -0.140 113 91 102
-31.7681 79.1727 -45.0696 0.324 0.593 0.738 121 98 109
-32.2630 79.7179 -45.3357 0.345 0.547 0.762 122 98 112
-28.7150 80.5904 -43.4991 0.171 0.363 0.916 110 87 103
-31.5053 89.4362 -45.0858 0.801 0.487 -0.347 120 97 115
-32.2300 90.1704 -45.4746 0.802 0.486 -0.347 116 93 113
-31.7521 90.5693 -45.2315 0.916 0.112 -0.384 104 83 102
-28.8841 101.2089 -43.8952 0.633 0.400 0.663 96 78 92
-26.7306 106.7952 -42.8560 0.242 -0.959 -0.150 100 77 95
-25.5083 112.3425 -42.3016 0.358 -0.914 -0.190 80 62 76
-28.4842 118.3578 -43.9429 0.968 0.175 -0.177 87 66 85
-18.9483 113.8078 -38.9037 0.299 0.533 0.791 82 64 78
-27.1626 128.0884 -43.3992 0.863 0.003 -0.505 98 80 94
-27.9776 129.2469 -43.8414 0.867 0.078 -0.491 97 80 96
-28.9848 130.5988 -44.3867 0.902 -0.030 -0.432 97 80 96
-21.4765 126.4623 -40.4107 0.514 -0.197 0.835 106 92 105
-21.3249 127.3701 -40.3452 0.266 -0.307 0.914 103 89 102
-22.7802 129.9308 -41.1421 0.219 -0.564 0.796 92 80 92
-24.7563 132.7004 -42.2137 0.198 -0.256 0.946 89 77 89
-25.3513 134.8077 -42.5553 0.407 0.510 0.758 98 86 97
-23.5672 138.4934 -41.6803 0.800 0.547 0.249 105 99 113
-23.7799 140.2344 -41.8172 0.258 -0.966 -0.004 79 73 87
-14.3613 136.8990 -36.8572 0.634 0.568 0.525 97 86 103
-20.4790 146.5463 -40.1906 0.846 0.521 0.112 103 92 109
-42.4205 -22.2544 -49.4081 0.277 -0.879 0.388 89 85 100
-42.9742 -22.2774 -49.6980 0.566 -0.800 0.197 98 93 113
-41.1779 -20.9697 -48.7767 0.096 -0.669 0.737 100 95 118
-43.9553 -21.2965 -50.2275 0.664 -0.732 0.154 101 96 119
-43.6689 -12.1183 -50.2202 0.634 0.542 0.552 98 94 111
-16.9353 4.6119 -36.4662 0.808 -0.462 -0.367 91 83 106
-16.1979 6.4177 -36.1078 0.846 0.513 0.145 120 116 143
-37.3757 8.3660 -47.2400 0.538 0.190 0.821 106 95 99
-34.4690 40.0978 -46.2100 0.673 -0.721 0.166 131 110 125
-34.3330 40.3680 -46.1429 0.527 -0.847 0.060 124 103 118
-31.5281 44.0034 -44.7291 0.302 -0.066 0.951 132 111 126
-31.8555 44.3206 -44.9057 0.186 -0.134 0.973 132 111 128
-31.7176 44.8621 -44.8418 0.053 -0.312 0.949 125 104 121
-33.8582 58.5891 -46.1775 0.230 0.739 0.633 116 95 111
-31.0296 58.7566 -44.6973 0.241 -0.665 0.706 116 95 111
-29.7579 59.5880 -44.0436 0.565 -0.076 0.822 118 97 112
-29.7325 59.8723 -44.0347 0.565 -0.076 0.822 118 97 112
-29.7352 60.1646 -44.0407 0.718 0.257 0.646 118 97 112
-29.8999 60.5026 -44.1323 0.712 0.261 0.652 133 112 126
-30.0695 60.8433 -44.2265 0.757 0.246 0.606 133 112 127
-30.1575 61.1619 -44.2776 0.766 0.237 0.598 133 113 127
-30.2067 61.4703 -44.3082 0.748 0.264 0.609 134 113 128
-32.1777 63.8454 -45.3784 0.548 0.724 0.420 123 102 117
-34.0893 65.3543 -46.4040 0.409 0.268 0.872 121 100 113
-34.1895 65.6951 -46.4618 0.409 0.268 0.872 121 100 113
-31.5699 69.4321 -45.1467 0.107 -0.640 0.761 86 66 75
-31.0316 69.8497 -44.8710 0.107 -0.640 0.761 98 78 87
-30.6317 70.3141 -44.6686 0.804 0.371 0.466 103 84 92
-30.7455 70.6629 -44.7337 0.776 0.399 0.488 90 71 81
-30.7408 70.9679 -44.7360 0.599 0.591 0.540 89 71 81
-31.0124 71.3787 -44.8848 0.599 0.591 0.540 90 71 82
-31.2858 71.7921 -45.0345 0.599 0.591 0.540 97 75 87
-31.1237 72.0387 -44.9534 0.842 -0.175 0.510 105 83 95
-29.8597 81.1933 -44.4332 0.085 -0.627 0.775 112 89 107
-31.8755 90.3672 -45.6327 0.879 0.226 -0.420 120 97 115
-31.7646 90.6381 -45.5788 0.914 0.108 -0.392 115 92 110
-31.2511 91.3453 -45.3206 0.901 -0.389 -0.193 115 94 111
-31.1252 91.6058 -45.2587 0.901 -0.389 -0.193 121 100 119
-25.0822 101.9668 -42.2520 0.402 -0.140 0.905 104 81 97
-26.5359 106.3872 -43.0828 0.842 -0.361 -0.401 101 78 96
-27.2577 111.4172 -43.5395 0.350 -0.923 0.157 102 84 96
-24.7463 112.1448 -42.2343 0.424 -0.875 -0.234 85 67 81
-24.6775 112.4308 -42.2027 0.385 -0.910 -0.153 85 67 81
-20.9504 113.6685 -40.2681 0.697 -0.562 -0.446 80 59 78
-20.8201 126.9596 -40.4066 0.227 -0.532 0.816 108 94 107
-22.3386 129.5825 -41.2435 0.253 -0.575 0.778 101 87 100
-23.1548 130.7857 -41.6901 0.153 -0.528 0.835 100 86 99
-20.7837 147.0491 -40.7001 0.722 0.540 0.432 103 92 109
-30.4185 171.7683 -46.1356 0.872 -0.464 -0.155 73 64 81
-42.9198 -22.2855 -49.9713 0.572 -0.797 0.194 103 98 118
-42.0969 -12.0421 -49.7034 0.560 0.621 0.549 101 93 114
-42.7249 2.9821 -50.2776 0.139 -0.900 0.414 103 92 108
-32.8566 9.0736 -45.1744 0.555 0.568 0.608 108 97 101
-33.1495 9.2549 -45.3317 0.395 0.205 0.895 97 86 90
-31.3720 33.4041 -44.7857 0.059 -0.267 0.962 105 90 97
-31.3039 36.3441 -44.7974 0.916 -0.359 0.177 109 93 103
-31.3010 36.6131 -44.8002 0.887 -0.429 0.169 128 111 121
-31.0507 37.1394 -44.6768 0.811 -0.544 0.213 127 110 120
-30.9403 37.4028 -44.6228 0.966 -0.259 -0.013 127 110 120
-31.6528 39.0733 -45.0254 -0.011 0.154 0.988 126 106 118
-31.8110 39.3578 -45.1135 0.011 0.212 0.977 125 105 117
-32.1506 40.4828 -45.3107 0.163 0.489 0.857 117 97 109
-31.4914 42.9067 -45.0024 0.734 0.623 0.272 126 105 124
-31.1643 44.2552 -44.8518 0.053 -0.254 0.966 128 107 124
-31.2082 44.5381 -44.8796 0.048 -0.261 0.964 128 107 124
-31.0759 44.7996 -44.8141 0.049 -0.262 0.964 128 107 124
-30.4679 61.5786 -44.7652 0.510 -0.358 0.782 129 108 125
-34.4028 66.7325 -46.9228 0.410 0.566 0.715 112 91 108
-29.5215 68.4311 -44.3772 0.246 -0.386 0.889 95 75 84
-30.6218 69.4349 -44.9735 0.243 -0.258 0.935 94 73 82
-30.4814 70.2993 -44.9134 0.747 0.378 0.548 106 84 96
-30.5667 70.6374 -44.9639 0.657 0.440 0.613 97 75 87
-30.9567 72.0170 -45.1918 0.717 -0.105 0.690 105 82 99
-26.0406 90.3250 -42.8967 -0.041 0.057 0.998 115 92 110
-26.0252 101.7175 -43.0731 0.207 -0.567 0.797 106 85 102
-17.7515 110.9556 -38.8613 0.358 0.686 0.633 86 65 84
-21.0211 126.2079 -40.8317 0.569 -0.215 0.794 112 98 111
-21.1137 126.6543 -40.8877 0.548 -0.224 0.806 115 101 114
-21.1249 127.0191 -40.8995 0.548 -0.228 0.805 115 101 114
-21.5116 128.8363 -41.1328 0.196 -0.443 0.875 107 93 106
-22.4705 130.1852 -41.6601 0.148 -0.622 0.769 106 92 105
-18.8387 128.1727 -39.7130 0.539 -0.067 0.840 99 86 96
-16.9953 150.6526 -39.1053 0.824 0.222 0.521 89 80 97
-42.9015 -23.0216 -50.2518 0.791 -0.363 0.492 86 84 95
-42.8012 -22.7374 -50.2034 0.791 -0.363 0.492 85 83 96
-43.1757 -22.6767 -50.4029 0.582 -0.786 0.211 92 89 106
-42.6679 -22.2011 -50.1418 0.579 -0.790 0.200 108 103 125
-42.0713 -21.6859 -49.8342 0.579 -0.790 0.200 109 104 127
-43.0902 -21.9227 -50.3702 0.526 -0.226 0.820 109 104 127
-43.2608 -21.5242 -50.4674 0.642 -0.126 0.757 111 106 129
-16.3685 5.9421 -36.6752 0.975 -0.183 0.123 111 107 134
-35.1095 25.0658 -46.9303 0.343 0.465 0.816 87 76 82
-35.0219 25.3377 -46.8884 0.273 0.401 0.874 88 77 83
-30.9480 33.1406 -44.8603 0.078 -0.151 0.985 103 87 97
-31.1554 33.4087 -44.9748 0.088 -0.161 0.983 103 87 97
-30.3616 35.7804 -44.5939 0.778 0.398 0.485 105 89 99
-30.7991 36.6006 -44.8396 0.676 0.059 0.735 111 94 104
-30.9001 36.8739 -44.8977 0.727 -0.037 0.686 110 93 103
-30.8118 37.4072 -44.8599 0.901 0.166 0.400 110 93 103
-31.2952 37.7039 -45.1211 0.880 0.173 0.442 111 94 104
-31.4578 38.5278 -45.2211 0.159 0.450 0.879 114 97 107
-31.0324 42.8738 -45.0687 0.424 -0.225 0.877 125 103 124
-29.6938 47.1260 -44.4307 0.546 0.043 0.837 130 109 124
-91.4529 57.2583 -77.3359 0.918 -0.121 -0.378 133 112 127
-30.2088 61.2419 -44.9410 0.118 -0.102 0.988 122 101 120
-30.1126 61.5089 -44.8945 0.248 0.265 0.932 122 101 120
-28.5805 67.8346 -44.1888 0.277 -0.287 0.917 95 75 84
