ply
format ascii 1.0
element vertex 856
property float x
property float y
property float z
property float nx
property float ny
property float nz
property uchar diffuse_red
property uchar diffuse_green
property uchar diffuse_blue
end_header
-339.4201 52.1688 -6.3115 0.617 -0.729 0.298 76 64 66
-340.7654 54.0096 -6.1561 0.664 -0.147 0.733 74 62 64
-337.1143 56.9928 -5.6337 0.603 -0.772 0.198 66 55 51
-341.0394 64.2171 -4.9612 0.766 -0.612 -0.196 80 64 65
-340.3645 95.9781 -1.1722 0.871 -0.279 0.404 79 69 68
-340.7251 96.9613 -1.0726 0.884 -0.241 0.401 82 75 75
-341.1847 99.7004 -0.7699 0.921 0.127 -0.369 145 139 139
-340.5333 100.3160 -0.6668 0.864 -0.494 0.094 141 135 135
-339.9504 101.8165 -0.4622 0.740 -0.257 -0.622 143 137 137
-338.6973 120.6418 1.8232 0.622 -0.752 -0.220 125 117 114
-336.8562 121.6152 2.0238 0.773 0.288 0.565 125 118 112
-335.0630 125.2877 2.5416 0.414 -0.910 -0.014 73 64 59
-324.9648 138.4015 4.5619 0.904 0.107 0.413 62 51 50
-329.2361 149.9291 5.7274 0.661 -0.621 -0.423 86 75 73
-113.5166 -25.7201 -5.2337 0.841 -0.513 -0.170 78 76 79
-351.4756 3.5762 -13.3655 0.081 -0.969 -0.234 82 73 74
-342.7011 18.9445 -11.1351 0.518 -0.813 -0.265 68 56 60
-343.0715 19.6996 -11.0645 0.487 -0.847 -0.211 69 57 61
-348.9431 23.3240 -10.9246 0.937 0.237 0.257 104 89 92
-349.0121 24.0635 -10.8412 0.443 -0.872 -0.208 120 105 108
-347.1871 24.5484 -10.6955 0.429 -0.880 -0.206 117 105 107
-345.9748 25.1107 -10.5706 0.429 -0.880 -0.206 107 95 97
-346.9118 25.9694 -10.5154 0.494 -0.869 0.019 96 84 86
-347.5946 26.7975 -10.4514 0.802 0.366 0.472 96 84 88
-346.3754 27.3556 -10.3266 0.590 -0.806 -0.049 97 85 89
-345.4960 30.8952 -9.8684 1.000 0.020 -0.009 109 97 99
-345.5098 31.6347 -9.7823 1.000 0.020 -0.009 112 102 103
-342.4068 34.8164 -9.2580 0.709 -0.623 0.330 69 58 62
-340.7906 40.4584 -8.5172 0.958 0.131 0.254 106 97 98
-339.8167 41.0187 -8.4041 0.961 -0.152 0.231 113 104 105
-340.3194 42.6076 -8.2420 0.767 -0.242 0.594 102 93 94
-343.2811 46.2162 -7.9625 0.990 0.033 0.140 82 72 73
-337.5495 48.0444 -7.4693 0.616 -0.364 0.698 77 67 68
-340.0577 50.1010 -7.3498 0.648 -0.040 0.761 96 84 86
-341.2753 52.6671 -7.1079 0.684 -0.713 0.154 64 52 54
-341.8133 62.9240 -5.9302 0.766 -0.615 -0.188 103 89 88
-342.0491 63.7753 -5.8418 0.767 -0.612 -0.195 90 76 75
-340.4346 67.3116 -5.3482 0.685 0.056 -0.726 108 92 93
-340.5469 86.8795 -3.0571 0.965 0.233 0.120 145 135 134
-340.7792 87.7917 -2.9613 0.965 0.233 0.120 145 135 134
-335.8809 101.2197 -1.1471 0.503 -0.789 0.353 154 148 148
-349.8126 114.6607 -0.2470 0.843 -0.530 -0.091 86 76 66
-334.1999 133.1600 2.6834 0.598 -0.704 -0.384 104 95 86
-333.2134 152.2521 4.9721 0.693 -0.033 0.720 92 81 79
-256.0702 -71.9613 -18.0571 0.268 -0.961 0.068 145 159 159
-343.6592 -27.1026 -17.2857 0.900 -0.038 -0.434 73 64 69
-390.0993 -26.7562 -19.6053 0.849 -0.087 -0.521 74 68 70
-403.7008 -19.4524 -19.4462 0.848 0.150 0.509 86 77 80
-358.1018 16.4181 -12.9528 0.807 -0.233 -0.542 69 58 66
-345.2920 19.3196 -11.9640 0.875 0.288 0.389 74 62 66
-349.5524 23.4711 -11.6972 0.424 -0.886 -0.190 86 71 74
-348.7102 24.0909 -11.5823 0.420 -0.887 -0.190 104 89 92
-347.0779 24.6012 -11.4399 0.429 -0.880 -0.204 126 114 116
-345.8656 25.1633 -11.3129 0.429 -0.880 -0.204 116 104 106
-345.3421 25.8178 -11.2101 0.394 -0.912 0.114 88 76 78
-347.0319 26.7861 -11.1832 0.806 0.375 0.458 87 75 77
-345.3992 27.2833 -11.0423 0.618 -0.786 -0.027 88 76 78
-340.3705 33.0786 -10.1121 0.717 -0.615 0.327 61 50 54
-340.9038 33.8991 -10.0437 0.709 -0.619 0.339 62 53 56
-340.7071 39.0291 -9.4364 0.949 0.120 0.290 94 85 86
-340.5251 39.7384 -9.3446 0.940 0.201 0.276 100 91 92
-339.6323 41.0577 -9.1456 0.961 -0.152 0.231 98 89 90
-339.9711 42.6146 -8.9816 0.777 -0.223 0.589 89 80 81
-343.5707 57.9405 -7.3802 0.961 -0.224 0.164 105 94 92
-343.1512 60.1938 -7.0966 0.955 -0.291 0.057 117 106 102
-333.1257 74.8402 -4.8819 0.701 -0.190 0.688 101 86 83
-339.4077 87.4273 -3.7358 0.963 0.217 0.157 151 141 140
-338.5473 98.0688 -2.4531 0.839 -0.334 0.429 74 68 68
-341.3051 113.0620 -0.8477 0.177 -0.928 0.326 99 87 75
-333.0115 152.2722 4.1387 0.688 -0.041 0.725 99 88 86
-331.2341 160.8672 5.2297 0.781 -0.583 -0.224 96 87 88
-267.4764 -67.1742 -18.5741 0.232 -0.952 -0.200 76 83 89
-376.9088 -4.2073 -17.1045 0.340 -0.710 -0.616 77 68 73
-366.3206 -0.3508 -16.0978 0.642 -0.365 -0.674 80 74 78
-333.4424 3.7519 -13.8810 0.517 -0.476 0.711 75 66 67
-353.6679 11.6750 -14.0383 0.610 -0.792 0.017 58 49 54
-355.1377 12.5354 -14.0169 0.834 0.468 0.293 100 90 98
-353.6458 17.4622 -13.3688 0.501 -0.731 -0.463 71 59 69
-347.9656 22.6027 -12.4741 0.934 0.262 0.241 75 60 63
-339.6409 44.8726 -9.4611 0.457 -0.548 0.701 78 68 69
-336.8036 56.3932 -7.9803 0.674 0.188 0.714 104 93 91
-337.1508 60.3365 -7.5433 0.895 -0.261 0.360 111 100 96
-336.1316 83.1366 -4.8564 0.890 0.216 0.402 68 58 57
-337.4949 84.4037 -4.7823 0.888 0.205 0.412 80 70 69
-337.1266 98.4925 -3.1359 0.307 -0.830 0.466 36 30 30
-331.9521 160.4527 4.2935 0.819 -0.573 0.029 91 82 83
-400.8676 -3.8994 -19.1871 0.716 -0.462 -0.524 78 72 74
-375.0350 -2.0232 -17.5459 0.269 -0.701 -0.661 60 54 58
-367.8741 3.4414 -16.5247 0.973 -0.153 0.173 98 89 90
-353.5764 11.7292 -14.7860 0.610 -0.792 0.017 60 51 56
-354.8987 12.5758 -14.7621 0.834 0.468 0.293 107 98 103
-349.1671 20.6412 -13.5219 0.906 0.266 0.329 73 61 65
-339.8021 33.1256 -11.5749 0.914 -0.013 0.406 115 104 108
-339.8286 33.8608 -11.4922 0.914 -0.013 0.406 109 98 102
-333.1542 40.6992 -10.3405 0.951 0.012 0.309 70 61 62
-339.7494 64.2195 -8.0108 0.896 -0.198 0.397 108 92 93
-337.9776 65.3240 -7.7865 0.898 -0.171 0.406 98 82 83
-342.0575 68.0158 -7.7034 1.000 -0.025 -0.015 135 119 120
-343.5399 73.2725 -7.1832 0.776 -0.187 -0.603 129 113 114
-338.0327 80.5725 -6.0431 0.686 0.408 0.603 123 108 105
-338.1251 84.7064 -5.5747 0.888 0.203 0.413 73 63 62
-337.5088 92.8186 -4.6116 0.868 -0.275 0.413 130 120 119
-347.7557 115.0584 -2.6302 0.077 -0.905 0.419 102 90 78
-336.8975 135.7688 0.3414 0.627 -0.620 -0.471 111 102 93
-331.7756 158.5532 3.2337 0.901 0.348 0.260 72 62 61
-326.7989 158.5511 3.5082 0.867 -0.496 -0.037 83 74 75
-328.7405 160.6467 3.6410 0.851 -0.519 -0.078 85 76 77
-247.0267 -69.5237 -18.6571 0.910 0.273 0.314 144 158 158
-176.8624 -46.6684 -12.0327 0.560 -0.151 -0.815 115 120 126
-211.9550 -49.5407 -14.3738 0.328 -0.285 0.901 71 78 86
-375.3125 1.0132 -18.0105 0.726 -0.684 -0.067 68 62 64
-356.1291 10.5863 -15.8217 0.235 -0.950 0.207 83 74 79
-356.4884 11.3419 -15.7565 0.276 -0.896 0.347 97 86 92
-354.6599 12.6161 -15.5068 0.834 0.468 0.293 100 91 96
-348.9088 20.6757 -14.2612 0.906 0.266 0.329 73 61 63
-352.9326 23.3794 -14.1851 0.879 0.120 0.462 71 59 61
-346.3777 44.8587 -11.3690 0.970 -0.019 0.244 69 59 60
-337.4170 43.8271 -10.9717 0.946 -0.023 0.322 78 68 69
-341.9409 68.8725 -8.3866 0.461 0.088 0.883 117 101 102
-337.1460 92.7888 -5.3948 0.868 -0.275 0.413 107 97 96
-358.9668 -0.5845 -18.0134 0.790 -0.056 -0.610 65 59 61
-368.2318 0.6629 -18.4252 0.960 -0.274 0.066 65 59 61
-369.9790 3.7043 -18.1868 0.995 -0.088 -0.043 80 74 76
-355.4746 10.5900 -16.5465 0.235 -0.950 0.207 68 57 61
-353.9923 11.8942 -16.3113 0.276 -0.896 0.347 75 64 68
-350.7671 21.7011 -15.0144 0.824 0.401 0.401 86 76 77
-338.5272 38.9208 -12.3451 0.971 0.058 0.233 80 70 69
-340.8728 69.4658 -9.0444 0.295 0.002 0.956 88 72 73
-348.8928 110.3360 -4.9189 0.710 0.118 -0.694 135 130 127
-324.2234 -80.1281 -25.5105 0.248 -0.940 -0.234 163 177 179
-220.9960 -48.8452 -15.6353 0.343 0.325 0.881 113 118 122
-348.6613 -40.8500 -22.6341 0.856 -0.003 0.517 69 63 65
-388.7551 -9.5112 -21.6122 0.792 0.114 0.599 64 62 64
-362.5833 3.9951 -18.4858 0.995 0.102 0.014 80 74 76
-359.5054 10.2875 -17.5928 0.566 -0.612 -0.552 58 47 51
-353.1501 11.8775 -17.0223 0.276 -0.896 0.347 75 64 68
-344.6256 17.4236 -15.8759 0.860 0.295 0.416 76 64 68
-344.9129 18.1694 -15.8104 0.860 0.295 0.416 75 63 67
-348.9659 20.8151 -15.7654 0.879 0.221 0.423 79 69 70
-350.8440 22.5103 -15.6922 0.604 0.158 0.781 75 66 67
-340.4509 34.1782 -13.7465 0.822 0.296 0.486 80 70 69
-339.7495 93.0701 -7.1254 0.897 -0.206 0.390 129 119 118
-351.7811 113.4089 -5.5974 0.108 -0.823 0.558 140 135 132
-334.5860 132.2416 -2.4310 0.887 0.438 -0.147 106 95 87
-335.9554 133.8258 -2.3387 0.856 0.489 -0.169 102 92 83
-300.3855 163.1967 3.1406 0.634 -0.758 -0.154 85 75 74
-400.6350 -9.1275 -23.1483 0.903 0.333 0.273 64 62 63
-400.2381 -8.3616 -23.0380 0.898 0.183 0.399 64 62 63
-381.0235 2.2886 -20.6285 0.038 -0.962 0.271 70 64 66
-329.3849 3.7278 -17.1632 0.947 -0.141 0.290 76 70 72
-362.1585 16.5041 -17.8465 0.980 -0.183 0.084 80 68 70
-364.3789 17.4896 -17.8795 0.705 -0.616 -0.351 80 68 70
-346.3737 19.1221 -16.5460 0.941 0.273 0.202 74 64 65
-351.0020 21.1326 -16.6196 0.601 0.153 0.784 96 87 88
-334.8437 41.3199 -13.3496 0.978 0.159 0.138 75 65 64
-333.2251 84.2831 -8.4880 0.915 -0.399 -0.062 81 71 70
-333.7345 91.8696 -7.6805 0.880 -0.242 0.409 129 118 116
-339.4470 109.4266 -6.1018 0.268 -0.803 0.533 97 89 87
-337.0766 109.3368 -5.9600 0.212 -0.784 0.583 99 91 88
-331.0477 118.1542 -4.5976 0.975 0.093 -0.200 49 37 37
-335.0082 131.6512 -3.3564 0.569 -0.127 0.812 112 97 90
-327.0594 149.7627 -0.8418 0.891 -0.018 -0.454 101 90 86
-323.1927 168.4806 1.4787 0.917 0.126 -0.379 94 84 82
-323.8248 169.8489 1.5898 0.913 0.122 -0.390 98 88 86
-405.3824 -8.9360 -24.2866 0.803 0.079 0.590 75 73 74
-401.7245 -5.9082 -23.7119 0.806 -0.287 0.518 66 64 65
-351.4479 0.5538 -19.6729 0.008 -0.987 0.163 71 65 67
-384.6302 13.4224 -20.4575 0.048 -0.933 0.357 71 60 64
-359.9661 17.8223 -18.3410 0.706 -0.560 -0.432 78 66 68
-357.2397 18.2596 -18.1124 0.721 -0.552 -0.419 75 63 65
-350.2598 21.1076 -17.3375 0.851 0.347 0.393 87 78 79
-337.6891 32.4004 -15.2651 0.847 0.369 0.384 81 69 69
-340.1241 34.2653 -15.2216 0.823 0.305 0.479 81 69 69
-334.9846 45.1227 -13.6891 0.930 -0.052 0.365 72 60 62
-332.9183 85.0912 -9.1639 0.915 -0.399 -0.062 96 86 85
-345.7022 109.3973 -7.3418 0.465 0.103 0.879 95 87 85
-342.0509 108.8254 -7.1628 0.478 0.070 0.876 86 78 76
-328.6920 155.5407 -1.1489 0.669 -0.725 -0.163 98 87 85
-352.6011 -0.0158 -20.5600 -0.008 -0.995 0.098 75 69 71
-367.0326 11.1449 -20.3327 0.094 -0.962 0.255 79 68 72
-354.2758 13.6203 -19.1903 0.025 -0.928 0.371 75 64 68
-353.6014 14.2770 -19.0727 0.243 -0.863 0.443 71 59 61
-345.8063 14.9014 -18.4713 0.915 -0.214 -0.340 84 72 74
-345.6119 15.5910 -18.3830 0.915 -0.214 -0.340 94 82 82
-355.9293 17.4428 -18.8874 0.746 -0.629 -0.221 96 84 86
-348.6255 17.3550 -18.3972 0.685 -0.672 -0.281 89 77 79
-347.7074 20.8582 -17.9530 0.789 -0.507 -0.348 58 49 50
-345.9298 28.6455 -16.9838 0.734 0.368 0.571 88 78 77
-335.2802 47.5003 -14.2027 0.878 -0.067 0.473 76 64 66
-334.0982 83.1299 -10.2436 0.910 -0.414 -0.021 106 96 95
-333.7735 83.8385 -10.1443 0.910 -0.414 -0.021 102 92 91
-333.4488 84.5470 -10.0449 0.910 -0.414 -0.021 98 88 87
-333.1241 85.2555 -9.9456 0.910 -0.414 -0.021 89 79 78
-332.1729 123.3207 -5.7372 0.965 0.181 0.190 112 99 93
-338.5190 128.9818 -5.5553 0.808 0.359 0.468 134 121 115
-331.8593 126.7582 -5.3416 0.923 0.382 0.039 125 112 106
-336.4647 131.6764 -5.1214 0.919 -0.322 0.229 101 86 79
-396.6136 -0.5095 -24.4708 0.182 -0.916 0.356 121 115 117
-337.0110 0.4529 -20.1568 0.017 -0.985 0.171 80 74 76
-345.8718 15.6827 -19.1394 0.915 -0.214 -0.340 105 93 95
-355.4582 17.4564 -19.6252 0.752 -0.617 -0.231 107 95 97
-348.8498 17.4451 -19.1596 0.685 -0.672 -0.281 95 83 85
-355.4334 18.9246 -19.4650 0.155 -0.887 -0.435 88 73 76
-347.4469 20.1684 -18.7667 0.844 0.344 0.412 66 56 57
-347.8991 20.9482 -18.7145 0.794 -0.499 -0.349 66 57 58
-350.6436 26.4415 -18.3156 0.852 0.173 0.494 107 99 97
-338.0099 29.6961 -17.0720 0.341 -0.935 -0.093 90 80 79
-387.4406 38.2192 -19.6441 0.892 0.247 0.379 90 80 79
-337.5752 45.0595 -15.3837 0.946 -0.298 0.127 88 76 78
-335.8153 45.4456 -15.2177 0.942 -0.001 0.335 82 70 72
-336.4634 47.8301 -15.0062 0.550 -0.713 0.436 68 56 58
-339.3584 56.8881 -14.2333 0.519 -0.375 0.768 74 62 62
-327.8280 65.4828 -12.4915 0.798 -0.543 0.260 141 127 126
-334.9231 79.4258 -11.4882 0.976 0.159 0.150 99 85 84
-333.5504 79.7993 -11.3510 0.975 0.164 0.148 107 93 92
-335.8903 82.9938 -11.1716 0.997 -0.045 -0.069 109 99 98
-337.8399 128.7824 -6.3688 0.697 0.456 0.553 129 116 110
-338.7973 130.1504 -6.2888 0.697 0.456 0.553 144 131 125
-330.1284 154.7134 -3.0262 0.951 -0.280 -0.132 110 99 97
-409.2156 -9.4384 -27.1895 -0.045 -0.729 0.683 71 67 68
-368.7710 -6.1961 -23.8965 0.208 -0.464 0.861 145 143 144
-349.4969 15.4209 -20.1805 0.987 -0.015 -0.160 106 94 96
-346.1323 15.7746 -19.8976 0.915 -0.214 -0.340 109 97 99
-349.9155 16.9075 -20.0521 0.657 -0.712 -0.246 108 96 98
-355.4053 32.4741 -18.7871 0.896 0.304 0.323 86 76 75
-337.5846 45.1373 -16.1347 0.931 -0.323 0.169 88 76 78
-335.1816 48.3829 -15.6125 0.550 -0.714 0.433 72 60 62
-326.3923 47.2101 -15.0977 0.902 -0.202 0.381 77 65 67
-334.6381 51.2753 -15.2636 0.700 -0.107 0.706 87 75 77
-328.4846 83.0766 -11.4142 0.948 0.112 0.299 96 86 85
-336.6630 130.1770 -6.9727 0.700 0.445 0.558 133 120 114
-330.0045 149.0815 -4.4658 0.422 -0.765 0.486 102 89 83
-318.0891 152.6556 -3.2156 0.720 -0.666 -0.197 78 64 63
-371.0907 -6.7728 -24.9110 0.220 -0.451 0.865 137 133 134
-366.3613 -6.2313 -24.4987 0.208 -0.464 0.861 146 142 143
-353.3854 13.7229 -21.4096 0.160 -0.885 0.438 111 100 104
-346.3934 15.8667 -20.6576 0.915 -0.214 -0.340 117 106 110
-349.7980 16.9592 -20.7973 0.720 -0.661 -0.214 112 101 105
-350.6992 17.7843 -20.7775 0.653 -0.721 -0.233 95 84 88
-337.8623 46.0216 -16.8210 0.993 0.062 -0.101 75 63 65
-328.1820 127.1551 -7.4944 0.871 -0.379 0.311 147 134 128
-327.8902 127.9092 -7.3926 0.871 -0.379 0.311 138 123 116
-325.0985 134.6192 -6.4718 0.852 -0.438 0.288 128 115 109
-328.9546 143.0300 -5.8697 0.909 -0.407 -0.090 99 86 80
-356.8591 -13.4293 -25.2950 0.372 -0.796 -0.477 71 65 65
-367.0313 -10.4215 -25.7650 -0.046 -0.761 0.647 66 60 62
-361.4989 -6.3620 -24.9111 0.626 0.135 0.768 75 69 71
-341.8939 14.7362 -21.1800 0.990 -0.019 -0.137 73 62 66
-348.5711 16.8874 -21.4699 0.770 -0.634 -0.075 75 64 68
-349.1669 17.6756 -21.4331 0.656 -0.722 -0.221 79 68 74
-356.0785 19.1987 -21.8072 0.205 -0.961 -0.186 76 65 69
-354.6695 19.7724 -21.6381 0.110 -0.937 -0.332 73 62 66
-349.8273 24.3205 -20.7861 0.995 -0.009 0.095 93 84 85
-334.0102 37.2063 -18.2104 0.777 0.356 0.519 72 62 61
-333.7191 48.2199 -17.0310 0.553 -0.710 0.437 71 59 61
-339.8989 53.3944 -16.9649 0.673 -0.465 0.575 75 65 66
-330.1975 67.1729 -14.7679 0.860 -0.186 0.475 82 68 67
-330.0842 67.9190 -14.6808 0.860 -0.186 0.475 82 69 68
-329.9709 68.6659 -14.5936 0.860 -0.186 0.475 83 72 70
-329.8092 69.3999 -14.5040 0.826 -0.240 0.510 85 75 73
-325.8569 88.8231 -12.1582 0.945 -0.266 0.190 90 79 77
-328.8927 129.4088 -8.1294 0.908 -0.419 -0.004 117 102 95
-317.3355 153.4064 -4.7155 0.716 -0.671 -0.194 102 88 87
-327.4744 166.1148 -4.1639 0.626 -0.758 -0.183 119 108 106
-255.9571 -71.7395 -24.0923 0.206 -0.939 0.276 138 149 151
-348.6641 -1.3401 -24.1322 -0.049 -0.929 0.367 89 80 83
-351.0678 4.3753 -23.7283 0.491 -0.871 0.007 88 79 80
-341.8024 15.4925 -21.8346 0.852 -0.225 -0.472 69 58 62
-353.4279 18.2252 -22.4741 0.751 -0.651 -0.108 61 52 57
-345.4012 25.9818 -21.0287 0.994 0.071 -0.083 86 77 78
-348.3358 27.8709 -21.0653 0.997 0.024 -0.067 82 72 73
-348.3485 28.6131 -20.9891 0.997 0.024 -0.067 82 72 73
-348.5326 29.3824 -20.9236 0.785 -0.319 0.531 82 72 73
-333.5092 60.4037 -16.5004 0.690 -0.314 0.651 98 86 86
-334.3097 61.3827 -16.4621 0.670 -0.362 0.647 103 91 91
-329.1789 67.7481 -15.3917 0.863 -0.077 0.500 72 61 59
-329.5700 68.6376 -15.3302 0.860 -0.186 0.475 77 66 64
-328.0357 89.6960 -13.0162 0.831 -0.433 0.350 75 63 63
-326.7626 90.8737 -12.7924 0.953 -0.241 0.184 81 69 69
-329.0092 111.0718 -10.8684 0.874 -0.032 0.484 115 107 103
-329.5935 151.1365 -6.7443 0.878 -0.417 -0.236 94 83 78
-329.2147 151.8739 -6.6374 0.878 -0.417 -0.236 94 83 79
-327.8438 154.9024 -6.2132 0.957 -0.250 -0.145 98 87 85
-327.1193 155.4406 -6.0996 0.815 -0.543 0.204 111 100 98
-326.4734 157.9299 -5.7892 0.947 -0.282 -0.154 111 97 96
-336.3205 167.6294 -5.5621 0.340 -0.934 -0.113 99 85 84
-320.8619 176.7993 -3.3789 0.808 -0.388 -0.442 96 82 81
-294.6581 -46.2016 -25.0883 0.553 -0.826 0.111 54 48 48
-320.1214 -11.5570 -23.5951 -0.009 -0.704 0.710 66 60 62
-333.6877 -7.3328 -24.2676 0.146 -0.863 0.484 73 67 69
-349.1312 10.6350 -23.6759 0.881 0.032 -0.472 47 41 43
-352.0356 11.6194 -23.8117 0.915 -0.004 -0.404 61 55 57
-325.3740 12.4225 -21.5508 0.793 -0.557 -0.246 68 59 62
-337.8718 30.7425 -20.6822 0.959 -0.169 0.228 91 80 84
-349.4123 34.0806 -21.2806 0.864 0.338 0.373 82 72 73
-333.1013 59.6120 -17.3147 0.690 -0.314 0.651 92 81 79
-332.5498 60.2403 -17.2049 0.689 -0.321 0.650 93 82 80
-332.3189 61.7213 -17.0333 0.685 -0.270 0.676 92 82 81
-327.7652 71.3190 -15.6713 0.954 -0.069 0.291 62 54 52
-340.4259 79.9857 -15.8117 0.875 0.127 0.467 90 80 79
-327.2399 91.1440 -13.5836 0.954 -0.241 0.179 110 95 98
-332.7648 146.3720 -8.3385 0.473 -0.744 -0.472 100 87 78
-324.7387 146.7121 -7.6478 0.931 0.021 0.363 108 95 86
-324.9872 147.7793 -7.5580 0.931 0.015 0.364 109 96 87
-356.4999 2.7507 -25.8535 0.731 -0.297 -0.615 79 70 71
-356.5041 4.8902 -25.6353 0.508 -0.856 0.095 77 68 69
-378.2881 10.3010 -26.9101 -0.020 -0.889 0.458 69 60 61
-365.1072 11.4254 -25.6893 0.439 -0.764 0.473 50 44 46
-362.9059 11.9670 -25.4492 0.462 -0.746 0.480 49 43 45
-322.0250 10.1580 -22.2039 0.867 0.018 -0.498 55 49 49
-335.7923 17.0393 -22.6559 0.763 -0.471 -0.443 63 57 61
-347.2399 19.0922 -23.4066 0.912 -0.310 -0.270 71 62 67
-359.3071 22.0226 -24.1197 0.774 -0.567 -0.281 81 70 74
-352.9888 22.7230 -23.5179 0.167 -0.889 0.426 84 74 75
-339.6434 52.0381 -19.4024 0.612 -0.352 0.709 83 74 75
-335.3675 61.8239 -18.0436 0.698 -0.243 0.674 87 76 74
-339.6591 65.3096 -18.0475 0.668 -0.381 0.640 77 67 68
-328.2372 71.5467 -16.4518 0.923 -0.132 0.360 62 54 52
-335.7070 79.4168 -16.2743 0.889 -0.264 -0.374 86 76 75
-330.8796 100.9384 -13.6699 0.948 0.087 0.308 84 75 76
-339.5639 128.4682 -11.5853 0.748 0.188 -0.636 118 107 105
-324.9724 146.0390 -8.5654 0.901 -0.336 -0.274 116 103 94
-324.4561 147.6146 -8.3610 0.936 0.023 0.353 116 103 94
-329.3828 152.2305 -8.3027 0.883 -0.413 -0.224 101 87 84
-325.8985 154.0583 -7.8236 0.822 -0.531 0.205 95 81 80
-325.4709 154.7613 -7.7158 0.822 -0.531 0.205 89 75 74
-382.3073 7.6055 -28.3475 0.851 0.406 0.334 67 58 59
-333.5803 16.8444 -23.2157 0.773 -0.451 -0.446 65 56 61
-349.5591 20.1610 -24.2561 0.844 -0.352 -0.404 74 65 68
-337.4653 25.0667 -22.7179 0.789 0.002 0.614 87 77 78
-337.2091 27.8925 -22.4097 0.968 -0.187 0.168 67 56 60
-342.0390 31.5452 -22.4559 0.958 -0.286 0.030 88 77 81
-334.4396 79.1098 -16.9861 0.786 -0.155 0.599 81 71 70
-333.7277 120.4837 -12.7361 0.749 -0.110 -0.653 122 115 109
-323.0299 146.0291 -9.2286 0.946 0.004 0.323 105 92 83
-324.2094 148.5383 -9.0762 0.936 0.023 0.353 90 77 72
-116.1053 -34.2742 -9.8565 0.758 -0.596 0.265 78 87 86
-334.9962 0.1041 -25.7455 0.719 -0.202 -0.665 75 66 69
-334.3427 0.7261 -25.6254 0.721 -0.167 -0.673 63 54 55
-340.8062 1.8218 -26.0865 0.929 0.191 -0.317 62 53 54
-359.8657 5.2572 -27.4257 0.522 -0.842 0.133 63 54 55
-387.5027 8.0624 -29.5858 0.919 0.176 0.354 65 56 57
-370.6579 7.5414 -28.1500 0.870 0.055 0.489 65 56 57
-371.5711 8.3633 -28.1482 0.850 0.013 0.526 65 56 57
-349.8894 20.2673 -25.0391 0.844 -0.352 -0.404 69 60 64
-321.1669 46.5856 -19.8624 0.850 -0.241 0.468 84 74 75
-327.8690 57.7693 -19.3329 0.961 0.128 0.245 72 61 59
-327.6173 59.9779 -19.0892 0.614 -0.625 0.482 82 71 69
-329.4402 72.0802 -18.0366 0.973 0.026 0.231 96 88 86
-325.2904 109.9203 -13.8752 0.817 -0.576 -0.024 92 83 76
-334.4286 125.4075 -13.1293 0.778 0.391 -0.491 46 35 33
-326.4915 146.1917 -10.3438 0.492 -0.731 -0.472 93 80 71
-316.4918 142.5614 -9.8245 0.898 -0.389 -0.204 91 78 69
-322.8795 146.9998 -9.9437 0.794 -0.591 -0.142 91 78 70
-317.2907 165.3623 -7.6085 0.837 -0.178 -0.517 126 112 111
-112.1335 -40.3538 -10.2958 0.204 -0.809 0.551 141 155 156
-364.9807 -5.1712 -29.6983 0.048 -0.999 0.019 75 69 71
-357.6253 14.6013 -27.0682 0.155 -0.381 0.911 61 55 57
-366.1522 20.7776 -27.2269 0.310 -0.628 -0.714 69 59 67
-367.5719 22.4797 -27.1864 0.372 -0.540 -0.755 69 60 65
-337.7077 25.9498 -24.1373 0.713 -0.041 0.700 70 59 63
-327.9308 147.1029 -11.2177 0.861 -0.505 0.054 101 88 79
-326.5301 147.2744 -11.0738 0.479 -0.735 -0.480 97 84 75
-322.3021 147.7351 -10.6452 0.881 0.013 0.472 93 79 75
-354.6663 15.0951 -27.5231 0.176 -0.270 0.947 67 58 61
-336.3088 27.2443 -24.6247 0.801 0.076 0.594 73 62 66
-333.9926 27.6113 -24.3738 0.832 0.127 0.540 79 68 72
-336.6872 28.7364 -24.5131 0.665 -0.562 0.492 81 70 74
-332.5054 38.8908 -23.1262 0.851 -0.515 0.106 128 118 117
-337.6600 81.2260 -19.4396 0.834 -0.129 0.536 94 84 83
-323.8020 132.2243 -13.1369 0.630 -0.733 -0.257 100 83 76
-325.2307 134.7501 -13.0210 0.987 0.076 0.143 101 88 79
-324.1756 157.3952 -10.6954 0.978 -0.137 -0.158 96 80 80
-323.3441 168.4555 -9.5301 0.860 -0.228 -0.457 104 90 89
-368.4875 -1.2793 -31.2036 0.515 -0.369 0.773 72 62 63
-346.8003 22.2680 -26.8494 0.037 -0.899 0.437 78 68 67
-328.5519 32.4960 -24.1194 0.865 -0.492 0.098 88 78 77
-332.3847 38.9405 -23.8557 0.851 -0.515 0.106 116 106 105
-330.9522 90.5946 -18.6874 0.688 -0.599 0.410 116 101 106
-331.2163 118.9248 -15.9526 0.610 -0.792 0.042 115 108 102
-325.6971 131.4924 -14.2039 0.162 -0.950 -0.266 108 91 84
-323.4498 133.0652 -13.8372 0.994 0.038 0.104 107 91 84
-327.1720 156.4059 -11.9169 0.932 -0.218 -0.289 88 74 73
-324.5595 157.7543 -11.5374 0.935 -0.348 0.062 106 92 91
-353.7573 2.9237 -30.1539 0.354 -0.679 0.643 66 56 55
-347.9142 7.4227 -29.1519 0.718 -0.637 0.279 48 38 37
-335.6931 28.0035 -25.9784 0.843 0.116 0.525 79 69 70
-343.6523 29.9428 -26.5651 0.809 0.102 0.579 78 68 69
-343.7901 30.7008 -26.5054 0.809 0.102 0.579 80 70 71
-330.9416 39.4687 -24.4105 0.834 -0.539 0.118 97 85 85
-325.0067 134.8788 -14.6298 0.987 0.076 0.143 98 85 76
-328.5988 147.8534 -13.7274 0.900 -0.384 -0.204 97 84 75
-325.8033 155.7510 -12.6938 0.916 0.040 0.398 95 81 80
-324.1874 158.6254 -12.2594 0.935 -0.348 0.062 114 100 99
-351.7737 3.5527 -30.6562 0.401 -0.671 0.623 66 56 57
-347.8137 7.4748 -29.8878 0.672 -0.694 0.257 60 50 51
-346.4849 9.4726 -29.5648 0.512 -0.858 0.049 47 38 41
-339.3212 9.5233 -28.8476 0.566 -0.807 0.169 52 43 46
-346.4809 12.3002 -29.2943 0.047 -0.996 0.075 67 58 61
-342.6746 12.6294 -28.8844 0.018 -0.999 0.048 73 64 65
-348.0056 16.7499 -29.0210 0.003 -0.382 0.924 93 83 81
-356.0356 18.3809 -29.6637 -0.006 -0.413 0.911 93 83 81
-333.2234 24.8636 -26.7760 0.642 -0.761 0.089 77 69 66
-326.4055 155.2781 -13.6424 0.973 -0.207 -0.099 65 51 48
-325.7365 157.7557 -13.3392 0.957 -0.243 -0.157 71 60 58
-112.3111 -40.5144 -11.2331 0.830 -0.242 -0.503 114 128 129
-353.0752 2.9962 -31.5973 0.394 -0.652 0.648 66 56 55
-367.7493 6.2106 -32.7852 0.061 -0.680 0.730 65 55 54
-372.9881 7.3532 -33.2098 0.199 -0.647 0.736 62 52 51
-347.0441 7.4715 -30.5609 0.588 -0.773 0.239 74 64 63
-346.5923 8.1359 -30.4522 0.495 -0.688 0.531 82 73 74
-346.1963 9.5080 -30.2822 0.684 -0.604 0.410 70 61 62
-336.5591 55.8119 -24.9243 0.903 -0.376 0.205 77 65 67
-339.3219 57.2510 -25.0691 0.962 -0.089 0.257 77 65 67
-340.5274 58.3249 -25.0901 0.990 0.141 0.009 78 66 68
-341.0006 59.2257 -25.0531 0.992 0.130 -0.010 73 63 64
-340.8946 59.9861 -24.9704 0.995 0.059 0.081 76 66 67
-340.0092 60.5514 -24.8269 0.996 0.008 -0.083 77 67 68
-328.4306 69.1748 -22.8344 0.868 -0.441 0.227 110 101 100
-326.9318 119.9734 -17.8789 0.972 0.003 -0.235 110 99 95
-327.5228 146.5867 -15.4227 0.763 -0.588 0.267 99 88 82
-327.3750 147.4435 -15.3266 0.762 -0.581 0.287 93 82 76
-322.7981 150.5232 -14.5701 0.948 -0.283 -0.149 83 69 66
-326.5034 155.4677 -14.4793 0.957 -0.243 -0.157 71 57 54
-330.8119 171.6893 -13.3836 0.953 0.132 -0.272 97 87 85
-344.7629 3.8701 -31.4108 0.923 0.013 0.385 66 56 55
-346.4545 6.7823 -31.3140 0.937 0.128 0.325 76 66 65
-346.3005 8.1716 -31.1680 0.665 -0.627 0.405 96 88 86
-347.6852 8.9954 -31.2347 0.766 -0.632 0.117 100 92 90
-347.1592 9.6553 -31.1183 0.766 -0.632 0.117 98 89 90
-346.6529 10.3161 -31.0039 0.755 -0.652 0.072 96 87 88
-350.6549 17.9023 -30.7096 0.093 -0.363 0.927 82 72 71
-323.7358 55.7921 -24.3666 0.763 -0.339 0.550 88 78 79
-323.5054 134.4772 -16.9782 0.688 -0.691 -0.221 83 69 60
-323.6231 135.4419 -16.9002 0.915 -0.336 -0.222 83 69 58
-327.5641 146.7377 -16.2524 0.762 -0.581 0.287 95 84 78
-345.8530 8.1940 -31.8677 0.665 -0.627 0.405 95 87 85
-358.2988 12.1812 -32.8191 0.067 -0.996 -0.063 98 89 90
-330.9448 39.0310 -27.4290 0.984 -0.058 -0.169 86 74 74
-327.8251 59.1660 -25.2327 0.392 -0.793 0.466 87 77 78
-325.9124 60.1881 -24.9350 0.589 -0.740 0.325 75 65 66
-322.8424 134.2597 -17.7475 0.906 -0.359 -0.225 86 72 63
-323.7523 135.6300 -17.7171 0.915 -0.336 -0.222 87 73 62
-326.3770 155.6623 -16.1400 0.976 0.052 -0.213 111 97 94
-349.7507 5.0529 -33.3267 0.001 -0.800 0.600 66 56 57
-345.4946 8.2238 -32.5748 0.628 -0.664 0.405 97 87 88
-339.0248 17.4107 -31.0316 0.312 -0.482 0.819 74 64 63
-348.5981 28.0735 -31.0913 0.364 -0.723 -0.587 82 72 71
-340.3716 40.8899 -29.0250 0.963 -0.025 -0.270 83 71 71
-326.7867 60.4993 -25.7553 0.491 -0.850 -0.193 63 53 54
-324.7759 133.5563 -18.8398 0.923 -0.350 0.162 71 56 49
-324.6766 134.4112 -18.7506 0.948 -0.300 0.110 70 55 48
-324.0410 135.9002 -18.5453 0.955 -0.298 -0.004 88 74 63
-314.6652 171.6805 -14.2491 0.902 -0.431 0.020 91 77 76
-346.4970 4.8686 -33.7385 -0.003 -0.812 0.584 67 57 57
-333.0672 38.8455 -29.1710 0.883 0.285 0.373 83 71 71
-347.8192 45.4637 -30.2019 0.972 -0.093 -0.216 76 62 62
-324.3257 135.2604 -19.4578 0.948 -0.300 0.110 101 87 78
-324.7184 136.3708 -19.4005 0.951 -0.292 0.102 102 88 77
-213.2747 -32.1842 -22.7831 0.374 -0.739 -0.560 66 56 54
-343.2255 43.1007 -30.6855 0.874 0.350 0.338 86 72 71
-343.9149 71.6501 -28.2008 0.912 -0.260 0.319 83 69 69
-328.1484 107.1652 -23.2343 0.754 -0.485 0.443 97 88 83
-325.7021 129.7494 -20.9312 0.948 -0.120 -0.295 117 102 95
-324.2120 135.3240 -20.2627 0.948 -0.300 0.110 98 84 75
-324.8712 136.5719 -20.2251 0.909 -0.332 -0.251 104 90 79
-326.8011 143.1045 -19.8564 0.733 -0.466 0.496 127 113 104
-325.5508 162.3129 -17.9913 0.962 0.185 0.201 82 75 69
-318.0615 158.7758 -17.4639 0.998 0.025 0.060 81 74 68
-386.3462 -30.2220 -42.9350 0.646 -0.508 -0.569 67 56 52
-415.4839 -20.9074 -45.4600 0.927 0.273 -0.257 82 69 63
-357.6911 12.3805 -35.8553 0.072 -0.997 -0.007 96 86 82
-315.8898 14.2436 -30.8809 0.258 -0.765 0.590 81 71 70
-344.3686 23.2809 -33.3547 0.479 -0.552 -0.683 84 77 71
-341.7567 42.1334 -31.3801 0.794 0.276 0.542 87 76 74
-327.9120 43.1028 -29.7013 0.893 0.249 0.375 74 63 61
-328.7163 63.5609 -27.9772 0.629 -0.735 0.255 76 62 62
-331.0568 84.9218 -26.3496 0.742 -0.096 0.664 84 73 72
-326.0938 103.8755 -24.0956 0.883 0.260 -0.391 83 73 68
-324.9300 130.3866 -21.6075 0.932 -0.347 0.107 112 97 90
-326.3399 142.9850 -20.6510 0.733 -0.466 0.496 122 108 99
-316.5823 159.9084 -18.0257 0.889 -0.044 -0.456 82 72 66
-112.0817 -39.9781 -12.4307 0.465 -0.597 0.654 152 164 164
-385.8987 -30.1585 -43.6809 0.644 -0.513 -0.567 68 57 53
-334.1515 4.7859 -34.5426 0.037 -0.811 0.583 84 73 67
-346.0771 13.4724 -35.1782 0.114 -0.976 0.187 85 71 67
-336.2357 16.6399 -33.7458 0.326 -0.889 0.322 83 73 71
-340.7278 26.4753 -33.4087 0.496 -0.568 -0.657 84 80 71
-319.7225 82.7668 -26.0007 0.989 0.107 0.097 85 68 69
-317.1907 147.3321 -20.0325 0.638 -0.764 0.096 82 69 62
-324.8142 157.3387 -20.0476 0.929 -0.312 -0.200 90 77 71
-320.7136 180.1887 -17.5596 0.963 0.268 0.000 83 70 65
-111.9935 -39.9523 -12.6000 0.546 -0.565 0.619 156 168 168
-437.3191 -18.3483 -49.6038 0.842 0.423 0.335 82 69 63
-370.5227 -3.4465 -40.3261 0.452 -0.690 0.565 73 61 61
-358.1757 11.8204 -37.5241 0.672 -0.683 0.286 77 64 58
-348.1540 13.0301 -36.2213 0.114 -0.976 0.187 76 63 57
-345.2155 13.4476 -35.8339 0.114 -0.976 0.187 90 77 71
-349.4678 24.0935 -35.4172 0.494 -0.574 -0.653 81 77 68
-327.5410 61.8754 -29.5143 0.587 -0.787 0.189 60 48 50
-326.2340 152.5710 -21.4787 0.539 -0.825 0.169 105 92 84
-331.3645 162.2775 -21.2486 0.948 -0.236 -0.214 101 86 79
-319.1430 157.9342 -20.1653 0.990 -0.067 -0.124 95 81 72
-111.8483 -39.9136 -12.7611 0.556 -0.522 0.647 151 163 163
-367.4910 -0.6144 -40.5089 0.357 -0.640 0.680 75 63 63
-330.5753 114.6998 -26.1073 0.912 -0.223 -0.344 99 90 85
-333.7419 142.5863 -24.0969 0.783 -0.402 -0.476 91 75 60
-319.6699 148.0624 -21.9132 0.910 -0.367 0.191 92 79 71
-345.0047 169.4083 -23.1638 0.930 -0.116 -0.348 90 77 71
-342.3970 13.2854 -37.0085 0.593 -0.757 0.276 65 52 46
-339.5106 33.8079 -34.9072 0.203 -0.957 -0.207 95 85 83
-326.9001 59.5817 -31.1541 0.770 0.574 0.279 83 71 73
-325.7601 105.0067 -27.1538 0.941 -0.061 -0.332 104 89 86
-324.8167 134.4247 -24.5376 0.932 -0.279 -0.231 65 48 41
-99.5967 -32.6549 -10.9687 0.624 -0.761 -0.177 109 109 133
-363.7614 -3.5829 -41.8713 0.093 -0.619 0.780 88 76 76
-346.2975 12.3214 -38.3311 0.606 -0.725 0.327 62 49 43
-340.3154 13.8363 -37.4488 0.641 -0.745 0.185 62 49 43
-339.5440 14.4569 -37.2993 0.639 -0.745 0.192 60 49 45
-338.8548 15.0843 -37.1596 0.639 -0.745 0.192 60 49 47
-319.2528 72.0439 -29.9013 0.436 -0.877 -0.204 78 62 63
-321.2007 112.5494 -26.7451 0.820 -0.409 -0.401 99 90 84
-317.7534 166.0927 -21.8129 0.848 0.192 0.493 76 63 57
-381.8105 -0.4064 -44.7076 0.359 -0.460 0.812 89 77 77
-336.8494 34.2355 -36.0555 0.008 -0.999 0.043 94 84 82
-322.1520 54.7820 -32.4615 0.939 0.182 0.293 63 49 49
-323.2281 91.7299 -29.5321 0.842 -0.289 -0.456 89 79 77
-321.8477 122.4900 -26.8008 0.879 -0.460 -0.124 80 70 60
-321.7270 123.3113 -26.7172 0.919 -0.113 0.378 88 78 68
-320.7380 133.4909 -25.7449 0.915 -0.218 -0.340 91 74 66
-314.9605 141.2482 -24.3586 0.769 -0.596 -0.231 90 76 67
-335.4993 34.0762 -36.6500 0.010 -0.998 0.054 82 72 70
-319.5130 56.4234 -32.7267 0.905 0.420 0.074 61 49 51
-329.2061 86.5965 -31.5175 0.729 -0.193 0.657 101 82 84
-325.8268 110.4840 -29.1156 0.691 -0.272 0.670 126 117 112
-321.8742 121.7396 -27.6753 0.888 -0.455 -0.064 101 91 81
-322.2544 122.7971 -27.6382 0.954 -0.185 0.234 132 122 112
-315.2101 154.3818 -24.1256 0.923 -0.005 0.384 67 52 45
-335.5364 34.1536 -37.4039 0.013 -0.999 0.049 70 60 58
-319.5959 73.1844 -32.1193 0.644 -0.361 0.674 79 65 65
-322.2617 122.0363 -28.5120 0.952 -0.178 0.249 62 52 42
-322.1499 122.8624 -28.4301 0.954 -0.192 0.229 62 52 42
-333.0660 152.4017 -27.4858 0.936 -0.353 0.016 79 64 55
-323.9482 162.5910 -25.4473 0.954 0.006 -0.300 69 55 46
-317.2881 161.4275 -24.6562 0.913 -0.364 -0.184 82 68 59
-322.8821 182.6851 -23.6760 0.891 0.436 -0.128 82 69 64
-368.7892 -3.8421 -45.6999 -0.028 -0.927 0.373 87 76 74
-335.5141 -4.0217 -41.2158 -0.005 -1.000 -0.012 90 76 76
-320.0508 32.2693 -36.2171 0.476 -0.786 0.393 68 61 55
-316.4268 52.8702 -34.0764 0.859 -0.384 -0.338 55 41 40
-321.3371 65.3416 -33.7409 0.540 -0.842 -0.014 61 50 50
-315.3940 70.4402 -32.5288 0.354 -0.738 0.574 75 63 63
-333.0034 152.5000 -28.3339 0.933 -0.360 0.003 80 63 53
-324.3355 163.9337 -26.2458 0.953 0.016 -0.302 85 68 60
-277.8744 13.8434 -32.5988 0.953 -0.091 -0.288 79 70 62
-319.5459 32.2495 -36.8689 0.476 -0.786 0.393 110 103 97
-322.6365 96.0115 -32.2459 0.972 -0.199 -0.124 108 95 87
-321.8590 121.1981 -30.1451 0.967 -0.092 0.239 67 56 49
-332.9591 152.6086 -29.1840 0.933 -0.360 0.003 81 63 53
-321.6190 152.8892 -27.6032 0.968 -0.008 -0.251 74 57 49
-333.6973 160.8155 -28.6357 0.988 0.001 0.154 70 53 45
-315.4408 154.9160 -26.5936 0.962 -0.119 -0.244 74 57 49
-319.9598 159.5046 -26.8515 0.984 -0.095 -0.151 74 57 49
-305.3249 168.3298 -24.1414 0.855 0.086 -0.511 77 64 56
-94.1945 -34.4262 -11.3236 0.700 0.667 -0.255 128 136 154
-275.5453 13.0211 -32.9453 0.967 0.247 0.069 75 64 59
-337.2344 47.3673 -38.8765 0.936 -0.127 -0.327 66 57 52
-313.5008 69.2759 -33.8479 0.138 -0.985 0.102 85 73 73
-308.4780 73.7272 -32.7982 0.162 -0.987 -0.024 55 41 40
-330.5155 150.4331 -29.8781 0.947 -0.216 -0.237 86 68 58
-332.9148 152.7172 -30.0347 0.933 -0.360 0.003 81 63 53
-304.4232 146.7016 -26.5252 0.938 0.005 0.348 68 51 43
-94.2535 -34.4332 -11.4808 0.699 0.671 -0.248 132 141 159
-218.6553 -47.4916 -30.1461 0.575 -0.145 0.805 108 114 126
-343.7164 -5.4846 -44.6521 0.096 -0.911 0.401 62 51 49
-337.6877 -3.7517 -43.6626 0.162 -0.954 0.253 92 78 78
-275.7689 13.1023 -33.5725 0.969 0.238 0.071 75 64 59
-281.3347 15.5753 -34.1715 0.869 -0.463 -0.174 76 67 58
-279.4284 15.9019 -33.8757 0.931 -0.225 -0.288 77 68 61
-302.8412 45.6061 -34.9046 0.731 0.281 0.622 57 46 44
-333.8523 105.7020 -34.6647 0.972 0.224 -0.075 89 73 61
-332.8520 152.8156 -30.8840 0.936 -0.353 0.016 83 65 55
-109.9061 -39.2712 -14.2551 0.390 -0.562 -0.729 103 111 114
-338.8053 3.7953 -43.9739 -0.094 -0.942 0.323 80 66 63
-302.5249 45.6046 -35.5542 0.557 0.365 0.746 56 45 43
-94.3138 -34.6788 -11.8052 0.702 0.663 -0.260 122 130 153
-94.3749 -34.5698 -11.8059 0.701 0.665 -0.256 114 122 142
-299.8646 23.9168 -37.4925 0.379 -0.925 -0.025 76 65 61
-322.4258 32.3214 -40.1633 0.969 0.241 0.048 89 82 76
-321.3728 121.4257 -33.2997 0.913 -0.389 -0.126 77 66 59
-320.0386 136.8099 -31.9460 0.979 0.147 -0.139 89 75 66
-94.3895 -34.6895 -11.9658 0.696 0.676 -0.244 122 130 153
-284.7003 13.8191 -36.6565 0.377 -0.783 -0.495 81 70 68
-297.0741 22.2744 -37.8678 0.708 0.328 0.626 76 65 59
-252.8873 39.9307 -29.9855 0.486 -0.849 -0.209 58 46 46
-319.2411 69.0641 -37.6858 0.171 -0.980 0.096 61 49 49
-320.2525 121.8873 -33.9099 0.956 -0.212 -0.201 83 73 64
-311.7428 146.9375 -30.7826 0.733 0.077 0.676 87 70 62
-95.2421 -34.8630 -12.2561 0.723 0.682 -0.114 122 130 153
-274.1348 15.9624 -35.5291 0.963 -0.237 0.125 71 62 53
-314.1993 25.6088 -40.8687 0.818 0.431 0.380 74 64 57
-330.5647 45.5897 -41.8731 0.892 -0.138 -0.430 91 81 79
-336.7057 47.6434 -42.6493 0.908 -0.140 -0.396 94 85 80
-276.1323 47.8876 -33.4886 0.660 0.254 0.707 59 48 47
-318.8413 84.6542 -37.2378 0.542 -0.811 -0.218 95 84 81
-323.0049 97.5868 -36.9174 0.852 -0.141 -0.504 56 44 37
-320.7846 99.2066 -36.4635 0.761 -0.523 -0.385 52 40 33
-325.6904 110.5402 -36.3725 0.921 0.248 0.300 72 63 54
-316.9922 163.3003 -31.1891 0.749 0.506 0.428 73 59 50
-328.0292 186.3356 -31.1651 0.442 0.595 0.671 68 55 49
-95.2666 -34.8629 -12.4105 0.723 0.682 -0.114 122 130 153
-338.6571 -6.1021 -47.6139 0.902 0.373 -0.218 66 55 53
-314.8018 -3.3971 -43.7637 0.903 0.402 -0.150 75 61 61
-330.3873 9.4435 -45.2217 0.248 -0.660 0.709 61 53 44
-284.2899 14.4677 -37.7963 0.388 -0.779 -0.493 65 56 49
-310.6811 23.8006 -41.1636 0.815 0.498 0.296 60 55 46
-314.7766 25.7620 -41.6490 0.818 0.416 0.397 61 55 45
-313.2823 76.5887 -37.7406 0.287 -0.887 -0.362 59 45 44
-322.6417 94.2379 -37.8968 0.980 -0.038 -0.195 62 51 47
-319.3301 106.2381 -36.5208 0.864 0.297 0.407 71 61 53
-309.8561 127.4670 -33.5326 0.873 -0.488 0.016 85 73 63
-312.8603 135.1841 -33.4342 0.927 0.187 -0.326 87 69 59
-94.6000 -34.7183 -12.4473 0.717 0.696 -0.021 122 130 153
-331.9146 6.9346 -46.3625 0.174 -0.657 0.733 88 70 66
-324.0388 97.3581 -38.6800 0.896 -0.086 -0.436 54 47 41
-327.0187 112.1956 -38.0835 0.932 0.209 0.297 69 61 50
-322.3774 117.1005 -37.0117 0.940 0.282 0.190 70 62 51
-95.1809 -34.9578 -12.7053 0.724 0.689 -0.023 115 123 147
-310.8311 -5.3517 -44.6286 0.918 0.396 -0.015 54 43 41
-296.1511 6.9421 -41.4474 0.584 -0.791 -0.182 61 54 46
-318.6946 14.3743 -44.4790 0.982 -0.074 -0.176 67 57 48
-314.1201 102.5914 -37.5427 0.864 0.260 0.431 59 50 43
-299.0572 105.8043 -34.9408 0.741 0.493 0.455 70 62 51
-320.1028 130.2446 -36.5380 0.671 -0.709 -0.216 70 57 48
-313.3515 133.0185 -35.2779 0.845 0.365 0.391 85 68 58
-293.8842 -9.5671 -42.8771 0.951 0.217 0.220 54 43 41
-312.2994 -5.8437 -45.5641 0.936 0.352 0.028 50 39 37
-316.0692 -3.7983 -46.0250 0.904 0.427 -0.002 54 40 40
-295.0702 -1.4196 -42.5007 0.021 -0.961 -0.277 78 64 64
-293.0216 7.2902 -41.5678 0.568 -0.750 -0.338 60 53 45
-342.2354 13.5633 -49.0044 0.610 -0.764 0.212 66 59 51
-328.0648 18.2490 -46.4121 0.997 0.074 0.002 67 57 48
-330.2010 112.9119 -40.1767 0.916 0.373 0.149 69 61 50
-322.8574 129.0475 -37.8809 0.918 -0.324 -0.227 71 58 49
-321.9503 129.4953 -37.7047 0.878 -0.403 -0.258 77 64 55
-318.1113 129.3633 -37.0997 0.673 -0.704 -0.228 63 50 41
-310.3507 134.2111 -35.5215 0.891 0.217 -0.398 85 67 57
-303.0584 2.7998 -44.1425 0.746 0.021 -0.666 69 51 47
-316.2674 8.9934 -45.8610 0.746 -0.581 -0.327 58 51 43
-322.6308 127.2643 -38.7909 0.836 0.506 0.213 75 62 53
-313.2550 127.0404 -37.2853 0.646 -0.645 -0.407 60 47 38
-309.8442 157.6768 -34.6331 0.960 0.012 0.279 57 44 38
-147.8930 -32.4817 -21.6607 0.778 -0.493 -0.390 30 29 27
-303.8073 2.9114 -44.9157 0.744 0.020 -0.668 69 51 47
-311.7484 99.4575 -39.7017 0.823 -0.077 0.562 41 32 25
-327.5561 109.3907 -41.6309 0.855 0.499 -0.141 49 40 33
-319.5271 122.3439 -39.4355 0.867 0.494 0.070 60 47 38
-321.1440 -2.7348 -48.8421 0.856 0.296 0.425 59 45 45
-322.6415 -2.0101 -49.0436 0.865 0.408 0.292 63 49 49
-281.3451 1.1757 -41.9455 0.550 -0.574 -0.607 69 51 47
-327.8411 18.4099 -48.5514 0.990 -0.075 -0.122 55 45 36
-309.8955 157.9771 -36.2692 0.839 0.388 0.382 57 44 38
-308.5374 168.4653 -35.3446 0.726 0.550 0.413 58 47 43
-336.8488 -41.2114 -54.7138 0.788 0.061 -0.613 42 39 34
-334.5236 -11.1394 -52.3485 0.990 0.005 0.141 53 47 44
-343.1792 -9.5709 -53.7085 0.815 -0.093 -0.572 55 46 43
-325.9416 -5.6370 -50.5371 0.918 0.384 -0.097 48 37 35
-310.2773 14.3503 -46.5788 0.889 -0.338 -0.309 57 47 38
-346.9943 79.0169 -48.5429 0.933 0.245 -0.262 49 38 36
-320.0376 121.0616 -41.2294 0.711 -0.693 0.122 41 33 22
-320.1401 122.8659 -41.1283 0.808 -0.588 0.030 48 36 27
-324.4299 131.2065 -41.3063 0.814 -0.429 -0.393 59 48 38
-130.7328 -45.4779 -20.3796 0.964 -0.148 -0.222 46 58 48
-221.2168 -49.3892 -36.1299 0.547 -0.467 0.695 71 76 79
-194.2854 -41.9477 -31.0364 0.215 0.205 0.955 116 121 124
-342.4855 -50.6443 -56.9811 0.922 0.043 -0.386 44 44 42
-332.5020 -48.5136 -55.1335 0.658 -0.707 0.259 34 33 29
-329.6269 -2.8074 -51.6878 0.763 0.315 -0.564 58 50 43
-329.6140 -2.1529 -51.6433 0.765 0.313 -0.563 59 51 45
-320.8889 -1.3675 -50.0982 0.885 0.418 0.207 64 56 49
-292.0112 -0.2151 -45.0777 0.944 0.325 0.060 63 53 46
-292.6987 1.0049 -45.1166 0.937 0.269 -0.221 64 51 48
-285.4350 3.3226 -43.7228 0.637 -0.446 -0.628 64 52 48
-317.2821 15.2318 -48.4079 0.648 -0.543 0.533 52 52 38
-322.7093 19.2571 -49.0773 0.932 0.109 -0.346 61 60 47
-270.2243 15.3226 -40.3422 0.874 0.080 -0.479 56 54 38
-340.2082 35.4387 -51.0289 0.745 0.467 0.477 56 53 40
-338.4471 35.8776 -50.6989 0.721 0.463 0.516 56 53 40
-293.9468 57.4229 -41.6850 0.811 0.581 -0.072 31 27 19
-329.5368 75.4194 -46.6178 0.891 0.448 -0.080 35 30 22
-353.1369 108.4711 -48.5242 0.549 -0.828 0.117 42 33 28
-320.1506 122.1066 -41.9935 0.795 -0.607 0.012 46 38 29
-314.3213 138.7387 -39.9204 0.941 0.322 -0.102 53 41 38
-206.8705 92.8900 -24.4794 0.684 -0.213 0.697 57 42 41
-219.1863 -49.0666 -36.1797 0.458 -0.525 0.718 72 80 82
-335.8990 -41.6688 -55.9632 0.058 -0.982 0.180 48 45 40
-309.2493 -18.2304 -49.8468 0.625 0.158 0.765 60 62 48
-300.9445 -14.8334 -48.1894 0.107 -0.956 -0.273 75 78 55
-313.8510 -11.5959 -50.2232 0.635 0.416 0.651 57 57 55
-330.7736 -7.2642 -52.8843 0.659 -0.426 0.619 65 60 54
-326.4527 -0.9765 -51.7342 0.808 0.366 -0.461 65 58 50
-342.9269 12.5912 -53.7297 0.723 -0.488 -0.489 61 58 51
-317.7688 12.7040 -49.3566 0.519 -0.684 0.512 52 52 44
-314.1980 14.9287 -48.5954 0.687 -0.482 0.543 59 60 46
-328.4194 18.6708 -50.8252 0.862 -0.358 -0.360 69 71 57
-331.1677 19.7109 -51.2359 0.853 -0.310 -0.420 71 72 58
-322.8783 46.9058 -48.0667 0.255 -0.108 0.961 49 39 46
-313.3657 75.8757 -44.5723 0.577 -0.112 0.809 49 38 36
-283.5817 104.8527 -37.5595 0.786 -0.594 0.170 50 43 35
-283.1703 105.4281 -37.4515 0.786 -0.594 0.170 50 43 35
-312.8205 126.5303 -41.2540 0.970 0.034 0.241 41 37 28
-310.7493 134.2610 -40.4026 0.230 -0.907 0.353 55 44 42
-313.9679 144.1187 -40.3338 0.316 -0.944 0.094 37 27 18
-288.1328 135.5280 -36.3971 0.895 0.341 -0.287 65 55 46
-341.9872 -42.0595 -57.7486 0.193 -0.859 -0.474 69 66 61
-345.2646 -36.6855 -57.9880 0.038 -0.849 0.527 64 61 56
-355.9781 -35.9563 -59.8258 0.242 -0.960 0.141 74 71 66
-296.5948 -2.1530 -47.2676 0.821 0.552 -0.150 71 67 58
-286.1609 -1.1062 -45.3676 0.858 0.505 0.091 88 84 75
-275.5744 2.5654 -43.2763 0.925 0.317 -0.209 79 70 65
-324.9692 20.3612 -50.8451 0.985 -0.074 -0.159 71 72 56
-283.9573 22.1868 -43.5206 0.969 -0.181 -0.169 67 67 55
-310.7221 38.7096 -47.1906 0.985 -0.065 0.157 48 48 36
-320.2189 92.6731 -45.4786 0.582 -0.746 -0.324 56 47 38
-303.0447 108.4439 -41.4710 0.987 -0.003 0.160 55 46 37
-319.0761 120.0765 -43.5605 0.926 -0.329 0.185 58 49 40
-267.9466 103.3756 -35.6181 0.993 -0.118 -0.023 48 44 35
-282.8934 112.4049 -37.6800 0.449 -0.594 0.667 48 44 35
-309.2482 128.3224 -41.3159 0.611 -0.165 0.774 53 49 40
-316.8794 138.5526 -42.0165 0.849 -0.079 -0.522 52 41 39
-95.3393 -34.8211 -14.0844 0.681 0.731 0.038 114 125 145
-190.2227 -41.3683 -31.3848 0.190 0.129 0.973 134 142 144
-329.5392 -53.8481 -56.9635 -0.018 -0.626 0.779 120 120 118
-324.8658 -52.7675 -56.0646 -0.022 -0.623 0.782 120 120 118
-333.9155 -35.4352 -56.6069 0.080 -0.822 0.564 86 83 78
-342.9087 -33.3889 -58.0822 0.244 -0.689 0.682 74 71 66
-313.4746 -11.5110 -51.4911 0.637 0.414 0.651 54 56 53
-270.6763 1.6430 -43.0583 0.922 0.344 0.175 73 64 59
-319.1791 19.6625 -50.5838 0.779 -0.621 -0.085 63 66 49
-295.0070 20.2212 -46.2449 0.942 0.028 0.334 68 69 51
-313.5103 40.0428 -48.3171 0.259 -0.079 0.963 92 90 77
-319.1353 45.5060 -48.9818 0.250 -0.127 0.960 83 75 71
-307.3648 66.6060 -45.5841 0.808 0.584 0.075 77 73 64
-309.2820 73.9556 -45.4721 0.645 -0.048 0.763 58 47 45
-275.2488 82.1715 -38.9048 0.975 -0.217 -0.039 52 43 38
-314.3714 113.7054 -43.9263 0.739 0.341 0.581 55 46 37
-322.5797 120.9536 -44.9409 0.872 0.490 0.013 62 53 44
-285.7064 131.0099 -37.7543 0.981 0.178 -0.075 61 51 42
-316.8673 163.9240 -41.2728 0.717 0.218 0.662 56 43 28
-285.4105 149.5695 -36.5567 0.736 0.300 0.606 53 42 36
-281.8323 152.4717 -35.7404 0.959 0.280 0.047 51 40 36
-288.5769 157.8273 -36.6111 1.000 -0.018 -0.012 52 41 37
-295.1132 163.0912 -37.4503 0.989 -0.146 0.019 55 44 40
-95.0214 -35.2415 -14.2046 0.687 0.715 -0.129 38 43 38
-95.1477 -35.0227 -14.2141 0.719 0.675 -0.166 81 88 103
-95.2576 -34.9225 -14.2278 0.715 0.687 -0.130 104 111 134
-95.3578 -34.8197 -14.2397 0.681 0.731 0.040 114 125 145
-338.2311 -55.9492 -59.3236 -0.014 -0.680 0.734 134 134 134
-313.2262 -51.4579 -54.5414 -0.018 -0.628 0.778 135 135 133
-321.7297 -29.4821 -54.7408 0.968 0.001 -0.250 116 113 108
-321.4714 -28.2876 -54.6217 0.970 0.022 -0.241 88 88 80
-321.4762 -27.6932 -54.5865 0.970 0.022 -0.241 89 89 81
-321.4858 -26.5013 -54.5158 0.970 0.022 -0.241 88 88 80
-303.4011 -14.6584 -50.5353 0.961 0.272 0.048 87 93 66
-309.1947 -12.1788 -51.4296 0.789 0.498 0.360 73 75 69
-312.9159 -11.4787 -52.0582 0.637 0.414 0.651 74 76 73
-283.0572 -1.2271 -46.0509 0.810 0.558 0.184 65 61 52
-276.8359 3.3303 -44.6523 0.829 0.420 0.369 105 97 91
-333.3531 14.5849 -54.1616 -0.106 -0.896 0.431 77 77 69
-299.1478 20.2467 -47.6491 0.929 0.292 0.227 80 81 63
-302.5793 33.1825 -47.4826 0.324 -0.144 0.935 96 94 81
-304.2631 67.2225 -45.7196 0.894 0.013 0.449 69 65 56
-309.9702 74.2669 -46.3212 0.651 -0.008 0.759 69 58 56
-317.1652 90.9109 -46.6082 0.406 0.157 0.901 75 66 57
-317.0748 91.6868 -46.5448 0.599 -0.741 -0.306 83 74 65
-312.7629 112.2367 -44.5196 0.765 0.268 0.585 78 69 61
-285.3297 105.2105 -39.9987 0.517 -0.830 -0.207 80 71 62
-283.8410 105.2787 -39.7261 0.476 -0.847 -0.236 84 77 69
-273.9037 118.0846 -37.1564 0.528 0.099 0.844 70 61 57
-286.9768 131.8512 -38.6783 0.985 0.169 -0.031 79 69 60
-95.0829 -35.2498 -14.3672 0.689 0.714 -0.128 35 40 35
-95.1172 -35.1342 -14.3666 0.723 0.673 -0.158 34 39 42
-95.1820 -35.0249 -14.3719 0.719 0.675 -0.166 78 84 99
-95.3155 -34.8057 -14.3832 0.688 0.725 0.034 118 129 149
-320.4394 -53.3183 -56.6005 -0.016 -0.674 0.739 141 140 138
-316.9291 -50.7407 -55.8055 0.169 -0.656 0.736 139 139 137
-327.7227 -50.7483 -57.7770 0.900 0.044 -0.433 142 142 140
-303.5828 -15.1916 -51.2447 0.962 0.268 0.048 90 97 66
-310.0523 -12.7088 -52.2778 0.781 0.498 0.377 129 132 122
-315.6468 -11.3556 -53.2186 0.830 0.356 0.430 128 130 127
-282.9422 -1.1877 -46.6388 0.856 0.493 0.155 76 72 63
-295.4769 21.0369 -47.6003 0.996 -0.084 0.014 92 93 75
-312.5477 30.9999 -50.1226 0.901 0.377 0.213 137 138 124
-303.3751 30.7325 -48.4634 0.402 -0.529 0.747 158 156 143
-314.3492 116.4760 -45.3456 0.751 0.245 0.613 77 68 59
-294.2006 119.2679 -41.4993 0.896 0.290 0.336 77 74 65
-274.1862 143.4525 -36.3997 0.773 0.379 0.509 84 73 69
-95.0966 -35.2477 -14.5208 0.698 0.710 -0.095 26 31 26
-95.3139 -34.8001 -14.5347 0.688 0.725 0.034 122 133 153
-302.2941 -15.7446 -51.6835 0.969 0.217 0.116 100 107 75
-303.6835 -15.1455 -51.9052 0.953 0.291 0.085 62 69 38
-303.8621 -14.5608 -51.9038 0.953 0.291 0.085 67 73 46
-304.4424 -13.9665 -51.9762 0.940 0.298 0.169 105 110 89
-283.4588 -1.1039 -47.3408 0.853 0.500 0.150 125 121 112
-323.8212 10.9777 -54.0935 -0.051 -0.804 0.592 164 161 154
-310.9535 13.5434 -51.5636 -0.009 -0.840 0.542 155 157 144
-298.3101 14.5851 -49.1648 -0.035 -0.842 0.538 122 124 110
-306.3776 29.9938 -49.7510 0.771 0.527 0.357 127 128 114
-302.6713 31.3352 -48.9869 0.384 -0.745 0.546 117 118 104
-300.8898 31.6730 -48.6377 0.336 -0.159 0.928 109 107 94
-309.6063 39.4566 -49.7919 0.973 0.184 0.140 115 116 98
-290.1601 67.2764 -44.5619 0.664 -0.734 0.145 141 132 127
-300.2320 71.2683 -46.1895 0.917 -0.397 -0.036 137 128 123
-267.7914 87.8001 -39.2202 0.629 -0.776 0.042 49 40 33
-268.8758 102.7522 -38.5421 0.627 -0.737 -0.251 24 17 7
-268.4384 103.2746 -38.4306 0.611 -0.760 -0.220 33 26 16
-267.8083 104.4395 -38.2456 0.955 -0.210 -0.207 22 18 9
-293.9265 119.2385 -42.2050 0.896 0.290 0.336 21 18 9
-273.8766 127.7951 -37.9953 0.340 -0.410 0.846 75 65 55
-267.4446 130.3521 -36.6558 0.388 -0.875 0.289 107 97 63
-265.2650 129.8128 -36.2845 0.416 -0.856 0.307 96 86 52
-288.5978 158.2399 -38.9282 1.000 -0.018 -0.012 79 68 64
-295.1700 163.5393 -39.8319 0.991 -0.129 0.030 94 83 79
-299.3730 167.2910 -40.3886 0.905 0.413 0.100 94 83 79
-95.1488 -35.2539 -14.6822 0.721 0.689 -0.073 33 38 33
-94.9417 -34.7174 -14.6124 0.701 0.660 -0.270 123 134 154
-300.4674 -16.8705 -52.0481 0.625 0.247 0.741 118 124 101
-305.8050 7.3335 -51.6486 0.703 -0.187 -0.686 159 159 151
-292.3800 16.9774 -48.5787 0.804 0.237 0.546 70 72 52
-305.5578 29.9163 -50.2975 0.776 0.527 0.347 99 101 85
-302.0338 29.9623 -49.6353 0.401 -0.532 0.746 100 101 85
-299.7137 71.1840 -46.8193 0.913 -0.407 -0.032 151 145 136
-289.7770 80.9397 -44.3958 0.349 -0.045 0.936 157 153 139
-271.2198 142.6101 -37.3592 0.588 0.308 0.748 36 28 25
-95.0552 -35.2287 -14.8145 0.718 0.689 -0.103 44 50 47
-94.9981 -34.7240 -14.7750 0.701 0.660 -0.270 124 132 153
-95.4618 -34.3217 -14.8400 0.714 0.669 -0.208 184 194 204
-179.5553 -39.6169 -31.0713 0.070 -0.483 0.873 120 128 130
-283.1333 -18.0631 -49.4687 0.923 0.292 0.250 92 102 78
-294.1306 -11.8172 -51.1973 0.734 0.303 0.608 106 113 102
-276.2468 -6.9676 -47.5339 0.803 -0.365 0.471 90 95 78
-276.6670 -6.4054 -47.5816 0.801 -0.365 0.474 90 95 77
-305.4961 9.8699 -52.1185 -0.004 -0.824 0.566 81 88 76
-298.8164 10.4114 -50.8223 0.036 -0.835 0.548 72 81 71
-284.9376 18.4375 -47.7372 0.752 -0.445 0.486 68 78 47
-278.5009 26.4748 -46.0614 0.823 -0.234 0.518 77 91 58
-276.6475 28.5590 -45.5919 0.824 -0.252 0.508 75 88 55
-279.2393 30.2748 -45.9854 0.868 -0.161 0.470 72 86 53
-221.7740 21.0853 -35.6212 0.790 0.566 0.238 78 93 56
-287.8235 85.4445 -44.4778 0.402 0.141 0.905 87 95 66
-282.5767 105.0798 -42.3686 0.369 -0.928 -0.047 59 66 41
-271.1020 102.5609 -40.3379 0.616 -0.779 -0.119 98 105 75
-267.8665 104.6667 -39.6054 0.946 0.088 -0.313 134 141 126
-268.5536 105.7580 -39.6735 0.948 0.052 -0.315 134 141 126
-288.6117 158.5155 -40.4766 1.000 -0.018 -0.012 92 96 72
-284.6348 -24.4002 -50.7067 0.002 -0.916 0.401 84 95 68
