ply
format ascii 1.0
element vertex 854
property float x
property float y
property float z
property float nx
property float ny
property float nz
property uchar diffuse_red
property uchar diffuse_green
property uchar diffuse_blue
end_header
212.3861 387.0923 -21.5964 -0.018 -0.365 0.931 37 41 44
217.2909 380.1204 -22.8677 -0.478 -0.835 -0.272 40 44 45
216.5144 372.1757 -23.1914 -0.540 -0.789 -0.291 44 46 45
215.9893 369.7602 -23.2388 -0.558 -0.784 -0.272 39 41 40
220.5665 370.9636 -23.9778 -0.339 -0.470 0.815 46 48 47
219.5573 367.9131 -23.9765 -0.363 -0.433 0.825 45 46 48
228.5085 356.5759 -26.2161 -0.350 -0.728 0.590 25 27 26
224.5162 343.6122 -26.2628 -0.542 -0.424 0.726 32 32 32
221.8176 338.7228 -26.0696 -0.335 -0.881 0.336 26 26 26
241.5152 353.2661 -28.7065 -0.558 -0.809 0.183 20 20 22
242.2997 335.3796 -29.8830 -0.659 -0.157 0.735 24 23 28
244.3374 336.1602 -30.1978 -0.684 -0.384 0.621 25 24 29
244.7860 335.1368 -30.3364 -0.684 -0.384 0.621 26 25 30
252.6563 318.2835 -32.7051 -0.902 -0.369 -0.225 42 44 43
254.3638 318.5974 -32.9886 -0.909 -0.364 -0.203 38 40 39
255.2802 316.6284 -33.2648 -0.108 -0.989 0.100 26 28 26
288.2946 334.7590 -38.0468 0.026 -0.999 0.023 37 40 33
339.8062 354.3453 -46.0130 -0.831 0.112 0.545 31 34 43
337.7085 349.1716 -45.9425 -0.886 -0.447 -0.120 39 42 51
338.9684 290.8475 -49.5492 -0.117 -0.534 0.837 51 56 50
341.2574 286.8839 -50.1837 -0.217 -0.611 0.761 50 57 50
353.0705 289.7110 -52.1072 -0.726 0.136 0.674 50 56 52
352.7241 288.0424 -52.1428 -0.726 0.136 0.674 52 58 54
357.2195 289.7917 -52.8357 -0.768 0.090 0.634 53 59 55
346.2729 276.5532 -51.6694 -0.745 -0.020 0.667 57 59 61
369.6170 281.2086 -55.5244 -0.738 0.083 0.670 50 51 50
366.3315 273.4622 -55.3933 -0.902 -0.018 0.431 49 52 51
366.3217 272.0760 -55.4720 -0.902 -0.018 0.431 54 57 56
358.0075 265.3536 -54.3929 -0.917 -0.071 0.392 54 59 55
359.8951 265.2184 -54.7343 -0.915 -0.084 0.394 50 55 49
353.9052 249.6236 -54.5807 -0.039 -0.531 0.847 50 55 49
364.5154 243.1177 -56.8331 -0.764 -0.624 0.167 55 59 58
356.2506 215.2814 -56.9878 -0.607 -0.744 -0.280 92 97 93
357.1874 214.5946 -57.1931 -0.607 -0.744 -0.280 78 82 81
356.7906 213.2168 -57.2030 -0.607 -0.751 -0.259 58 62 61
329.9651 196.0850 -53.4567 -0.673 -0.714 0.193 68 68 66
320.3416 182.8611 -52.5234 0.321 -0.711 0.625 55 58 53
343.2876 189.6731 -56.1829 0.355 -0.739 0.573 59 64 57
329.9150 173.0689 -54.7833 -0.755 0.283 0.591 58 62 51
280.8609 127.5000 -48.7590 0.244 -0.508 0.826 51 48 55
22.5341 267.6755 4.4944 -0.923 -0.153 0.352 67 64 82
22.7204 266.7686 4.4099 -0.351 -0.639 0.684 73 71 85
23.6511 265.4030 4.1665 -0.568 -0.468 0.677 75 73 87
23.9882 265.0438 4.0860 -0.349 -0.601 0.719 58 56 70
113.3524 359.6798 -6.5219 -0.604 -0.559 0.568 73 72 68
116.9949 364.0419 -6.9258 -0.877 -0.247 -0.412 71 72 59
117.3410 363.0127 -7.0458 -0.877 -0.247 -0.412 71 72 57
130.5709 371.1077 -8.9507 -0.666 -0.487 -0.565 43 43 35
132.3825 372.9965 -9.1674 -0.992 -0.095 0.083 68 68 58
133.1486 372.7525 -9.3180 -0.993 -0.055 0.102 86 86 73
138.0682 373.6123 -10.1479 -0.127 -0.988 -0.083 62 62 55
205.8549 397.5007 -20.9027 -0.701 -0.415 0.580 28 32 35
203.5758 381.5320 -21.3986 -0.761 -0.608 0.229 34 38 39
207.6461 382.3137 -22.0813 -0.169 -0.437 0.883 57 61 62
224.0521 391.8477 -24.4720 -0.729 -0.327 0.602 39 43 46
219.6159 378.5823 -24.4298 -0.436 -0.838 -0.328 49 51 50
215.8525 371.6444 -24.1500 -0.555 -0.789 -0.262 50 52 51
215.4999 369.4673 -24.2101 -0.570 -0.778 -0.265 44 46 45
218.3991 371.7678 -24.5978 -0.543 -0.784 -0.299 42 44 41
219.1346 371.0824 -24.7679 -0.922 -0.382 -0.064 48 50 49
216.9617 366.4390 -24.6424 -0.581 -0.788 -0.204 56 58 57
217.0656 364.9142 -24.7472 -0.544 -0.794 -0.273 56 57 59
218.1506 364.7186 -24.9520 -0.543 -0.797 -0.265 31 32 36
220.8854 365.0651 -25.4208 -0.520 -0.244 0.819 27 28 33
221.2382 363.8758 -25.5510 -0.520 -0.244 0.819 40 41 46
222.3212 353.8622 -26.3106 -0.049 -0.961 0.272 35 37 36
223.7179 354.0464 -26.5496 -0.048 -0.929 0.368 30 32 31
220.5283 345.2157 -26.4794 -0.595 -0.765 0.246 30 32 31
239.3882 355.8677 -29.2451 -0.362 -0.798 0.481 20 20 20
254.9433 323.8969 -33.8306 -0.903 -0.324 -0.281 28 28 28
252.7582 318.6628 -33.7363 -0.902 -0.369 -0.225 41 41 41
254.5065 319.0180 -34.0285 -0.893 -0.371 -0.255 41 41 41
251.2575 314.2020 -33.7206 -0.102 -0.986 0.130 41 41 41
255.5549 317.1801 -34.3196 -0.858 -0.403 -0.318 24 24 22
258.9579 317.7443 -34.8954 -0.873 -0.408 -0.269 27 29 26
258.4946 315.8169 -34.9217 -0.062 -0.996 0.058 32 34 31
293.1806 338.2629 -39.8468 0.034 -0.998 0.056 40 43 36
288.1864 324.2513 -39.7472 -0.478 -0.876 -0.064 52 52 49
329.5717 345.3915 -45.9425 -0.799 0.161 0.580 53 56 60
330.6589 332.0430 -46.8914 -0.988 0.156 0.017 64 66 61
330.4077 330.2655 -46.9471 -0.987 0.160 0.008 60 63 58
330.1156 328.4610 -46.9969 -0.987 0.160 0.008 55 59 55
326.5532 311.8246 -47.3014 0.361 -0.523 0.772 59 61 59
325.6368 285.3040 -48.6372 -0.806 -0.105 0.582 50 55 49
336.1761 290.3888 -50.2319 -0.117 -0.534 0.837 58 63 57
343.9826 290.4744 -51.6211 -0.171 -0.572 0.802 50 55 49
360.5532 299.6161 -54.0634 -0.359 -0.871 0.334 50 56 52
374.1239 303.3918 -56.2734 -0.317 -0.942 0.115 54 60 56
353.8615 269.5735 -54.5671 -0.939 -0.004 0.344 55 63 57
360.0432 270.9098 -55.5955 -0.897 -0.059 0.438 60 69 63
365.4529 268.9407 -56.6729 -0.877 0.002 0.480 56 62 58
365.3019 263.4172 -56.9582 -0.217 -0.976 0.006 61 66 60
362.0772 258.7299 -56.6474 -0.971 -0.226 0.074 64 67 62
355.1275 249.2296 -55.9434 0.151 -0.626 0.765 58 68 60
360.7262 250.0311 -56.8979 -0.031 -0.529 0.848 63 74 66
345.7008 234.7970 -55.0760 -0.607 -0.760 -0.233 60 66 59
361.7305 241.6425 -57.5516 -0.743 -0.629 0.228 63 65 59
354.1097 231.0446 -56.7899 -0.975 -0.149 0.163 60 63 56
353.9109 218.8822 -57.4420 -0.705 -0.485 -0.517 58 62 62
356.4455 217.8597 -57.9525 -0.599 -0.755 -0.267 59 63 64
357.3982 217.1777 -58.1612 -0.599 -0.755 -0.267 67 71 70
356.8540 215.7110 -58.1469 -0.614 -0.738 -0.281 74 79 75
357.4133 214.8253 -58.2969 -0.607 -0.744 -0.280 67 71 71
356.6891 213.2761 -58.2552 -0.614 -0.743 -0.267 59 61 60
354.4149 210.9376 -57.9813 -0.618 -0.749 -0.238 61 63 62
310.4741 179.1574 -51.9312 0.335 -0.705 0.626 48 53 46
270.4906 126.7907 -47.7518 -0.146 -0.203 0.968 50 48 51
268.8648 125.3748 -47.5415 -0.150 -0.154 0.977 51 49 51
269.2533 124.7384 -47.6468 0.185 -0.648 0.739 51 49 52
22.1744 270.1219 4.1643 -0.919 -0.127 0.374 61 58 88
22.5924 266.8594 3.9093 -0.289 -0.723 0.627 77 75 89
23.2873 264.6533 3.6624 -0.552 -0.442 0.707 78 76 90
23.3905 263.4716 3.5787 -0.506 -0.466 0.726 63 61 75
111.0806 355.2310 -7.1932 -0.652 -0.548 0.524 68 67 63
117.5826 365.8260 -7.7832 -0.880 -0.358 -0.314 68 68 56
131.2796 371.2620 -9.9556 -0.998 -0.056 0.013 76 76 66
132.1354 371.2079 -10.1130 -0.998 -0.056 0.043 89 89 76
131.1259 358.7064 -10.6191 -0.288 -0.921 -0.263 47 46 44
131.8076 358.3288 -10.7630 -0.254 -0.932 -0.258 47 45 48
204.1628 397.1577 -21.6819 -0.370 -0.920 0.127 34 35 37
200.4433 380.7482 -21.9142 -0.854 -0.518 0.040 38 39 41
204.4619 383.2715 -22.5005 -0.748 -0.621 0.234 28 29 31
203.6115 380.2541 -22.5131 -0.783 -0.413 0.466 33 34 36
203.7185 378.6735 -22.6195 -0.784 -0.379 0.492 36 40 41
204.2252 377.6888 -22.7651 -0.782 -0.406 0.473 42 46 49
217.3497 388.0330 -24.5639 -0.046 -0.358 0.933 29 33 36
222.8105 383.4284 -25.8029 -0.674 -0.145 0.724 42 44 43
222.4470 381.1779 -25.8612 -0.680 -0.167 0.714 43 45 44
222.3717 379.3384 -25.9489 -0.678 -0.173 0.715 46 48 47
219.5327 370.3163 -25.9333 -0.922 -0.382 -0.064 44 46 45
218.2589 366.9050 -25.8913 -0.913 -0.406 -0.032 43 44 46
219.6403 367.1006 -26.1298 -0.554 -0.788 -0.269 29 30 34
219.0386 362.9654 -26.2489 -0.770 -0.583 0.262 27 26 32
219.6345 362.1088 -26.4036 -0.770 -0.583 0.262 40 39 45
218.7620 359.3070 -26.4004 -0.796 0.037 0.604 32 33 38
220.0985 357.8038 -26.7243 -0.839 -0.209 0.502 18 19 24
223.1726 353.6956 -27.5053 -0.048 -0.929 0.368 30 32 31
219.0960 345.3078 -27.2314 -0.586 -0.775 0.235 34 36 35
218.5959 341.5494 -27.3481 -0.588 -0.773 0.236 35 37 36
225.5045 340.8176 -28.6351 -0.172 -0.984 0.036 26 26 26
239.2803 352.8473 -30.4587 -0.482 -0.836 0.260 20 20 20
258.6599 335.6940 -34.9002 -0.925 -0.181 0.335 27 27 29
256.6847 332.0418 -34.7449 -0.924 -0.206 0.321 27 27 29
263.0403 337.3095 -35.6017 -0.947 -0.162 0.276 28 28 29
257.5148 329.8955 -35.0128 -0.942 -0.192 0.277 29 28 27
251.7773 315.0076 -34.7972 -0.097 -0.987 0.132 29 28 26
255.7309 317.6311 -35.3662 -0.858 -0.403 -0.318 15 15 12
256.8154 317.2851 -35.5810 -0.862 -0.411 -0.297 15 15 14
287.9254 336.5007 -40.1369 0.025 -0.996 0.080 49 51 46
336.8235 352.2073 -48.0960 -0.827 0.231 0.513 58 63 61
330.0587 334.9163 -47.8273 -0.772 -0.229 0.593 67 70 60
332.3914 335.3706 -48.2232 -0.990 0.130 -0.063 68 71 61
332.1619 333.5954 -48.2795 -0.990 0.130 -0.063 69 72 62
319.8422 319.9068 -46.8101 -0.984 0.027 0.179 61 63 55
330.1693 321.0669 -48.6098 -0.114 -0.386 0.915 59 59 57
318.6448 305.5630 -47.3837 0.070 -0.405 0.912 64 64 64
345.0742 318.0061 -51.4679 -0.293 -0.913 -0.283 85 85 83
361.8114 315.7581 -54.6120 -0.589 -0.794 0.152 66 67 62
366.7992 318.0000 -55.3886 -0.600 -0.757 0.260 65 67 62
324.9447 284.9808 -49.6538 -0.806 -0.105 0.582 68 70 65
325.1759 283.7728 -49.7620 -0.737 -0.143 0.660 74 76 71
337.6532 288.8587 -51.7336 -0.136 -0.548 0.826 69 71 66
345.8408 290.6017 -53.1151 -0.247 -0.608 0.754 67 73 69
359.6494 270.8222 -56.6959 -0.896 -0.047 0.442 71 85 78
360.1711 269.7962 -56.8466 -0.911 -0.043 0.411 70 84 77
364.8624 268.7287 -57.7519 -0.877 0.002 0.480 63 69 65
350.1850 248.9267 -56.1936 0.118 -0.590 0.799 67 78 70
334.9034 232.2088 -54.3564 -0.654 -0.300 0.694 68 83 73
343.5919 236.1510 -55.7072 -0.661 -0.750 0.007 69 82 72
341.2772 226.3098 -55.8314 -0.713 -0.614 0.339 70 76 65
354.8986 217.1576 -58.7933 -0.597 -0.747 -0.293 68 72 72
357.4597 217.3256 -59.2462 -0.604 -0.745 -0.283 72 76 74
356.7003 215.7448 -59.1962 -0.607 -0.744 -0.280 65 70 66
357.6399 215.0565 -59.4037 -0.607 -0.744 -0.280 66 71 68
356.9003 213.4974 -59.3560 -0.614 -0.743 -0.267 69 73 72
330.3432 196.4804 -55.5006 -0.934 -0.257 0.247 70 71 68
341.0226 200.8022 -57.1898 -0.709 -0.667 0.228 71 72 69
311.0478 164.7686 -53.7647 -0.859 0.340 0.383 52 67 48
280.2122 133.8902 -49.9004 -0.719 -0.136 0.682 67 72 66
278.6176 131.6166 -49.7378 -0.538 0.023 0.842 67 67 61
278.5325 130.7668 -49.7692 -0.538 0.023 0.842 68 68 62
269.8316 125.7961 -48.4728 -0.383 -0.280 0.881 70 70 64
21.2874 264.2468 3.4779 -0.883 -0.220 0.414 71 68 87
20.0004 254.9838 3.2163 -0.520 -0.831 0.197 75 73 87
20.5500 253.9512 3.0608 -0.531 -0.828 0.180 70 68 82
127.6877 390.1253 -9.1784 -0.471 -0.695 -0.542 68 68 61
120.8696 368.0246 -9.1192 -0.464 -0.232 0.855 76 77 63
121.1973 366.9313 -9.2376 -0.464 -0.232 0.855 71 71 61
121.5244 365.8406 -9.3556 -0.464 -0.232 0.855 75 74 69
121.3679 363.7379 -9.4398 -0.493 -0.216 0.843 71 70 66
122.2956 363.9168 -9.5993 -0.553 -0.170 0.816 70 69 65
131.3635 373.7315 -10.7269 -0.678 -0.451 -0.580 69 68 64
131.9910 373.2086 -10.8693 -0.998 -0.056 0.043 75 74 67
132.0767 371.5889 -10.9717 -0.998 -0.056 0.043 73 73 61
135.8105 375.5086 -11.4425 -0.927 0.167 0.335 76 77 62
135.2753 372.6440 -11.4984 -0.927 0.167 0.335 90 90 77
205.5143 390.6086 -23.3426 -0.722 -0.510 0.467 38 39 43
206.2896 386.4224 -23.7082 -0.737 -0.625 0.259 36 37 41
203.1662 380.0055 -23.4825 -0.783 -0.413 0.466 30 31 35
203.6340 378.9594 -23.6239 -0.783 -0.413 0.466 27 28 32
203.6569 377.2597 -23.7191 -0.782 -0.411 0.468 23 24 28
210.0822 379.7101 -24.7593 -0.059 -0.947 0.316 33 37 40
217.0145 387.9636 -25.5811 -0.120 -0.933 0.340 29 34 37
221.4168 390.7137 -26.2365 -0.200 -0.403 0.893 23 28 31
221.7455 387.6210 -26.4621 -0.756 -0.359 0.548 24 28 29
224.1692 380.4750 -27.2868 -0.708 -0.252 0.659 34 36 35
219.4771 370.6207 -26.9593 -0.922 -0.382 -0.064 30 32 31
219.9311 369.5498 -27.0994 -0.922 -0.382 -0.064 28 29 31
221.2989 369.7157 -27.3399 -0.496 -0.794 -0.351 27 27 29
218.0476 362.0070 -27.1601 -0.798 -0.545 0.256 26 25 30
218.5805 361.0705 -27.3074 -0.799 -0.543 0.259 32 31 37
219.5986 357.5054 -27.6840 -0.839 -0.209 0.502 27 28 33
219.6902 346.4025 -28.2955 -0.588 -0.756 0.288 36 36 36
220.2548 342.4113 -28.6123 -0.559 -0.760 0.330 37 39 38
222.0219 343.0636 -28.8996 -0.535 -0.771 0.346 24 26 25
223.5147 341.8017 -29.2394 -0.544 -0.745 0.387 27 27 27
259.2478 336.6231 -36.0320 -0.940 -0.184 0.286 27 27 29
254.2103 325.1736 -35.7269 -0.881 -0.390 -0.268 28 28 28
255.4401 324.9812 -35.9614 -0.883 -0.394 -0.255 28 28 28
255.9200 323.9964 -36.1017 -0.883 -0.394 -0.255 26 26 28
255.0448 318.6570 -36.2281 -0.851 -0.425 -0.309 26 26 25
258.2005 318.9743 -36.7865 -0.859 -0.417 -0.297 16 18 15
259.6703 319.0095 -37.0526 -0.854 -0.440 -0.277 21 23 20
257.9308 315.7778 -36.9086 -0.391 -0.823 -0.411 24 26 24
334.0445 361.6054 -48.3313 -0.095 -0.683 0.724 61 64 52
297.9312 312.9211 -44.3549 0.230 -0.442 0.867 70 75 67
307.0822 309.2077 -46.2223 -0.993 -0.008 0.116 65 68 56
330.4898 321.5742 -49.8278 -0.076 -0.340 0.937 63 65 64
363.2478 315.5351 -56.1241 -0.553 -0.806 0.211 76 81 74
324.2059 284.6220 -50.6616 -0.737 -0.143 0.660 78 84 77
324.3643 283.3607 -50.7581 -0.737 -0.143 0.660 83 88 82
383.2108 310.2404 -60.0475 -0.435 -0.890 0.136 70 77 72
359.6881 269.6506 -57.9332 -0.911 -0.043 0.411 71 88 81
353.9161 257.9038 -57.5101 -0.132 -0.938 0.322 75 80 72
344.1472 245.3625 -56.4008 0.118 -0.597 0.793 73 87 78
346.0587 245.2701 -56.7542 0.118 -0.597 0.793 73 88 78
362.3955 251.3322 -59.4082 -0.276 -0.543 0.793 71 88 78
354.3132 237.6147 -58.6694 -0.661 -0.723 0.200 78 86 70
346.0181 227.9371 -57.6754 -0.749 -0.606 0.270 77 87 71
356.1038 227.5280 -59.5363 -0.671 -0.710 0.212 83 89 75
401.8315 248.7761 -66.7355 -0.698 -0.644 0.314 73 80 65
363.2694 222.9151 -61.0899 -0.637 -0.690 -0.343 72 81 75
284.3111 147.5548 -50.7307 0.262 -0.843 0.469 75 89 72
288.9300 146.0301 -51.6545 -0.110 -0.276 0.955 85 99 82
259.6758 131.2826 -47.1107 0.263 -0.395 0.880 82 93 83
236.8858 117.4637 -43.6957 -0.279 -0.236 0.931 106 117 105
282.8797 134.1713 -51.1867 -0.550 -0.092 0.830 107 112 101
282.8285 133.3208 -51.2229 -0.485 -0.131 0.865 109 112 99
275.9350 128.9993 -50.1975 -0.488 0.013 0.873 112 114 102
18.5244 264.0478 3.4528 -0.965 0.056 0.255 26 24 48
18.9246 257.6944 3.0482 -0.806 -0.224 0.548 68 64 89
19.7283 254.5335 2.7355 -0.524 -0.828 0.199 77 75 89
130.0692 399.7791 -10.0250 -0.642 -0.766 0.025 63 62 62
126.8087 388.7648 -9.9980 -0.479 -0.675 -0.561 81 81 74
119.1956 366.7513 -9.7422 -0.690 -0.414 0.593 89 90 74
119.7464 366.1409 -9.8755 -0.621 -0.165 0.766 88 89 75
130.6836 378.2996 -11.2569 -0.899 -0.294 -0.324 121 120 115
132.5436 374.8375 -11.7799 -0.998 -0.061 0.027 65 65 58
135.3434 373.2770 -12.3769 -0.849 0.230 0.475 87 88 73
134.3683 369.5539 -12.3912 -0.852 0.228 0.471 92 92 80
133.6416 361.1312 -12.6960 -0.342 -0.935 -0.096 48 46 51
204.7321 395.2733 -24.0132 -0.326 -0.945 0.008 37 38 40
206.9363 391.3940 -24.6213 -0.766 -0.507 0.394 34 35 39
206.6054 387.3179 -24.7726 -0.623 -0.776 0.095 35 36 40
204.0722 381.7696 -24.5949 -0.805 -0.425 0.415 32 33 37
210.5802 380.8382 -25.8423 -0.056 -0.950 0.308 29 33 36
222.5217 390.9134 -27.5172 -0.751 -0.596 0.285 24 28 31
221.6437 387.8854 -27.5132 -0.764 -0.557 0.326 24 28 29
226.4357 392.8689 -28.1364 -0.712 -0.432 0.553 29 30 32
222.8601 380.8015 -28.1062 -0.536 -0.744 -0.399 38 40 39
223.4646 379.8982 -28.2647 -0.708 -0.252 0.659 27 29 28
215.3990 367.1086 -27.4451 -0.578 -0.425 0.697 27 29 28
220.4721 372.3597 -28.1061 -0.920 -0.388 -0.057 27 29 28
220.9322 371.2886 -28.2466 -0.920 -0.388 -0.057 27 28 30
217.1878 362.8746 -27.9951 -0.798 -0.545 0.256 25 24 29
217.0576 361.0482 -28.0662 -0.801 0.025 0.598 24 23 28
218.4725 356.3826 -28.5699 -0.462 -0.348 0.816 31 30 35
217.9689 354.1019 -28.5959 -0.487 -0.274 0.829 64 63 68
221.4657 344.2658 -29.7524 -0.587 -0.735 0.339 23 23 25
223.1915 344.8590 -30.0394 -0.587 -0.738 0.332 30 30 32
229.2057 341.3161 -31.3318 -0.379 -0.787 0.487 25 25 25
258.9664 341.2743 -36.8161 -0.615 0.146 0.775 29 31 28
258.4419 339.1434 -36.8305 -0.615 0.146 0.775 36 38 36
258.9427 336.5901 -37.0557 -0.940 -0.184 0.286 29 31 30
253.9465 329.6825 -36.4952 -0.645 0.352 0.679 26 27 29
259.8311 334.4675 -37.3299 -0.926 -0.196 0.323 31 32 34
256.4686 327.8492 -37.0552 -0.629 -0.538 0.561 29 30 33
260.8352 323.4336 -38.0896 -0.892 -0.380 -0.246 25 27 26
261.7925 322.9305 -38.2922 -0.896 -0.370 -0.246 24 29 23
261.2126 320.8548 -38.2934 -0.856 -0.419 -0.304 28 34 28
259.4470 317.5858 -38.1385 -0.044 -0.995 -0.090 32 38 32
304.6726 351.9788 -44.6780 0.160 -0.987 0.016 61 69 56
307.8454 345.3568 -45.6074 0.135 -0.884 0.447 61 68 54
272.8332 282.7067 -42.4210 0.178 -0.400 0.899 77 81 66
292.7894 297.1771 -45.3434 -0.982 0.031 0.184 67 74 58
303.9471 303.8644 -47.0504 0.185 -0.471 0.863 64 71 63
320.5873 315.0081 -49.5353 0.125 -0.426 0.896 64 71 65
357.1854 261.4589 -59.0661 -0.978 -0.035 0.207 75 87 73
331.1263 238.7219 -55.4500 -0.973 0.034 0.227 74 88 74
308.4343 218.9580 -52.2994 -0.970 0.133 -0.206 72 92 78
319.8673 223.5137 -54.1682 -0.998 -0.049 -0.037 73 91 77
314.5188 219.1790 -53.4087 -0.994 -0.108 0.012 73 89 76
351.1541 238.4066 -59.1557 -0.565 -0.767 0.304 77 93 75
318.0973 212.1919 -54.4318 -0.345 -0.639 0.688 78 92 73
357.1797 230.7024 -60.6670 -0.755 -0.625 0.197 77 89 72
336.3318 212.1031 -57.7954 0.076 -0.774 0.628 73 85 69
366.2160 227.0547 -62.5215 -0.588 -0.552 -0.591 73 86 71
378.0440 232.1628 -64.4343 -0.609 -0.512 -0.605 73 86 73
285.7392 150.8881 -51.6642 -0.900 -0.431 -0.066 73 90 74
286.8516 150.4900 -51.8899 -0.891 -0.446 -0.083 75 89 74
251.7294 128.8163 -46.5490 0.101 -0.294 0.950 80 94 79
276.1817 124.3395 -51.2865 -0.205 -0.182 0.962 83 95 85
22.2628 267.3334 2.4045 -0.852 0.034 0.523 83 81 96
19.4038 253.8928 2.2565 -0.167 -0.918 0.361 80 78 92
86.7519 439.5789 -0.8811 -0.769 0.191 0.610 32 30 44
133.5299 370.1530 -13.0987 -0.840 0.214 0.499 96 97 80
133.4739 361.2785 -13.5373 -0.342 -0.935 -0.096 48 46 51
202.8006 396.3782 -24.6623 -0.319 -0.948 0.019 27 28 30
205.9379 392.1160 -25.4617 -0.358 -0.915 0.188 29 30 34
219.1218 369.2078 -29.0742 -0.844 -0.537 0.014 27 28 30
217.5457 358.7797 -29.3085 -0.654 0.180 0.734 26 25 30
219.9018 360.2629 -29.6719 -0.797 0.059 0.601 34 33 38
217.7180 354.1277 -29.5759 -0.491 -0.267 0.829 57 56 61
220.5416 345.0083 -30.5628 -0.576 -0.764 0.291 24 24 26
221.4055 344.5254 -30.7480 -0.585 -0.743 0.324 24 24 26
225.1992 347.7074 -31.2930 -0.862 -0.506 0.017 25 25 27
274.4006 366.7904 -39.4832 -0.593 0.282 0.754 27 31 32
262.6749 344.0597 -38.4513 -0.538 0.278 0.796 53 58 51
261.2010 340.8862 -38.3376 -0.538 0.278 0.796 46 51 45
261.9187 323.3351 -39.3592 -0.896 -0.370 -0.246 27 36 27
300.0363 354.1999 -44.8908 0.217 -0.976 -0.030 44 53 43
302.1567 354.6835 -45.2609 0.217 -0.976 -0.030 48 57 46
313.0887 353.9304 -47.3333 -0.578 -0.815 0.029 56 68 51
304.2517 342.1978 -46.2825 -0.080 -0.931 0.357 59 70 53
329.7396 349.8894 -50.6363 -0.947 -0.297 -0.123 68 76 62
287.5430 308.4485 -44.8808 -0.883 -0.400 0.247 67 76 62
247.2862 268.2306 -39.4243 0.144 -0.405 0.903 70 78 65
281.4080 286.2722 -44.8612 0.168 -0.377 0.911 67 80 58
355.4869 317.7014 -57.0562 -0.442 -0.897 -0.008 80 92 76
324.6581 283.9727 -53.0258 -0.898 -0.405 -0.175 78 92 75
325.1442 282.9557 -53.1677 -0.898 -0.405 -0.175 79 93 76
306.6549 265.2451 -50.6232 -0.857 -0.494 0.147 79 93 76
298.9855 197.2026 -52.6387 -0.822 -0.165 0.545 77 93 74
310.5709 185.6762 -55.3778 -0.708 -0.414 0.572 76 95 72
19.3299 260.2816 2.0781 -0.987 0.142 0.080 64 62 87
19.1799 253.6125 1.7788 -0.173 -0.919 0.354 81 79 93
85.4439 436.2375 -1.7091 -0.769 0.192 0.610 33 31 45
118.1995 362.0825 -11.5076 -0.597 -0.074 0.799 61 61 51
118.3107 360.5552 -11.6035 -0.630 -0.156 0.761 59 58 52
134.2351 375.6606 -13.8551 -0.827 0.208 0.522 71 73 57
132.8210 371.0119 -13.8176 -0.834 0.212 0.510 87 88 71
124.0526 346.6600 -13.3652 -0.811 0.345 0.472 49 48 44
129.4674 355.6281 -13.9426 -0.507 -0.827 -0.241 48 46 46
130.2466 355.4518 -14.0977 -0.506 -0.826 -0.247 49 47 50
204.0346 408.0708 -25.3839 -0.894 0.109 -0.435 32 33 35
202.5544 396.4410 -25.6768 -0.319 -0.948 0.019 30 31 33
202.3665 394.3240 -25.7454 -0.362 -0.928 0.085 27 28 30
217.8242 378.0558 -29.4498 -0.666 -0.437 -0.605 28 30 29
211.1708 362.0587 -28.9847 -0.568 -0.495 0.658 27 29 28
213.5715 363.6903 -29.3559 -0.799 -0.418 0.432 27 29 26
220.7531 368.4245 -30.4733 -0.219 -0.524 0.823 24 23 28
217.1506 353.7382 -30.5173 -0.704 -0.709 0.038 50 49 54
218.9681 351.2795 -30.9797 -0.001 -0.784 0.620 24 24 26
221.4624 352.8932 -31.3693 -0.015 -0.781 0.624 18 18 20
219.7615 345.9341 -31.3913 -0.681 -0.673 0.288 24 24 26
224.5380 348.8049 -32.1482 -0.862 -0.506 0.017 22 23 25
225.0733 347.8877 -32.2939 -0.862 -0.506 0.017 18 19 21
225.6083 346.9713 -32.4394 -0.862 -0.506 0.017 17 18 20
224.8773 341.3548 -32.5778 -0.431 -0.809 0.401 32 30 35
228.8749 341.5643 -33.3190 -0.404 -0.764 0.503 27 25 28
272.7034 365.2179 -40.3960 -0.592 0.277 0.757 26 30 31
258.9462 338.7384 -39.1103 -0.538 0.278 0.796 44 49 45
248.4769 321.4106 -37.9932 -0.729 -0.165 0.664 36 41 45
271.0811 333.0258 -41.6718 -0.881 -0.211 -0.424 26 36 26
293.9932 345.2225 -45.3797 0.099 -0.994 0.052 49 60 45
290.3110 309.7417 -46.4299 -0.847 -0.458 0.270 68 80 61
251.9674 270.0700 -41.1704 0.178 -0.410 0.894 77 69 73
265.0650 276.3977 -43.3217 0.176 -0.410 0.895 73 79 67
274.6315 282.0224 -44.8437 0.174 -0.405 0.898 67 84 60
365.4240 225.6476 -64.6784 -0.505 -0.594 -0.626 77 96 76
372.1628 168.5491 -68.7489 -0.359 -0.044 0.932 83 99 81
19.0973 258.4192 1.5175 -0.987 0.150 0.052 70 68 90
133.8586 409.8786 -13.0595 -0.861 -0.298 -0.413 90 85 91
133.4568 374.5934 -14.6632 -0.827 0.208 0.522 56 57 47
133.3674 372.6107 -14.7406 -0.810 0.280 0.515 74 74 62
134.6516 364.5332 -15.3690 -0.963 0.076 -0.260 48 46 51
191.7215 403.6156 -24.3433 -0.327 -0.907 0.266 41 40 38
209.1221 418.5891 -26.9340 -0.301 -0.654 0.694 35 36 38
217.7977 380.1527 -30.4112 -0.788 -0.356 -0.503 23 25 24
218.4883 379.3826 -30.5790 -0.789 -0.356 -0.500 28 30 29
220.3477 380.2416 -30.8911 -0.822 -0.327 -0.467 32 34 33
214.6748 365.5761 -30.5123 -0.807 -0.408 0.426 31 33 30
218.5085 367.4473 -31.1511 -0.435 -0.267 0.860 25 26 28
215.6275 356.9522 -31.1038 -0.660 0.184 0.729 23 22 27
218.6698 354.4658 -31.7998 -0.916 -0.396 -0.063 27 26 31
218.8264 351.4454 -31.9733 -0.699 -0.632 0.335 24 24 26
226.4503 348.3594 -33.5677 -0.925 -0.378 -0.047 10 10 12
270.6009 363.1875 -41.2440 -0.587 0.276 0.761 26 30 30
256.7190 336.6170 -39.8735 -0.538 0.278 0.796 42 47 41
252.0474 321.0434 -39.7280 -0.291 -0.936 0.198 26 31 32
255.8321 323.5349 -40.3280 -0.284 -0.939 0.196 25 31 31
286.8580 343.1379 -45.2851 -0.780 -0.383 -0.495 38 48 37
293.8047 343.7279 -46.5759 0.089 -0.993 0.073 47 62 40
295.9203 344.2251 -46.9539 0.089 -0.991 0.096 47 62 39
297.6458 344.3264 -47.2766 0.086 -0.991 0.100 47 62 39
301.3034 344.7023 -47.9532 0.069 -0.980 -0.188 55 70 47
334.0363 366.1619 -53.1460 -0.261 -0.955 0.140 58 76 50
325.8747 356.7772 -52.0433 -0.313 -0.904 -0.291 60 78 52
245.9723 264.9731 -41.2442 -0.949 -0.207 0.238 72 64 69
246.1810 263.9140 -41.3343 -0.949 -0.207 0.238 68 59 64
21.2611 263.7717 0.8359 -0.812 -0.012 0.583 86 84 98
130.1032 404.1528 -13.5601 -0.555 -0.743 -0.374 77 69 83
136.8048 412.8922 -14.4421 -0.911 -0.172 -0.374 94 90 91
133.4067 386.0679 -15.0275 -0.961 0.058 -0.271 88 86 88
132.3176 370.9968 -15.5137 -0.810 0.280 0.515 70 70 66
125.9184 354.6635 -15.0400 -0.790 0.350 0.503 90 90 87
121.0275 339.9651 -14.7800 -0.763 0.328 0.557 57 56 60
207.6295 416.6759 -27.8478 -0.278 -0.628 0.727 46 48 49
224.1965 382.4906 -32.6010 -0.892 0.142 0.428 40 40 42
221.7101 377.3194 -32.3627 -0.946 0.231 0.226 32 34 33
217.1250 369.3118 -31.8528 -0.866 0.116 0.487 45 47 46
217.1573 365.9901 -32.0122 -0.872 0.088 0.482 30 31 33
217.7778 358.5375 -32.4749 -0.674 -0.627 0.391 24 23 28
217.2275 356.1750 -32.4783 -0.631 -0.644 0.432 24 23 28
217.4697 353.2505 -32.6596 -0.917 -0.399 -0.026 23 22 27
272.4319 382.7130 -41.8396 0.051 -0.937 0.346 22 23 25
264.0429 352.8934 -41.6062 -0.590 0.277 0.758 36 41 35
255.6834 342.0108 -40.5052 -0.578 0.294 0.761 35 42 35
253.4266 328.7695 -40.6831 -0.666 -0.261 0.699 40 47 40
245.4555 318.7460 -39.6170 -0.692 0.235 0.683 34 44 37
244.7347 316.5172 -39.5816 -0.692 0.235 0.683 30 39 32
251.6904 320.9461 -40.7110 -0.291 -0.936 0.198 26 33 28
278.8276 338.4289 -45.1082 -0.269 -0.812 0.518 35 45 34
251.3666 273.7873 -42.8237 -0.905 -0.111 0.411 76 91 72
243.5038 259.3036 -41.9840 -0.660 -0.702 0.268 69 70 64
19.5700 267.6537 0.8102 -0.992 0.062 -0.111 30 28 51
20.8807 264.5140 0.4163 -0.851 0.039 0.524 79 77 92
81.7515 431.7432 -3.9087 -0.640 0.168 0.750 30 28 42
146.4427 430.3680 -16.4965 -0.619 -0.577 -0.532 82 77 71
131.2766 369.3965 -16.2804 -0.810 0.280 0.515 64 66 66
189.0848 400.1901 -26.1000 -0.367 -0.905 0.214 39 43 35
217.3808 371.7446 -32.8484 -0.904 0.070 0.422 40 42 41
217.2061 369.8053 -32.9011 -0.904 0.070 0.422 58 60 59
212.3227 358.1516 -32.4755 -0.784 -0.456 0.422 23 22 27
213.1932 356.0547 -32.7376 -0.373 -0.833 -0.408 25 24 29
213.5509 354.9064 -32.8581 -0.551 -0.828 0.100 34 33 38
216.5777 357.3066 -33.3371 -0.553 -0.794 -0.253 37 36 41
216.3977 355.4375 -33.3856 -0.570 -0.808 -0.153 36 35 40
217.2174 354.8940 -33.5686 -0.570 -0.808 -0.153 36 35 40
218.3959 354.8182 -33.8002 -0.819 -0.495 -0.290 34 33 38
271.7621 382.2821 -42.9083 0.051 -0.937 0.346 21 21 23
261.8197 355.5945 -42.1739 -0.953 0.247 0.178 27 31 34
263.6268 356.0003 -42.5057 -0.594 0.216 0.775 26 30 31
248.2322 337.1300 -40.3668 -0.587 0.205 0.783 26 30 28
274.0040 359.3304 -44.3665 -0.899 -0.283 -0.334 24 29 23
242.7036 316.0832 -40.2354 -0.662 -0.220 0.716 29 39 26
248.8295 271.7204 -43.4010 -0.945 -0.219 -0.245 76 89 71
238.6493 257.6771 -42.0564 -0.997 -0.069 0.028 70 59 66
242.8021 260.1126 -42.7518 -0.569 -0.753 0.330 58 51 53
245.9000 260.3649 -43.3404 -0.988 -0.150 0.041 75 81 67
133.1329 382.8183 -16.9581 -0.863 -0.426 -0.272 73 72 70
123.4041 360.9106 -16.0006 -0.857 -0.497 -0.137 67 66 64
126.4047 358.3137 -16.6992 -0.823 0.317 0.471 77 78 79
149.9662 382.9924 -20.2420 -0.106 -0.948 -0.301 40 44 42
145.3221 372.3981 -19.7908 -0.305 -0.951 -0.039 37 42 40
143.6836 367.5484 -19.6795 -0.747 0.237 0.621 37 42 40
187.6540 400.1480 -26.8712 -0.376 -0.903 0.208 50 60 45
188.5298 399.7401 -27.0601 -0.376 -0.903 0.208 50 60 45
211.4122 386.2900 -32.1142 -0.182 -0.172 0.968 24 28 31
222.1467 382.1971 -34.3896 -0.865 0.174 0.471 38 40 39
216.7303 369.5353 -33.8765 -0.904 0.070 0.422 60 62 59
215.5370 364.5393 -33.8586 -0.898 0.093 0.429 37 38 40
211.9146 357.9666 -33.4338 -0.784 -0.456 0.422 23 22 27
213.3114 354.9474 -33.8371 -0.551 -0.828 0.100 36 34 39
219.6566 356.8280 -34.9966 -0.534 -0.822 -0.197 40 39 44
221.4307 357.5143 -35.3139 -0.551 -0.811 -0.197 23 23 25
229.4231 348.2868 -37.2746 -0.392 -0.795 0.463 21 19 22
231.0066 348.6435 -37.5688 -0.402 -0.800 0.445 24 22 27
255.7059 341.0811 -42.7243 -0.984 -0.143 -0.109 37 39 36
254.9268 338.6603 -42.6764 -0.988 -0.136 -0.076 37 39 36
244.0670 322.2366 -41.2612 -0.539 0.265 0.800 42 47 41
238.1018 259.8270 -42.7860 -0.932 -0.182 0.314 77 81 72
238.6988 257.9199 -42.9849 -0.996 -0.086 -0.007 66 56 62
244.7075 261.9872 -43.9844 -0.584 -0.729 0.357 65 58 60
19.3936 269.7898 -0.1260 -0.994 0.103 0.030 24 22 35
19.7297 269.4245 -0.2076 -0.998 -0.061 -0.022 28 26 39
18.4223 261.2549 -0.2895 -0.980 0.176 0.091 47 44 62
18.7146 259.2009 -0.4327 -0.985 0.154 0.075 63 61 75
117.2493 419.3441 -13.2206 -0.780 -0.374 -0.502 41 34 42
118.5990 420.5373 -13.4374 -0.781 -0.416 -0.465 39 32 40
124.1185 431.9677 -14.0513 -0.972 -0.001 0.234 40 33 41
122.5094 357.8170 -16.8198 -0.929 -0.294 -0.225 63 62 60
126.8845 358.0297 -17.6747 -0.984 -0.150 -0.095 51 53 49
127.1379 356.8120 -17.7754 -0.980 -0.167 -0.113 46 48 45
132.1503 365.0458 -18.4222 -0.998 -0.003 0.063 53 55 52
130.6074 322.9137 -19.8712 -0.051 -0.972 -0.228 42 49 42
186.4635 398.6323 -27.7470 -0.364 -0.915 0.175 63 78 57
187.3469 398.2443 -27.9376 -0.364 -0.915 0.175 61 76 56
205.6871 414.9928 -30.8613 -0.307 -0.591 0.746 73 83 74
204.2997 399.5625 -31.2296 -0.943 0.291 -0.164 23 28 24
205.0676 393.4076 -31.6374 -0.795 -0.483 -0.367 38 41 46
206.6167 393.9512 -31.9206 -0.960 -0.080 -0.268 40 41 45
206.0733 391.3116 -31.9232 -0.956 -0.094 -0.278 39 40 44
207.2920 391.3466 -32.1623 -0.967 -0.156 -0.199 30 31 35
218.7263 402.9724 -33.9358 -0.294 -0.244 0.924 18 22 25
220.7757 387.7475 -34.9741 -0.090 -0.166 0.982 23 28 26
221.3629 386.7992 -35.1295 -0.136 -0.132 0.982 27 32 29
221.3250 383.2081 -35.2715 -0.084 -0.221 0.972 32 37 33
219.7410 377.5070 -35.1960 -0.861 0.173 0.477 30 34 32
216.4221 369.4951 -34.8743 -0.876 0.101 0.472 47 52 48
215.8093 365.2863 -34.9285 -0.894 0.077 0.441 35 35 37
211.5068 357.7817 -34.3914 -0.784 -0.456 0.422 24 23 29
214.6116 358.6875 -34.9666 -0.371 -0.831 -0.414 27 22 28
217.4013 357.4867 -35.5674 -0.545 -0.801 -0.247 35 33 38
228.5655 367.1955 -37.3674 -0.618 -0.563 0.549 23 23 25
242.2050 366.0980 -40.1058 0.242 -0.782 0.574 19 21 23
252.8763 341.3800 -43.2413 -0.623 0.228 0.748 49 55 49
252.1552 339.0134 -43.1974 -0.985 -0.157 -0.068 49 54 48
245.9952 327.6170 -42.4556 -0.242 -0.614 0.751 53 58 52
244.7978 324.8070 -42.3362 -0.674 -0.265 0.689 51 56 50
246.1645 324.8007 -42.6063 -0.681 -0.258 0.685 51 57 49
245.1967 322.2631 -42.5208 -0.668 -0.252 0.700 51 57 48
247.3756 317.2272 -43.1606 -0.278 -0.879 0.387 57 65 45
264.3343 332.0616 -45.8912 -0.070 -0.640 0.765 65 74 56
246.8186 302.3423 -43.6701 -0.355 -0.443 0.823 67 78 64
224.7901 250.4985 -41.4789 -0.997 -0.016 -0.076 75 88 69
244.3309 261.8580 -44.8640 -0.584 -0.729 0.357 76 70 71
227.8321 242.7218 -42.4032 -0.904 -0.215 0.369 77 92 70
18.5893 262.4474 -0.7942 -0.980 0.176 0.091 46 44 58
89.3594 456.4856 -7.1159 -0.181 -0.937 -0.300 41 39 50
112.3513 436.3040 -12.5083 -0.819 -0.362 0.446 30 29 37
113.6868 437.5578 -12.7242 -0.785 -0.390 0.481 30 29 37
120.9266 442.6613 -13.9625 -0.717 0.216 0.662 35 32 41
130.3937 445.8161 -15.7229 -0.929 0.101 0.357 40 33 41
125.9704 424.0443 -15.7147 -0.704 0.254 0.663 42 39 50
126.8965 362.0218 -18.3874 -0.912 0.270 0.309 50 53 45
126.8910 358.5251 -18.5266 -0.984 -0.150 -0.095 44 47 39
131.5471 366.0974 -19.1509 -0.956 -0.248 -0.158 42 45 37
133.9435 369.0982 -19.5081 -0.986 -0.150 -0.070 47 50 43
144.1942 374.7897 -21.3230 -0.703 0.180 0.688 46 52 43
143.0585 370.8409 -21.2550 -0.172 -0.985 0.018 46 52 42
141.0215 365.2163 -21.0747 -0.799 0.256 0.544 43 49 40
131.3654 315.6289 -21.1393 -0.251 -0.863 -0.438 70 84 67
179.1772 388.7253 -27.7368 -0.362 -0.879 0.310 74 89 68
207.5073 414.5318 -32.3483 -0.103 -0.691 0.715 51 61 53
209.7094 414.1803 -32.8013 -0.268 -0.630 0.729 28 38 30
207.4523 406.8152 -32.6469 -0.964 0.183 -0.192 27 34 27
206.9473 404.1448 -32.6534 -0.964 0.183 -0.192 27 34 27
202.4453 393.4581 -32.1847 -0.789 -0.494 -0.365 28 34 33
204.8244 395.3001 -32.5850 -0.805 -0.466 -0.367 29 34 37
204.9149 393.6132 -32.6707 -0.787 -0.489 -0.375 32 35 40
205.5549 390.9597 -32.9048 -0.963 -0.079 -0.257 32 36 39
205.8259 389.5659 -33.0147 -0.962 -0.087 -0.260 38 42 45
216.1131 395.8528 -34.8129 -0.159 -0.181 0.971 37 41 42
207.5768 381.4970 -33.6874 -0.182 -0.172 0.968 32 36 37
213.7182 359.4983 -35.7940 -0.371 -0.831 -0.414 25 20 27
213.7046 356.1977 -35.9237 -0.547 -0.831 0.102 25 20 26
221.3088 358.0731 -37.3642 -0.669 -0.663 0.336 23 21 24
184.5065 302.9256 -32.2411 -0.203 -0.976 0.080 23 21 24
261.0846 355.7360 -45.3861 -0.992 -0.112 -0.066 47 56 50
219.6288 292.1797 -39.6727 -0.174 -0.962 0.212 65 77 56
234.3089 295.3918 -42.4699 -0.588 0.286 0.757 69 82 65
219.3652 276.1711 -40.2624 -0.630 -0.113 0.768 74 87 70
220.4453 274.7109 -40.5363 -0.485 -0.128 0.865 73 88 69
231.6210 254.4465 -43.5768 -0.974 -0.209 0.082 75 84 72
240.0346 258.2793 -45.1000 -0.998 -0.067 0.018 85 86 82
236.4418 253.9162 -44.5590 -0.863 -0.093 0.497 89 92 83
19.4153 266.1314 -1.3402 -0.987 0.161 0.004 45 43 57
18.3197 260.4107 -1.3406 -0.981 0.169 0.092 57 55 69
22.1778 269.9426 -1.7489 -0.809 -0.143 0.571 76 74 87
22.5748 269.7796 -1.8350 -0.223 -0.649 0.727 81 79 92
23.1681 265.5446 -2.1180 -0.214 -0.965 -0.148 68 66 79
23.5867 265.4651 -2.2053 -0.214 -0.965 -0.148 43 41 54
121.2223 430.5726 -15.4764 -0.974 -0.162 0.160 52 45 53
122.4188 431.3336 -15.6878 -0.973 -0.199 0.118 45 38 46
124.0776 433.2201 -15.9487 -0.970 -0.126 0.208 39 32 40
123.5090 412.4918 -16.6347 -0.164 -0.981 -0.101 53 49 63
130.2319 365.7230 -19.7933 -0.941 0.176 0.290 56 59 47
133.9335 369.5729 -20.3895 -0.986 -0.150 -0.070 50 54 42
138.2123 340.3965 -22.3771 0.076 -0.960 -0.270 75 79 64
139.1855 340.5269 -22.5678 0.076 -0.960 -0.270 76 82 67
203.3376 395.2818 -33.3624 -0.805 -0.466 -0.367 33 39 37
209.0591 398.5562 -34.3872 -0.162 -0.148 0.976 34 38 41
214.7015 390.5789 -35.8306 -0.151 -0.108 0.983 36 40 39
215.1536 380.5721 -36.3080 -0.145 -0.184 0.972 34 40 36
216.7717 375.8933 -36.8143 -0.145 -0.159 0.977 33 40 33
217.3410 374.9607 -36.9648 -0.422 -0.180 0.889 25 35 27
214.2016 360.5216 -36.8906 -0.740 -0.657 0.145 25 20 27
218.7975 358.4179 -37.8966 -0.551 -0.796 -0.249 20 16 21
223.2045 357.6201 -38.8142 -0.554 -0.779 0.296 23 22 24
226.1023 319.2941 -40.8772 -0.066 -0.973 0.223 50 64 50
218.6060 275.6352 -41.0546 -0.638 0.004 0.770 82 97 76
224.0269 277.2545 -42.0828 -0.718 -0.192 0.669 79 97 74
227.7541 251.1904 -43.8392 -0.997 -0.073 0.002 80 92 77
227.4635 247.4073 -43.9268 -0.997 0.007 0.080 88 93 82
225.7007 244.6969 -43.6767 -0.716 -0.258 0.648 86 96 80
20.6072 269.5695 -1.9845 -0.951 -0.233 0.203 56 54 68
17.5411 256.4858 -1.8472 -0.992 0.112 -0.061 63 61 75
23.4704 265.5995 -2.7134 -0.098 -0.992 0.076 46 44 57
122.1834 445.0126 -16.1071 -0.846 0.255 0.469 35 32 39
112.9076 414.7460 -15.3461 -0.747 0.071 0.661 66 61 68
113.3113 409.3886 -15.6269 -0.355 -0.934 -0.040 47 42 49
122.0527 411.7587 -17.3145 -0.178 -0.979 -0.100 65 62 75
134.9677 433.5461 -19.1294 -0.267 -0.963 -0.030 75 71 84
132.2793 373.9459 -20.7948 -0.977 -0.114 -0.180 61 65 49
140.7577 362.1853 -22.9534 -0.393 -0.919 -0.036 77 84 65
140.6339 351.7639 -23.3149 -0.537 -0.546 -0.644 87 94 75
137.2734 343.9882 -22.9209 -0.318 -0.945 -0.081 96 104 84
138.2209 342.4517 -23.1703 0.042 -0.933 -0.357 98 106 85
139.1877 342.5688 -23.3624 0.042 -0.933 -0.357 98 105 86
140.9102 339.1909 -23.8376 -0.045 -0.991 -0.128 75 90 64
199.2784 404.1951 -33.2815 -0.286 -0.634 0.718 56 66 57
206.2747 411.5940 -34.4281 -0.259 -0.636 0.727 44 53 48
206.0320 398.0504 -34.8813 -0.235 -0.660 0.714 47 53 54
210.2292 389.8154 -36.0395 -0.161 -0.103 0.982 32 36 37
218.0323 394.0587 -37.4670 -0.118 -0.700 0.704 27 29 26
213.9987 379.3325 -37.1941 -0.384 -0.324 0.865 32 36 34
212.7498 375.8185 -37.0708 -0.520 -0.434 0.736 47 52 48
213.3142 374.8887 -37.2200 -0.520 -0.434 0.736 50 57 52
218.3285 371.5668 -38.3617 -0.772 0.077 0.631 30 32 31
216.5240 364.0365 -38.2746 -0.739 -0.669 0.080 21 22 21
224.9484 360.2425 -40.1266 -0.538 -0.800 0.266 30 34 31
227.2239 361.5345 -40.5409 -0.617 -0.783 0.082 29 33 30
243.2952 378.8139 -43.1642 -0.631 -0.717 0.296 43 45 43
217.8159 343.0226 -39.3168 -0.701 -0.446 0.557 38 45 41
227.6877 289.0798 -43.3235 -0.651 0.258 0.713 78 98 70
218.2375 272.9537 -42.0023 -0.630 -0.165 0.759 81 101 74
223.3756 276.8358 -42.9020 -0.718 -0.192 0.669 81 99 73
221.4225 242.2741 -43.7877 -0.999 0.027 0.029 81 98 74
20.0260 272.9259 -2.2839 -0.988 0.157 -0.012 26 24 38
20.4061 269.3948 -2.4875 -0.745 -0.627 0.227 48 46 60
17.0187 255.0821 -2.3025 -0.988 -0.107 -0.110 57 55 69
22.9309 265.7985 -3.1332 -0.092 -0.993 0.078 76 74 87
121.4299 412.9974 -18.0885 -0.705 0.258 0.661 64 61 70
120.2349 408.0684 -18.0190 -0.299 -0.602 0.740 75 72 81
142.0811 365.1446 -24.0260 -0.273 -0.959 -0.081 84 92 70
141.5150 352.1447 -24.3727 -0.537 -0.546 -0.644 96 104 80
140.5180 342.1327 -24.5247 0.067 -0.990 -0.122 94 104 78
207.4774 410.1490 -35.8321 -0.280 -0.626 0.728 40 50 42
207.6665 408.5431 -35.9281 -0.237 -0.697 0.677 38 48 40
205.2536 397.2969 -35.8337 -0.235 -0.660 0.714 42 46 47
203.5802 389.2612 -35.7766 -0.282 -0.619 0.733 54 57 62
204.0653 388.1969 -35.9140 -0.294 -0.616 0.731 45 49 52
206.4382 388.1807 -36.4011 -0.162 -0.101 0.982 22 26 29
206.7537 386.8601 -36.5127 -0.139 -0.131 0.982 30 34 37
215.3178 369.5123 -38.8862 -0.127 -0.321 0.938 28 33 29
231.1652 387.8040 -41.4842 -0.685 -0.618 0.385 23 29 23
216.3133 360.7944 -39.4006 -0.733 -0.668 0.131 24 29 23
218.8638 339.9790 -40.6645 0.112 -0.647 0.754 47 65 50
226.2346 289.1658 -43.9845 -0.429 -0.713 0.554 83 103 75
227.4503 287.7478 -44.2842 -0.776 -0.162 0.609 82 102 74
19.4134 269.5090 -2.8162 -0.769 -0.335 -0.544 27 25 39
20.2514 269.3952 -2.9935 -0.745 -0.627 0.227 45 43 57
22.7698 265.7734 -3.6381 -0.092 -0.993 0.078 87 85 98
110.8615 430.6560 -16.2473 -0.691 -0.292 0.661 63 63 65
111.4562 429.9671 -16.3939 -0.608 -0.191 0.770 48 48 50
112.6403 430.8257 -16.6096 -0.630 -0.164 0.759 46 46 48
114.2665 432.8221 -16.8781 -0.655 -0.083 0.751 41 41 43
119.9224 440.6397 -17.7821 -0.849 0.212 0.484 32 30 35
125.5994 421.4555 -19.6107 -0.153 -0.456 0.877 71 69 75
119.7756 397.4260 -19.2247 -0.770 -0.574 -0.279 90 88 93
120.3409 396.7358 -19.3651 -0.770 -0.574 -0.279 77 74 80
140.7750 363.1538 -24.7384 -0.271 -0.958 -0.089 89 98 72
140.8935 361.6447 -24.8143 -0.276 -0.957 -0.093 90 98 74
143.6514 365.0724 -25.2682 -0.282 -0.955 -0.090 92 101 75
138.8379 354.3893 -24.6363 -0.529 -0.630 -0.569 93 102 76
140.4180 353.9383 -24.9786 -0.537 -0.546 -0.644 86 95 67
142.4017 352.5280 -25.4372 -0.537 -0.546 -0.644 84 93 64
143.0646 352.0567 -25.5905 -0.537 -0.546 -0.644 89 98 70
204.0381 428.5494 -35.6008 0.120 -0.841 0.527 65 81 55
201.4321 410.5161 -35.6762 -0.916 -0.077 -0.394 58 69 57
203.1284 409.4235 -36.0644 -0.834 -0.275 -0.479 54 63 58
207.9140 405.6079 -37.1848 -0.296 -0.615 0.731 52 59 52
209.2685 405.8300 -37.4576 -0.276 -0.616 0.738 47 53 49
207.8877 385.3991 -37.8682 -0.047 -0.393 0.918 23 27 28
208.7222 384.8516 -38.0596 -0.047 -0.393 0.918 20 24 25
211.5473 369.7614 -39.1585 -0.839 -0.365 0.404 43 51 43
221.6995 376.9778 -41.0134 -0.554 -0.094 0.827 36 45 37
239.5380 397.8347 -43.9939 -0.160 -0.844 0.511 35 46 33
223.7999 372.9383 -41.5858 -0.683 -0.717 0.143 44 55 43
212.2839 338.2163 -40.3862 -0.647 -0.705 0.290 60 75 59
246.6525 355.0246 -46.9254 -0.049 -0.977 0.209 69 88 69
219.4243 291.6431 -43.4513 -0.839 -0.499 0.217 77 95 73
219.1766 286.0423 -43.5910 -0.294 -0.748 0.595 82 100 78
221.9232 287.5961 -44.1064 -0.443 -0.670 0.596 82 100 76
224.4508 287.5663 -44.6304 -0.387 -0.639 0.664 87 107 79
20.0968 269.3956 -3.4996 -0.745 -0.627 0.227 40 38 52
110.3323 432.2384 -17.0407 -0.684 -0.302 0.665 49 49 51
111.4062 430.5461 -17.3202 -0.627 -0.163 0.762 42 42 44
112.1280 430.1876 -17.4826 -0.627 -0.173 0.760 41 41 43
111.1019 416.4635 -17.7153 -0.715 0.143 0.684 35 33 38
112.5743 395.0615 -18.7199 -0.688 0.256 0.679 54 51 58
125.2707 421.3174 -20.5163 -0.158 -0.458 0.875 66 64 69
129.6774 427.4581 -21.2366 -0.225 -0.500 0.836 82 80 85
115.1724 389.2880 -19.4506 -0.635 -0.700 -0.327 88 86 91
138.4380 376.9123 -24.7127 -0.927 0.150 0.343 83 92 64
138.0064 374.2437 -24.7094 -0.927 0.150 0.343 82 91 62
144.3505 368.6064 -26.2180 -0.173 -0.984 0.031 94 103 75
143.3668 356.4150 -26.4097 -0.524 -0.565 -0.637 97 103 78
144.2223 352.9137 -26.7024 -0.568 -0.661 -0.490 87 93 68
145.2755 351.4625 -26.9696 0.087 -0.984 -0.155 85 95 66
146.0265 351.1355 -27.1371 0.081 -0.984 -0.160 81 93 60
150.9621 358.1929 -27.9380 0.095 -0.982 -0.161 76 92 55
202.4564 384.8303 -37.8248 -0.134 -0.200 0.971 17 20 25
202.5051 383.1238 -37.8905 -0.127 -0.216 0.968 11 14 19
203.0448 382.1610 -38.0346 -0.127 -0.216 0.968 17 20 25
210.5567 370.4667 -39.9844 -0.993 -0.111 0.047 40 47 40
210.3112 368.4179 -39.9998 -0.994 -0.103 0.039 43 50 43
206.4662 361.3547 -39.4269 -0.793 -0.448 0.413 48 56 50
221.4854 368.4940 -42.3311 -0.397 -0.718 0.571 58 76 55
222.2999 367.8929 -42.5207 -0.397 -0.718 0.571 54 72 51
175.9925 301.6912 -35.0060 -0.438 -0.895 -0.082 53 72 52
174.8268 294.6898 -34.9906 -0.507 -0.787 0.352 55 79 55
203.5089 105.3801 -47.1472 -0.857 0.233 0.459 90 104 79
19.2448 270.0475 -3.8387 -0.690 -0.469 -0.551 17 15 29
20.0227 271.3598 -3.9619 -0.855 -0.411 0.315 25 23 37
20.4227 271.2179 -4.0506 -0.938 -0.290 0.191 34 32 46
20.4474 269.6588 -4.1042 -0.929 -0.261 0.261 44 42 56
20.5427 268.3778 -4.1641 -0.964 -0.155 0.215 56 54 67
23.6910 263.8679 -4.9677 -0.109 -0.990 0.086 21 19 32
112.8771 430.6035 -18.5860 -0.666 -0.091 0.741 38 38 40
112.1754 424.2970 -18.6340 -0.874 0.105 0.474 39 39 41
111.7764 421.0575 -18.6505 -0.874 0.105 0.474 41 41 43
111.3821 417.8563 -18.6668 -0.874 0.105 0.474 50 48 53
122.7692 418.1165 -21.0586 -0.150 -0.883 0.444 57 55 60
124.0356 419.0159 -21.2976 -0.286 -0.464 0.839 62 60 65
119.3019 401.5584 -20.8421 -0.035 -0.948 0.317 75 73 78
120.4377 400.1622 -21.1249 -0.664 -0.690 -0.289 80 78 83
120.2549 397.7261 -21.1620 -0.770 -0.574 -0.279 73 71 76
140.4987 365.3193 -26.4351 -0.252 -0.968 0.014 110 119 88
143.8451 369.8987 -26.9982 -0.268 -0.963 -0.030 107 116 85
143.5121 357.1318 -27.3245 -0.567 -0.650 -0.506 96 101 83
143.9014 356.1453 -27.4372 -0.532 -0.561 -0.634 86 93 71
204.6541 407.0858 -38.6593 -0.334 -0.659 0.673 44 56 46
204.3808 391.7907 -39.0767 -0.895 -0.179 -0.409 31 35 37
203.7329 388.9908 -39.0271 -0.898 -0.165 -0.408 26 30 33
203.6070 379.8888 -39.2833 -0.273 -0.621 0.735 27 31 29
204.6874 372.7675 -39.7322 -0.619 0.052 0.784 35 40 37
203.3328 364.0127 -39.7186 -0.139 -0.183 0.973 48 54 49
210.1061 370.2241 -40.9532 -0.992 -0.124 0.019 54 61 56
210.2410 368.7090 -41.0287 -0.994 -0.103 0.039 57 63 59
201.1356 354.2845 -39.5576 -0.947 -0.320 0.019 63 68 65
216.7716 370.9725 -42.3348 -0.676 -0.144 0.722 60 71 61
240.3723 399.8004 -46.4135 -0.154 -0.820 0.551 67 90 64
183.9477 298.4807 -37.6683 -0.735 -0.502 0.455 70 93 64
246.4462 139.2283 -55.7866 -0.571 -0.348 0.744 88 107 79
249.5699 139.8497 -56.4256 -0.346 -0.378 0.859 86 105 77
229.0180 120.7899 -52.6861 -0.804 -0.027 0.594 84 98 73
19.2481 270.6558 -4.3603 -0.690 -0.469 -0.551 14 12 26
19.9384 271.6330 -4.4783 -0.917 -0.331 0.224 21 19 33
20.3437 271.5099 -4.5681 -0.935 -0.291 0.203 31 29 43
20.4705 270.3317 -4.6299 -0.943 -0.291 0.162 40 38 52
20.4781 268.7156 -4.6793 -0.968 -0.144 0.208 55 53 66
20.5684 267.4226 -4.7367 -0.964 -0.155 0.215 80 78 91
20.6490 266.1042 -4.7927 -0.824 -0.195 0.533 95 93 106
21.1530 266.3573 -4.8925 -0.821 -0.198 0.535 93 91 104
22.2867 265.6993 -5.1530 -0.095 -0.994 0.056 93 91 104
22.5413 265.0320 -5.2269 -0.079 -0.992 0.103 67 65 78
22.8847 264.6852 -5.3101 -0.165 -0.973 0.162 24 22 33
23.1638 264.1093 -5.3865 -0.160 -0.966 0.204 17 15 26
23.4615 263.6007 -5.4648 -0.172 -0.967 0.189 20 18 31
113.6340 447.2578 -19.2167 -0.536 -0.839 -0.092 32 32 34
112.0936 427.0088 -19.4873 -0.878 0.105 0.467 51 53 52
111.6216 423.5517 -19.4891 -0.874 0.105 0.474 44 44 46
111.2265 420.3219 -19.5004 -0.874 0.105 0.474 28 28 30
110.5469 414.2232 -19.5361 -0.870 0.122 0.479 45 43 48
118.7795 398.9134 -21.7392 -0.724 -0.605 -0.332 71 69 74
120.5452 401.0159 -22.0526 -0.669 -0.689 -0.278 74 72 77
121.5443 401.3125 -22.2563 -0.159 -0.979 -0.129 70 68 73
122.3710 401.2014 -22.4354 -0.159 -0.979 -0.129 59 57 62
143.1217 376.1704 -27.5881 -0.240 -0.969 -0.055 91 100 74
136.4601 353.0027 -26.8557 -0.085 -0.981 0.174 94 103 77
204.4143 416.8018 -39.4231 -0.912 -0.089 -0.400 51 65 48
206.8812 401.6187 -40.3963 -0.422 -0.638 0.644 34 44 38
205.6363 397.8326 -40.2434 -0.907 -0.140 -0.396 31 41 35
204.1593 377.6120 -40.5266 -0.243 -0.634 0.734 48 59 45
205.6167 378.0038 -40.8250 -0.638 -0.043 0.769 51 62 50
202.9584 368.9493 -40.5271 -0.629 0.052 0.776 55 65 55
210.4207 376.2411 -41.8988 -0.391 -0.383 0.837 62 72 62
174.5997 301.8456 -36.4783 -0.401 -0.916 -0.030 67 92 63
184.9004 311.2165 -38.3922 -0.405 -0.831 0.382 70 99 68
174.1292 287.6881 -36.7965 -0.873 -0.309 0.377 73 98 66
182.4433 296.8739 -38.2933 -0.722 -0.553 0.417 75 99 67
194.2612 310.3748 -40.4078 -0.689 -0.511 0.514 77 98 67
20.2655 270.1447 -5.1335 -0.948 -0.255 0.190 45 43 56
20.2847 268.5705 -5.1818 -0.964 -0.155 0.215 66 63 75
20.4397 267.5182 -5.2445 -0.964 -0.155 0.215 87 84 95
20.8858 267.5553 -5.3392 -0.772 -0.564 -0.294 89 86 97
21.5779 265.2762 -5.5516 -0.329 -0.785 0.525 88 85 96
22.2977 264.7094 -5.7220 -0.513 -0.471 0.718 80 77 88
22.6416 264.3662 -5.8054 -0.515 -0.472 0.716 32 30 41
75.7181 416.2545 -12.9388 -0.611 -0.445 0.655 35 33 46
112.7192 436.1826 -20.3205 -0.655 -0.022 0.756 55 55 57
111.0673 425.0262 -20.2787 -0.657 -0.014 0.754 60 60 60
111.0575 422.7772 -20.3396 -0.678 0.029 0.734 54 54 56
111.2214 418.7995 -20.4863 -0.539 -0.529 0.656 32 30 35
111.3848 414.8733 -20.6313 -0.465 -0.882 -0.082 40 37 44
111.2932 410.3559 -20.7383 -0.389 -0.920 -0.039 47 44 51
111.2103 405.9242 -20.8447 -0.362 -0.929 -0.072 58 55 62
117.8285 415.9562 -21.9838 -0.552 -0.809 -0.203 53 50 57
121.9477 413.1963 -22.9451 -0.999 -0.035 0.032 66 64 69
121.7261 408.4953 -23.0292 -0.879 -0.318 -0.356 71 69 74
121.5811 406.0892 -23.0655 -0.875 -0.307 -0.374 68 66 71
131.2119 413.8161 -24.9157 -0.138 -0.973 -0.183 58 56 60
136.8233 369.8103 -27.3531 -0.851 0.266 0.453 84 94 70
136.6695 367.7279 -27.3784 -0.068 -0.982 0.177 86 94 71
139.9149 372.2598 -27.9479 -0.096 -0.972 0.215 86 94 71
140.7759 372.1331 -28.1362 -0.096 -0.972 0.215 86 94 71
210.6430 427.4243 -41.5797 -0.810 -0.411 -0.418 52 69 50
206.4339 416.6555 -40.9782 -0.900 -0.099 -0.424 50 66 52
205.2914 412.8781 -40.8389 -0.919 -0.074 -0.386 49 65 51
205.1954 410.7989 -40.8766 -0.918 -0.080 -0.389 49 65 50
205.9543 402.5064 -41.2718 -0.865 -0.256 -0.431 46 63 50
206.2309 401.0645 -41.3716 -0.422 -0.638 0.644 51 66 53
201.4628 375.7875 -41.0567 -0.285 -0.601 0.747 69 86 62
200.4803 370.8781 -40.9834 -0.268 -0.601 0.753 67 87 61
175.0338 302.7314 -37.4325 -0.493 -0.807 0.324 71 96 67
167.6874 282.3717 -36.4265 -0.883 -0.151 0.444 72 101 70
245.6851 139.0111 -57.1816 -0.671 -0.661 0.337 79 94 71
240.2494 135.7166 -56.1075 -0.609 -0.658 0.443 77 92 70
213.1003 112.1076 -50.9431 -0.839 -0.251 0.483 80 93 73
20.0924 270.0779 -5.6403 -0.967 -0.214 0.134 43 41 54
23.6606 263.8295 -6.5784 -0.295 -0.806 0.513 22 19 30
110.1250 423.2572 -21.0739 -0.690 0.044 0.723 69 69 69
110.2005 416.8483 -21.2601 -0.513 -0.539 0.668 44 42 47
114.3169 418.6488 -22.1036 -0.802 -0.439 -0.404 52 49 56
121.3070 420.8215 -23.5595 -0.805 -0.486 -0.342 47 44 51
121.8997 413.7164 -23.8761 -0.999 -0.035 0.032 72 70 75
121.9659 411.7722 -23.9420 -0.999 -0.035 0.032 74 72 77
130.8101 415.6003 -25.7554 -0.907 -0.075 -0.413 70 68 73
134.6152 422.1442 -26.4058 -0.076 -0.954 -0.290 71 69 73
168.3321 453.7413 -32.8686 -0.796 -0.581 -0.170 82 87 72
123.8182 344.7682 -26.1188 -0.897 -0.051 0.440 84 93 73
144.0963 377.2262 -29.6490 -0.230 -0.972 -0.037 82 90 70
136.9030 356.4533 -28.6421 -0.340 -0.918 -0.206 80 88 68
132.7651 346.9704 -27.9975 -0.512 -0.652 -0.559 85 92 73
148.5691 354.0436 -31.2318 0.075 -0.985 -0.156 86 97 65
143.7829 329.6602 -30.8418 -0.124 -0.759 0.640 55 73 50
208.6358 424.6559 -42.3657 -0.794 -0.423 -0.436 57 77 54
209.6801 424.3629 -42.5996 -0.770 -0.486 -0.413 57 76 56
206.3113 414.9954 -42.1184 -0.917 -0.072 -0.393 58 76 59
205.2852 405.6895 -42.1429 -0.868 -0.255 -0.427 60 77 60
216.2111 411.2403 -44.3614 -0.274 -0.569 0.775 68 85 66
192.0804 372.5257 -40.1628 -0.218 -0.641 0.736 70 88 68
200.7578 378.6544 -41.8791 -0.305 -0.578 0.756 67 89 62
196.8406 365.9358 -41.3681 -0.305 -0.951 -0.041 64 90 54
212.5312 378.3240 -44.4370 -0.504 -0.486 0.714 66 91 60
212.1931 376.0966 -44.4228 -0.556 -0.501 0.664 66 91 60
198.6938 199.2171 -46.1877 0.266 -0.760 0.593 76 96 68
20.0699 270.5835 -6.1655 -0.969 -0.213 0.127 41 39 52
20.5622 253.4272 -6.7016 -0.388 -0.920 0.064 22 19 28
110.7093 421.0417 -22.2060 -0.539 -0.540 0.646 73 71 76
111.2759 420.3054 -22.3481 -0.539 -0.540 0.646 64 62 67
112.8284 422.1022 -22.6424 -0.527 -0.542 0.655 65 63 67
