ply
format ascii 1.0
element vertex 849
property float x
property float y
property float z
property float nx
property float ny
property float nz
property uchar diffuse_red
property uchar diffuse_green
property uchar diffuse_blue
end_header
369.1299 166.2514 -52.0387 0.068 -0.988 0.135 101 85 88
374.9041 167.4314 -52.9998 0.282 -0.954 -0.103 99 84 87
373.0929 156.0810 -52.2349 -0.691 0.139 0.710 79 70 75
383.9376 157.7735 -54.0177 -0.834 -0.520 -0.186 106 96 104
330.9960 134.5220 -44.6818 -0.720 -0.651 -0.243 120 111 114
325.2212 131.6552 -43.6495 -0.587 -0.774 -0.237 122 113 116
364.6212 144.7493 -50.4197 -0.036 -0.979 -0.199 118 109 112
374.6712 146.0322 -52.0598 -0.364 -0.816 -0.449 113 104 105
375.3440 145.6363 -52.1493 -0.373 -0.812 -0.449 114 103 107
374.8341 144.7957 -52.0333 -0.347 -0.836 -0.425 106 93 100
375.0309 139.7586 -51.8518 -0.728 0.183 0.660 93 78 85
373.6926 136.7858 -51.5151 -0.841 -0.530 -0.110 88 76 86
373.8919 136.2367 -51.5234 -0.841 -0.533 -0.098 91 79 89
374.9727 135.9934 -51.6837 -0.834 -0.541 -0.109 93 83 92
373.0722 132.8970 -51.2531 -0.953 0.055 0.299 111 99 109
367.2159 113.9351 -49.5286 0.144 -0.765 0.628 109 99 108
330.4037 98.1412 -43.0528 -0.779 -0.172 0.603 90 83 91
346.9120 99.9717 -45.7352 -0.410 -0.615 0.673 93 87 97
347.8222 99.7196 -45.8682 -0.405 -0.626 0.667 93 87 97
350.9922 100.0166 -46.3809 -0.063 -0.841 0.537 95 89 99
354.2536 97.4420 -46.7869 -0.372 -0.873 0.316 106 99 107
356.4546 91.8286 -46.8974 0.007 -0.624 0.782 77 67 75
252.7477 407.0588 -44.7849 -0.571 0.243 0.784 27 29 28
221.1218 301.2497 -35.0888 -0.506 -0.746 0.433 37 45 29
299.5109 428.8286 -53.1986 -0.235 -0.864 -0.445 36 48 30
231.6451 300.3011 -36.7249 -0.929 -0.288 -0.231 45 56 42
232.6719 300.6777 -36.9052 -0.923 -0.358 -0.142 46 56 46
274.2285 321.1769 -44.4328 -0.638 -0.716 -0.284 45 56 40
345.1354 258.9022 -52.9998 -0.805 -0.455 0.381 75 81 69
345.2769 256.8716 -52.9331 -0.788 -0.577 0.213 74 80 70
346.6862 256.9777 -53.1624 -0.152 -0.606 0.781 74 80 70
366.9433 269.2854 -56.9336 -0.183 -0.340 0.923 70 76 66
367.6148 268.7028 -57.0151 -0.183 -0.340 0.923 70 76 66
373.6126 263.4160 -57.7389 -0.964 -0.245 -0.102 63 64 59
376.6096 237.2515 -57.0660 -0.730 -0.235 0.642 107 106 111
376.8679 236.4329 -57.0712 -0.730 -0.235 0.642 95 94 99
383.6607 237.0220 -58.1802 -0.801 -0.466 0.375 56 55 61
376.0400 228.0772 -56.5717 -0.622 -0.716 0.317 52 48 49
324.5564 193.6329 -46.8480 -0.442 -0.806 -0.394 53 49 48
366.3798 189.8675 -53.3510 -0.842 -0.505 0.189 94 74 85
367.5365 189.6922 -53.5277 -0.195 -0.897 -0.396 94 73 84
373.3044 190.3681 -54.4771 -0.591 -0.768 -0.248 108 87 98
374.9882 190.4521 -54.7492 -0.671 -0.733 -0.111 112 91 102
374.7594 189.5231 -54.6719 -0.686 -0.700 -0.201 111 94 102
374.7158 188.6954 -54.6285 -0.689 -0.700 -0.189 105 88 98
361.8243 171.4630 -51.8152 -0.176 -0.613 0.770 101 82 107
373.5550 172.6625 -53.7383 0.326 -0.792 0.517 96 81 88
373.0208 167.2809 -53.4165 0.283 -0.959 0.006 93 79 82
375.7366 167.0583 -53.8397 0.116 -0.976 0.184 90 78 82
322.1927 129.8763 -43.6670 -0.630 -0.704 -0.328 109 103 105
364.9610 144.8503 -51.1448 -0.025 -0.980 -0.195 108 102 104
375.0416 146.1395 -52.8089 -0.373 -0.812 -0.449 107 101 103
375.3774 144.9655 -52.8108 -0.347 -0.836 -0.425 101 90 96
371.1075 142.0895 -52.0035 -0.888 -0.413 0.203 101 88 97
373.2356 141.6039 -52.3214 -0.824 -0.188 0.535 100 87 96
371.9413 140.4980 -52.0664 -0.813 -0.158 0.560 96 83 92
374.2169 140.6930 -52.4378 -0.798 -0.106 0.594 91 78 87
372.3521 136.2799 -51.9464 -0.820 -0.437 0.370 79 69 78
372.6516 135.7682 -51.9717 -0.893 -0.364 0.266 79 69 78
364.2464 113.5991 -49.6565 0.205 -0.824 0.528 94 84 96
365.1053 113.3027 -49.7804 0.142 -0.761 0.632 112 102 111
360.3958 109.3766 -48.8568 -0.872 -0.245 0.424 111 101 109
346.6908 99.3964 -46.2326 -0.406 -0.616 0.675 90 84 94
350.7520 99.9118 -46.9029 -0.069 -0.841 0.536 94 88 98
367.3684 98.9380 -49.5095 -0.432 -0.273 0.860 90 80 88
363.2992 96.5606 -48.7561 -0.486 -0.222 0.845 81 71 79
356.3933 93.6246 -47.5258 -0.040 -0.084 0.996 63 53 61
355.7780 93.0258 -47.4014 -0.165 -0.023 0.986 66 56 64
355.8211 91.6455 -47.3476 -0.140 -0.792 0.594 69 59 67
357.8920 91.6152 -47.6764 -0.154 -0.774 0.614 68 58 66
358.7799 91.3356 -47.8057 -0.154 -0.774 0.614 73 63 71
359.9875 91.1198 -47.9887 -0.334 -0.619 0.710 81 70 78
360.5756 90.7757 -48.0674 -0.542 -0.408 0.735 81 70 78
359.8705 90.1710 -47.9284 -0.870 -0.309 0.383 80 69 77
322.5208 78.7180 -41.4694 -0.840 -0.515 -0.169 86 75 83
245.0392 371.3578 -42.8590 -0.399 0.208 0.893 41 44 42
219.5317 302.8343 -35.6147 -0.626 -0.306 0.717 42 48 36
219.9815 299.3328 -35.5269 -0.444 -0.653 0.613 44 51 32
263.8597 365.3354 -45.6152 -0.738 0.417 0.531 43 55 34
316.4892 415.1745 -56.3737 -0.119 -0.989 -0.083 48 56 45
274.2954 321.4562 -45.2886 -0.638 -0.716 -0.284 51 64 47
352.3397 267.2755 -55.3815 -0.746 -0.626 0.227 76 82 72
365.6332 268.2665 -57.5683 -0.183 -0.340 0.923 72 75 68
366.3021 267.6860 -57.6495 -0.183 -0.340 0.923 72 75 68
375.2491 268.0988 -59.1096 -0.079 0.010 0.997 85 86 81
371.2996 260.5611 -58.1285 -0.979 -0.198 -0.054 68 68 66
385.1728 265.6466 -60.5960 -0.916 -0.379 -0.132 66 66 65
369.9595 247.8218 -57.3298 -0.983 -0.175 0.052 68 62 64
308.0474 198.2666 -45.0889 0.202 -0.526 0.826 58 56 59
375.1915 238.2970 -57.7368 -0.866 -0.251 0.433 84 82 87
370.7402 234.2422 -56.8342 -0.108 -0.057 0.993 97 95 100
375.0609 236.2150 -57.6204 -0.551 -0.533 0.642 93 91 96
376.3469 235.1096 -57.7770 -0.495 -0.651 0.575 83 81 86
383.5038 236.9359 -59.0135 -0.593 -0.165 0.788 56 55 61
379.2719 226.3593 -57.8478 -0.448 -0.730 -0.516 66 62 63
379.6202 224.6808 -57.8271 -0.454 -0.727 -0.515 69 64 65
377.9763 222.6975 -57.4716 -0.268 -0.894 -0.359 66 56 59
373.1668 205.3521 -55.9032 -0.731 -0.210 0.649 74 67 64
370.7125 193.0285 -54.9439 -0.376 -0.854 -0.360 81 58 66
372.4330 191.5153 -55.1518 -0.216 -0.907 -0.362 88 65 74
374.8184 191.1645 -55.5200 -0.422 -0.864 -0.275 98 76 84
375.6530 190.7945 -55.6376 -0.422 -0.864 -0.275 104 82 90
374.7377 187.8942 -55.3574 -0.952 -0.280 0.124 90 75 82
375.4148 180.3678 -55.1221 -0.329 -0.798 0.505 119 105 127
373.5086 178.6583 -54.7368 -0.213 -0.858 0.466 119 104 129
366.5233 174.4770 -53.4202 -0.321 -0.832 0.452 118 104 129
366.7928 173.8647 -53.4356 -0.322 -0.829 0.458 110 96 121
374.5265 155.9341 -53.8610 -0.559 -0.817 0.143 84 79 83
366.7521 148.1038 -52.2504 -0.589 -0.803 -0.093 99 93 95
366.5019 147.3544 -52.1758 -0.588 -0.801 -0.111 99 93 95
364.4621 144.6255 -51.7223 -0.348 -0.863 0.367 98 92 96
371.8930 144.9113 -52.9324 0.249 -0.947 0.203 95 89 91
378.2301 146.0014 -54.0031 -0.368 -0.814 -0.450 95 84 92
373.8702 141.1654 -53.0795 -0.767 -0.109 0.632 92 79 88
372.1315 136.1655 -52.5707 -0.820 -0.437 0.370 85 75 84
372.4989 135.6775 -52.6075 -0.893 -0.364 0.266 83 73 82
379.0416 136.6956 -53.7081 -0.481 0.219 0.849 76 66 75
356.6440 112.4744 -48.9918 0.168 -0.793 0.586 81 70 86
363.4103 112.2542 -50.0717 0.098 -0.725 0.681 108 98 106
359.2646 109.0273 -49.2562 -0.858 -0.302 0.416 106 96 104
345.2057 99.4598 -46.5537 -0.347 -0.496 0.796 90 84 94
346.7731 99.3712 -46.8022 -0.304 -0.638 0.707 90 84 94
355.2395 91.4734 -47.8046 -0.146 -0.791 0.595 71 61 69
358.2219 91.1695 -48.2711 -0.209 -0.778 0.592 73 63 71
359.3780 90.9437 -48.4470 -0.214 -0.780 0.588 75 64 72
359.8252 90.5718 -48.5021 -0.248 -0.633 0.734 75 64 72
334.1513 82.0474 -43.9763 -0.352 -0.801 -0.485 74 63 71
236.3009 396.7532 -43.5187 -0.951 -0.259 0.168 28 41 22
236.7720 349.5804 -41.3530 -0.402 0.202 0.893 43 52 42
219.2753 313.0984 -36.7715 -0.600 0.262 0.756 43 52 42
218.6498 298.4849 -35.9751 -0.392 -0.852 0.348 48 57 36
266.5849 372.2830 -47.2837 -0.738 0.417 0.531 48 62 37
328.8804 415.2529 -59.4638 -0.236 -0.762 0.603 57 66 58
372.2242 261.3203 -59.2002 -0.971 -0.219 -0.091 80 82 78
384.6265 265.2729 -61.4064 -0.921 -0.371 -0.117 65 67 64
376.0111 234.9026 -58.5607 -0.498 -0.645 0.580 61 62 63
376.6454 234.3442 -58.6374 -0.498 -0.645 0.580 64 65 66
377.1466 233.6965 -58.6882 -0.495 -0.651 0.575 62 62 65
382.8903 236.5452 -59.7583 -0.608 -0.159 0.778 56 56 58
377.4525 225.2058 -58.3344 -0.439 -0.727 -0.528 87 86 84
375.8085 218.5599 -57.7509 -0.366 -0.752 -0.548 72 63 64
374.6884 216.9475 -57.4920 -0.879 0.246 0.408 75 66 65
383.2601 214.8513 -58.7873 -0.617 -0.305 0.725 63 59 52
379.8837 211.9441 -58.0996 -0.603 -0.273 0.749 63 59 54
379.0234 207.8844 -57.7667 -0.583 -0.278 0.763 74 70 66
372.3887 193.1161 -55.9850 -0.367 -0.888 -0.277 74 51 56
373.2893 192.7847 -56.1158 -0.367 -0.888 -0.277 73 50 56
375.3242 187.3875 -56.1904 -0.864 -0.440 0.244 92 79 86
375.6414 186.7526 -56.2118 -0.864 -0.440 0.244 92 81 87
377.3267 186.8206 -56.4893 -0.866 -0.428 0.259 102 91 97
377.6366 186.1808 -56.5093 -0.866 -0.428 0.259 116 105 109
372.1468 181.0457 -55.3718 -0.656 -0.646 0.389 116 104 112
371.6527 180.0264 -55.2430 -0.526 -0.755 0.391 114 103 116
364.2311 171.1342 -53.6126 -0.976 -0.012 0.218 110 100 121
382.0844 156.9293 -55.8427 -0.514 -0.855 -0.067 96 91 97
380.5167 155.6009 -55.5244 -0.658 0.060 0.751 95 90 94
369.5175 147.8600 -53.3665 -0.775 0.021 0.632 87 81 83
365.6985 143.7970 -52.5519 -0.512 -0.858 -0.050 86 80 82
375.4077 145.5589 -54.2157 0.249 -0.947 0.203 87 78 83
377.6483 141.8634 -54.4046 -0.787 -0.113 0.606 91 78 87
371.7512 138.4761 -53.2840 -0.702 0.097 0.706 91 78 87
370.5500 136.1905 -52.9799 -0.713 0.093 0.695 98 86 96
372.4879 136.2527 -53.2982 -0.475 0.202 0.857 95 85 94
354.6801 111.8746 -49.2414 0.168 -0.793 0.586 80 69 85
355.8260 111.6762 -49.4185 0.210 -0.813 0.543 80 69 84
358.1986 111.8182 -49.8113 0.232 -0.803 0.550 90 79 92
359.7095 111.7135 -50.0522 0.179 -0.663 0.727 103 93 102
362.4702 111.9498 -50.5127 0.127 -0.719 0.683 103 93 101
363.7037 111.7588 -50.7044 -0.650 -0.476 0.592 103 93 101
364.7204 111.5058 -50.8578 -0.937 0.119 0.327 103 93 101
360.4518 103.1780 -49.7673 -0.443 -0.349 0.826 90 84 94
361.5544 101.4506 -49.8646 -0.622 -0.279 0.732 102 96 106
366.8494 98.7190 -50.5964 -0.654 -0.207 0.727 100 90 98
361.3417 96.0270 -49.5722 -0.597 -0.108 0.795 90 80 88
355.0092 91.3749 -48.3206 -0.257 -0.809 0.528 83 73 81
353.8811 90.6816 -48.1040 -0.012 -0.997 0.071 80 70 78
336.5921 85.3941 -45.0392 -0.570 -0.314 0.759 73 62 70
335.0980 84.6740 -44.7618 -0.573 -0.357 0.738 74 63 71
333.1716 83.8747 -44.4103 -0.702 -0.158 0.694 75 64 72
241.6191 429.9770 -46.9377 -0.837 0.287 0.466 30 46 36
240.1760 391.2206 -44.7893 -0.780 0.314 0.542 42 61 37
256.5414 420.6985 -48.9331 -0.577 0.217 0.788 41 59 37
218.4069 298.2499 -36.6260 -0.470 -0.813 0.344 47 61 35
285.5052 346.1435 -50.0175 -0.338 -0.834 -0.437 59 74 56
198.1013 212.3459 -29.0519 -0.961 0.214 0.175 61 75 58
282.2310 297.0364 -47.0576 -0.398 -0.633 0.664 71 88 60
368.9923 263.2456 -59.6531 -0.081 0.014 0.997 78 86 73
376.0536 266.5704 -60.9778 0.033 -0.295 0.955 77 87 74
373.2038 259.9256 -60.1817 0.217 -0.175 0.960 86 92 84
359.0814 236.9041 -56.7249 -0.997 -0.073 0.028 63 66 67
382.7992 237.5034 -60.6532 -0.617 -0.160 0.770 52 56 52
379.2063 223.4956 -59.3718 -0.225 -0.904 -0.364 71 70 66
383.4122 214.9449 -59.6415 -0.604 -0.332 0.725 59 60 49
379.9363 211.9778 -58.9238 -0.594 -0.316 0.740 59 59 51
382.9458 212.8537 -59.4617 -0.572 -0.257 0.779 60 59 51
379.5417 209.0697 -58.7156 -0.604 -0.277 0.747 69 71 60
372.1838 193.8188 -56.7540 -0.238 -0.893 -0.381 76 54 57
373.2871 193.5969 -56.9244 -0.238 -0.893 -0.381 77 55 57
375.9091 186.0813 -56.9848 -0.507 -0.861 -0.051 103 92 96
376.6374 185.6583 -57.0836 -0.507 -0.861 -0.051 110 99 103
377.2045 178.8971 -56.8434 -0.572 -0.734 -0.367 110 101 117
369.1071 171.9812 -55.1713 -0.985 0.092 0.149 110 102 114
377.9529 156.5996 -55.8669 -0.150 -0.988 0.045 95 90 94
381.1818 156.5323 -56.3943 -0.543 -0.836 -0.086 96 91 95
374.7956 152.5833 -55.1498 -0.852 0.153 0.501 92 87 91
368.9087 148.9000 -54.0005 -0.918 0.296 0.266 80 74 76
374.4380 146.4630 -54.7892 0.229 -0.953 0.198 80 74 76
378.9995 146.2208 -55.5271 0.249 -0.947 0.203 84 73 81
377.9228 143.2147 -55.2018 -0.745 -0.154 0.649 82 69 78
372.7612 140.6907 -54.2289 -0.817 -0.092 0.570 82 69 78
375.5404 141.0644 -54.7042 -0.769 -0.072 0.635 81 68 77
345.1473 120.6157 -48.6997 -0.713 -0.701 -0.000 90 78 92
355.7269 118.5375 -50.3363 -0.191 -0.884 0.426 92 79 96
356.9153 111.4157 -50.1805 0.216 -0.815 0.538 90 79 92
357.3414 111.0117 -50.2306 0.190 -0.676 0.712 98 88 97
360.4956 111.3603 -50.7663 0.127 -0.719 0.683 97 87 95
363.4236 110.5795 -51.2091 -0.940 0.113 0.321 96 86 94
327.6291 99.5306 -44.7803 -0.855 0.036 0.517 95 85 93
327.3418 98.9992 -44.7068 -0.867 0.015 0.497 95 85 93
362.1919 101.5548 -50.5615 -0.505 -0.338 0.794 99 91 102
362.5045 101.1317 -50.5921 -0.540 -0.286 0.792 99 91 102
366.3655 98.5589 -51.0999 -0.895 -0.067 0.440 100 90 98
337.4302 85.5145 -45.7002 -0.587 -0.312 0.747 105 95 103
334.9710 84.6012 -45.2509 -0.568 -0.346 0.746 102 92 100
334.2869 82.3885 -45.0293 0.106 -0.588 0.802 88 78 86
224.3368 377.9488 -42.3855 -0.905 0.146 0.401 46 62 49
255.5430 418.9084 -49.6595 -0.602 0.238 0.763 43 66 38
223.4792 321.9619 -39.3823 -0.588 0.295 0.753 49 68 41
216.7552 299.6631 -37.1265 -0.473 -0.786 0.399 50 67 42
217.3164 299.2881 -37.2005 -0.473 -0.786 0.399 49 66 41
218.5131 300.1220 -37.4418 -0.389 -0.892 0.231 47 65 37
279.0719 342.8735 -49.6809 0.168 -0.502 0.848 63 79 54
364.2947 245.8048 -58.8704 -0.995 -0.086 -0.055 90 96 96
372.9778 229.9715 -59.5031 -0.231 -0.053 0.972 51 57 50
387.1425 229.4895 -61.8302 -0.289 -0.816 -0.500 74 78 71
381.9868 214.1003 -60.1878 -0.617 -0.305 0.725 57 61 47
379.2842 211.5944 -59.6111 -0.594 -0.316 0.740 57 59 48
382.7762 212.7558 -60.2502 -0.629 -0.312 0.712 59 61 50
380.2511 210.3747 -59.7093 -0.539 -0.106 0.835 64 66 55
378.8861 208.6883 -59.3965 -0.594 -0.267 0.759 69 73 59
372.6546 194.0694 -57.6149 -0.237 -0.897 -0.374 81 62 61
374.8771 193.6275 -57.9613 -0.237 -0.897 -0.374 82 63 62
373.7872 192.2194 -57.7084 -0.416 -0.881 -0.227 100 81 79
372.5555 185.9304 -57.1826 -0.820 -0.456 0.347 102 91 95
370.7764 184.2216 -56.7999 -0.775 -0.496 0.391 101 92 95
370.7867 179.5651 -56.5636 -0.699 -0.412 0.585 110 100 109
363.2691 169.9088 -54.8221 -0.983 -0.011 0.183 109 101 112
369.0674 167.5574 -55.6646 -0.983 -0.134 -0.123 96 85 89
366.9817 165.8789 -55.2326 -0.984 -0.128 -0.120 93 82 86
376.7494 156.0761 -56.3534 -0.021 -0.962 0.271 91 86 90
378.1945 155.9781 -56.5883 -0.021 -0.962 0.271 88 83 87
368.6848 148.7808 -54.6417 -0.918 0.296 0.266 77 71 73
362.6034 143.8110 -53.3780 -0.442 -0.844 0.304 78 72 74
372.6729 145.7567 -55.1493 -0.651 -0.756 0.067 78 72 74
379.0335 146.1989 -56.2279 -0.524 -0.371 0.766 73 60 69
376.1296 144.4604 -55.6570 -0.614 -0.214 0.760 72 59 68
376.4266 143.9223 -55.6788 -0.629 -0.246 0.737 71 58 67
368.1676 135.2804 -53.8660 -0.703 0.017 0.711 82 71 79
371.5224 132.7854 -54.2955 -0.356 0.074 0.931 81 69 79
367.0576 130.0840 -53.4161 -0.536 0.152 0.831 86 76 85
358.7732 119.9815 -51.5245 -0.415 -0.763 0.495 92 79 96
359.0137 110.9072 -51.1007 0.095 -0.726 0.681 93 83 91
366.5018 111.8989 -52.3947 -0.928 0.155 0.340 92 82 90
327.8822 99.5570 -45.3520 -0.849 -0.032 0.527 95 85 93
362.2149 102.5114 -51.2032 -0.188 -0.373 0.908 94 87 95
364.8178 102.6385 -51.6419 -0.130 -0.551 0.825 100 93 101
332.7951 80.8311 -45.2109 0.188 -0.375 0.908 87 77 85
233.2907 419.8006 -46.9556 -0.967 0.177 0.183 48 63 44
224.8463 377.4814 -43.3017 -0.931 0.091 0.353 56 76 51
230.4551 364.6330 -43.5627 -0.770 0.310 0.558 50 73 45
223.6864 339.2653 -41.0862 -0.563 -0.811 0.159 49 72 43
224.2829 322.2204 -40.2849 -0.542 0.265 0.797 55 74 46
227.9356 326.2073 -41.1082 -0.514 0.260 0.818 54 74 46
237.9843 308.0318 -41.8320 -0.977 -0.209 0.048 52 75 49
246.1448 314.5959 -43.5475 -0.967 0.246 -0.071 53 76 50
227.9196 267.7226 -38.0127 -0.919 0.393 -0.006 62 83 52
282.2931 298.7029 -48.7684 -0.368 -0.768 0.525 59 70 51
360.8546 247.3915 -59.2282 0.230 -0.191 0.954 88 103 85
364.6934 246.1348 -59.8055 -0.924 -0.270 0.272 84 93 87
360.3536 231.9927 -58.3299 -0.758 -0.333 0.561 68 77 60
360.7722 225.5893 -58.0615 -0.895 0.121 0.429 61 69 58
388.9876 230.6724 -63.0614 -0.290 -0.817 -0.499 69 71 66
376.1397 194.3019 -58.9837 -0.991 0.094 -0.098 82 69 66
375.1908 192.9656 -58.7540 -0.991 0.097 -0.093 94 81 77
378.2755 180.1597 -58.5940 -0.936 -0.353 0.000 111 104 109
372.2898 175.7155 -57.3553 -0.975 -0.189 0.113 106 99 105
374.3195 175.1807 -57.6674 -0.560 -0.668 -0.490 99 93 95
376.1200 173.0237 -57.8552 -0.214 -0.944 0.252 87 81 83
372.8802 169.2944 -57.1147 -0.982 -0.111 0.150 82 75 78
375.7996 169.9012 -57.6364 -0.996 -0.042 -0.084 81 74 76
376.2304 169.3612 -57.6800 -0.895 -0.442 -0.069 78 71 74
376.5280 168.7613 -57.6982 -0.895 -0.442 -0.069 77 69 74
377.5619 167.7619 -57.8187 -0.993 -0.115 0.017 85 75 80
376.3647 162.8989 -57.3608 -0.970 -0.146 -0.195 93 82 88
376.7939 161.6615 -57.3674 -0.977 -0.093 -0.190 83 72 78
373.3628 156.7128 -56.5303 -0.012 -0.974 -0.225 87 82 86
375.7915 155.6536 -56.8816 0.004 -0.969 0.247 89 84 88
376.6449 155.3158 -57.0068 -0.028 -0.963 0.270 85 80 84
371.4084 145.2416 -55.5960 -0.651 -0.756 0.059 78 72 74
378.3889 145.9227 -56.8025 -0.524 -0.371 0.766 61 50 58
375.9028 143.6934 -56.2677 -0.624 -0.268 0.734 62 49 58
358.0804 128.7773 -52.4905 -0.605 -0.053 0.794 68 58 67
367.2866 112.0661 -53.1504 -0.917 0.155 0.366 84 77 85
356.9986 107.7260 -51.1958 -0.233 -0.734 0.638 86 79 87
352.1064 105.9210 -50.2801 -0.058 -0.972 0.226 87 80 88
362.8050 102.1044 -51.8722 -0.124 -0.556 0.822 102 92 101
352.4865 99.1353 -49.9849 -0.177 -0.349 0.920 101 91 100
351.8593 91.0231 -49.4508 0.061 -0.768 0.637 96 86 94
223.7249 336.2011 -41.7116 -0.829 -0.499 0.252 53 76 47
240.1187 316.3707 -43.4036 -0.699 -0.704 -0.127 62 82 57
229.7383 271.9579 -39.2178 -0.919 0.393 -0.006 67 88 57
223.1888 254.7243 -37.1666 -0.969 0.050 0.241 69 89 61
281.3452 302.8910 -49.6477 -0.974 -0.151 -0.172 59 66 50
283.6978 300.6738 -49.9248 -0.394 -0.684 -0.614 58 71 49
345.2825 233.6839 -56.6909 -0.977 0.108 -0.185 68 82 68
365.0071 244.3430 -60.6137 -0.994 -0.091 -0.057 76 88 77
364.8746 242.2054 -60.4744 -0.982 -0.060 0.180 73 86 78
360.8143 222.8242 -58.7273 -0.791 -0.370 0.486 59 70 56
356.5633 219.0585 -57.8016 -0.783 -0.314 0.537 61 69 58
365.0588 223.7849 -59.4986 -0.441 -0.037 0.897 61 69 58
390.6134 231.7162 -64.2594 -0.293 -0.816 -0.499 64 67 60
371.5440 200.9790 -59.3499 -0.986 0.025 0.162 74 70 69
370.7220 199.6624 -59.1388 -0.978 -0.187 -0.097 74 70 68
294.9366 155.3436 -43.8828 0.105 -0.935 -0.339 62 58 55
376.9672 198.0906 -60.1104 -0.962 0.105 -0.253 73 69 63
330.4268 167.5195 -50.5582 0.249 -0.895 0.369 95 87 84
371.7223 177.7010 -58.1075 -0.308 -0.756 0.578 108 102 104
372.4809 177.3101 -58.2146 -0.308 -0.756 0.578 108 102 101
372.2836 175.6954 -58.0929 -0.962 -0.273 0.025 100 95 93
366.8896 172.3451 -56.9964 -0.688 -0.645 -0.332 94 89 86
375.9448 174.4256 -58.6435 -0.316 -0.948 0.047 81 72 75
372.7794 169.2270 -57.8233 -0.982 -0.111 0.150 74 65 68
371.7517 168.0239 -57.5835 -0.477 -0.445 0.758 75 66 69
374.5452 167.1112 -58.0066 -0.427 -0.578 0.696 80 69 75
374.4031 165.5986 -57.8999 -0.696 -0.403 0.594 82 71 77
376.7382 165.9143 -58.3125 -0.726 -0.274 0.631 82 71 77
376.7403 163.7523 -58.1947 -0.971 -0.146 -0.188 91 80 86
376.9040 161.6825 -58.1093 -0.978 -0.093 -0.184 78 67 73
373.1520 159.3720 -57.3476 -0.704 0.001 0.710 74 64 69
374.3261 157.0872 -57.4215 -0.566 -0.740 0.363 82 77 81
339.3245 141.2590 -50.6292 -0.794 -0.473 -0.383 89 84 88
362.7374 143.1666 -54.6981 -0.267 -0.843 0.466 78 72 74
365.1025 143.4409 -55.1136 -0.107 -0.863 0.494 78 72 74
372.8372 143.8090 -56.4435 -0.647 -0.230 0.727 65 54 62
373.0365 143.2395 -56.4461 -0.647 -0.230 0.727 67 54 63
374.2989 143.0647 -56.6503 -0.699 -0.536 0.474 67 54 63
374.6406 141.9067 -56.6449 -0.673 -0.599 0.434 69 56 65
369.5923 136.3226 -55.4847 -0.812 -0.021 0.583 62 51 61
366.9183 134.1608 -54.9137 -0.438 -0.048 0.898 61 49 59
366.4937 128.6374 -54.5399 -0.525 0.144 0.839 75 63 73
367.4750 113.6890 -53.8888 -0.887 -0.210 0.410 78 70 81
366.8885 112.9866 -53.7511 -0.899 -0.293 0.325 78 70 81
356.8674 107.6460 -51.7622 -0.442 -0.752 0.489 81 73 84
356.3451 106.9965 -51.6383 -0.445 -0.742 0.502 83 75 86
353.2141 105.1642 -51.0079 -0.423 -0.648 0.634 90 82 93
353.3124 104.6895 -50.9986 -0.484 -0.502 0.717 94 86 97
350.5943 89.8010 -49.7244 0.072 -0.863 0.500 97 87 95
355.9405 88.6179 -50.5650 -0.384 -0.313 0.869 110 100 108
232.1552 401.9543 -47.6475 -0.939 0.202 0.280 68 87 57
222.7686 339.6459 -42.5246 -0.558 -0.815 0.159 67 90 62
223.5478 336.1180 -42.4587 -0.829 -0.499 0.252 62 85 56
222.7664 327.8026 -41.8556 -0.448 0.242 0.861 61 84 55
226.8173 329.3991 -42.6384 -0.458 0.259 0.850 68 87 59
223.0949 317.2295 -41.3148 -0.495 0.261 0.829 69 88 60
241.0338 318.1935 -44.4366 -0.671 -0.717 -0.187 66 86 59
247.8364 325.4318 -46.0084 -0.897 -0.378 -0.229 63 86 58
248.2144 324.5432 -46.0229 -0.897 -0.378 -0.229 63 86 58
248.5915 323.6569 -46.0374 -0.897 -0.378 -0.229 65 88 60
256.2313 321.2502 -47.2078 -0.866 -0.326 -0.379 61 81 53
226.7885 263.8889 -38.9348 -0.921 0.390 -0.009 75 96 65
281.2387 302.8985 -50.4477 -0.972 -0.155 -0.179 59 66 50
283.9226 302.4371 -50.8805 -0.319 -0.716 -0.621 55 66 47
284.9921 302.5033 -51.0672 -0.323 -0.720 -0.615 58 71 49
339.0305 230.9335 -56.2664 0.242 -0.212 0.947 70 88 66
360.4647 222.6077 -59.4613 -0.791 -0.370 0.486 69 80 67
360.1877 221.4932 -59.3511 -0.788 -0.455 0.415 72 80 69
361.7113 219.7312 -59.5121 -0.564 0.082 0.822 61 64 57
381.1783 228.6237 -63.3428 -0.029 -0.874 -0.486 60 65 58
365.9720 208.0589 -59.5816 -0.639 0.329 0.695 56 57 49
316.0548 165.1862 -48.6258 -0.154 -0.975 -0.161 58 57 53
347.4139 178.7772 -54.7552 -0.902 -0.408 0.139 70 71 65
368.0749 179.6987 -58.3400 -0.804 -0.562 0.194 99 88 93
369.8246 176.7526 -58.4729 -0.149 -0.695 0.703 103 99 92
365.3471 172.3232 -57.4572 -0.350 -0.678 0.646 96 89 83
375.9802 172.9183 -59.3089 -0.161 -0.955 0.250 70 59 63
371.0043 167.6600 -58.1612 -0.497 -0.467 0.731 64 55 58
375.8934 169.1636 -59.0821 -0.260 -0.469 0.844 70 61 64
377.7113 169.2530 -59.3980 -0.243 -0.511 0.824 76 67 70
374.4703 167.0548 -58.7197 -0.430 -0.567 0.702 82 71 77
374.1703 165.4713 -58.5790 -0.806 -0.231 0.544 92 80 87
375.4370 165.3130 -58.7867 -0.799 -0.252 0.546 94 81 88
376.6841 163.7026 -58.9090 -0.964 -0.260 0.063 86 74 81
376.4707 161.4702 -58.7464 -0.978 -0.100 -0.182 72 60 67
365.0493 147.2475 -55.9905 -0.347 -0.155 0.925 62 56 56
362.3218 142.9750 -55.2829 -0.267 -0.843 0.466 78 72 72
364.5344 143.1913 -55.6734 -0.107 -0.863 0.494 77 73 72
370.8936 143.6893 -56.7889 -0.687 -0.320 0.652 77 71 75
371.7564 143.3703 -56.9184 -0.652 -0.222 0.725 78 68 76
373.5763 142.7625 -57.1953 -0.729 -0.550 0.408 77 66 74
369.7999 135.7428 -56.1533 -0.765 -0.102 0.636 62 51 59
367.1799 130.6038 -55.4151 -0.417 0.101 0.903 67 56 64
373.8453 131.0237 -56.5785 -0.841 -0.480 -0.249 69 58 66
372.3442 129.9287 -56.2600 -0.750 -0.628 -0.205 72 60 70
384.1379 133.1738 -58.4599 -0.699 0.274 0.660 75 63 73
357.3139 119.4101 -53.0961 -0.383 -0.340 0.859 80 69 77
357.1300 116.6267 -52.9076 -0.719 0.048 -0.693 83 73 82
388.4068 120.0247 -58.4474 -0.690 -0.210 0.693 77 67 78
369.2777 112.5142 -54.7525 -0.936 -0.049 0.349 73 65 76
357.1317 107.6711 -52.4022 -0.498 -0.687 0.530 76 68 79
356.8640 107.0882 -52.3235 -0.439 -0.746 0.501 78 70 81
353.4508 104.6800 -51.6040 -0.496 -0.538 0.681 88 80 91
359.3918 105.7062 -52.6777 -0.567 -0.455 0.686 90 82 93
355.7605 100.3114 -51.7522 -0.335 0.020 0.942 92 82 91
354.2515 89.1373 -50.8633 0.061 -0.996 0.061 118 108 116
343.8006 83.1498 -48.7383 -0.917 0.108 0.384 90 80 89
221.3360 326.7937 -42.3162 -0.448 0.242 0.861 62 85 56
224.0324 324.1070 -42.6253 -0.454 0.263 0.851 70 89 61
256.4388 321.7910 -48.0852 -0.877 -0.294 -0.380 72 92 65
282.7744 310.5457 -51.9770 -0.655 -0.589 -0.474 70 84 57
281.3489 303.1942 -51.3026 -0.972 -0.155 -0.179 59 66 50
283.9479 302.6161 -51.7177 -0.389 -0.686 -0.615 56 65 48
285.3598 303.1273 -51.9912 -0.323 -0.720 -0.615 59 69 49
286.1839 302.8658 -52.1182 -0.323 -0.720 -0.615 66 86 56
335.6564 229.3591 -56.3777 0.243 -0.210 0.947 70 87 68
363.9100 231.6386 -61.3884 -0.425 -0.901 -0.086 79 90 73
362.3614 229.5996 -61.0023 -0.427 -0.864 -0.266 80 88 74
359.7885 226.8712 -60.3991 -0.378 -0.896 -0.233 77 85 73
360.7948 226.6117 -60.5577 -0.371 -0.895 -0.247 77 85 74
359.6620 222.0875 -60.0986 -0.749 -0.446 0.491 79 87 76
355.5925 218.4447 -59.1838 -0.786 -0.369 0.497 79 87 76
362.1282 219.1000 -60.3504 -0.541 -0.011 0.841 70 72 67
362.5233 218.4404 -60.3802 -0.549 0.015 0.836 68 70 65
364.9654 212.7564 -60.4707 -0.432 0.057 0.900 69 68 63
361.0679 199.9802 -59.0536 -0.815 -0.147 0.560 56 60 46
370.8434 201.4277 -60.8256 -0.990 0.019 0.143 66 62 59
373.5670 183.2409 -60.2364 -0.819 -0.501 0.281 95 83 87
373.1028 182.2220 -60.0969 -0.876 -0.405 0.262 96 86 90
369.1344 176.3978 -59.0725 -0.127 -0.700 0.703 97 94 81
376.2892 173.0430 -60.1124 -0.155 -0.936 0.316 57 48 51
380.0531 174.0467 -60.8207 -0.985 -0.002 0.174 56 48 51
375.8192 171.3288 -59.9314 -0.234 -0.485 0.842 53 46 47
374.2147 169.8465 -59.5680 -0.254 -0.475 0.842 47 41 43
374.8180 169.3866 -59.6454 -0.254 -0.475 0.842 54 49 50
375.4216 168.9265 -59.7228 -0.254 -0.475 0.842 64 58 60
376.9914 168.9041 -59.9925 -0.251 -0.486 0.837 74 68 70
377.6088 168.4472 -60.0725 -0.251 -0.486 0.837 86 78 81
377.1795 167.5204 -59.9444 -0.347 -0.478 0.807 112 104 106
374.7121 165.6895 -59.4117 -0.776 -0.208 0.595 111 103 105
375.2661 165.2133 -59.4796 -0.794 -0.248 0.554 113 104 107
376.5181 163.6050 -59.6021 -0.967 -0.112 -0.228 80 71 74
371.2603 155.7519 -58.2369 -0.209 -0.156 0.965 67 66 66
369.6161 151.6886 -57.7164 -0.530 -0.064 0.845 72 72 72
363.9941 146.7990 -56.4609 -0.347 -0.155 0.925 64 60 57
359.8123 143.2358 -55.5314 -0.242 -0.864 0.441 65 61 58
360.7943 142.9858 -55.6863 -0.256 -0.867 0.427 64 60 57
362.3262 142.9454 -55.9485 -0.262 -0.864 0.430 65 61 58
371.0825 143.7268 -57.5057 -0.688 -0.286 0.667 77 71 73
374.5119 142.4302 -58.0223 -0.623 -0.269 0.735 78 68 76
361.8770 130.5483 -55.1488 -0.346 -0.830 -0.437 68 55 64
373.1896 132.5843 -57.2205 -0.726 -0.539 -0.426 73 60 69
376.3850 131.8211 -57.7277 -0.835 -0.467 -0.290 73 62 70
376.5062 129.4388 -57.6098 -0.707 0.266 0.655 79 68 76
387.9167 120.4226 -59.0546 -0.715 -0.151 0.682 70 60 69
387.0315 119.0127 -58.8197 -0.677 -0.276 0.683 68 60 71
356.5050 106.9480 -52.8466 -0.439 -0.746 0.501 73 65 76
358.0554 105.8244 -53.0488 -0.556 -0.441 0.704 84 76 87
356.6365 89.1087 -51.8301 -0.391 -0.621 0.680 105 95 103
350.5285 85.6708 -50.5753 -0.933 0.310 0.182 89 79 87
348.0621 84.3281 -50.0713 -0.931 0.316 0.184 90 80 88
222.9165 337.0859 -43.9730 -0.851 -0.484 0.206 63 86 57
257.1466 321.6437 -49.0123 -0.921 -0.162 -0.356 73 93 66
282.9080 310.8846 -52.8566 -0.671 -0.594 -0.444 66 80 53
284.3113 303.2385 -52.6421 -0.389 -0.686 -0.615 58 65 49
285.4736 303.4212 -52.8557 -0.416 -0.672 -0.612 60 71 52
286.8481 303.8719 -53.1224 -0.409 -0.679 -0.610 68 88 58
360.3713 230.1682 -61.5124 -0.338 -0.935 -0.103 76 85 68
362.3601 230.5861 -61.8842 -0.401 -0.914 -0.062 76 84 69
362.1362 229.4663 -61.7779 -0.419 -0.880 -0.223 76 84 71
359.5796 226.7491 -61.1691 -0.452 -0.857 -0.247 77 85 74
360.2071 226.2306 -61.2473 -0.441 -0.865 -0.240 77 84 76
348.0606 209.9125 -58.1503 -0.538 -0.646 -0.541 76 77 72
362.6312 215.7898 -61.0430 -0.464 0.024 0.886 71 74 67
338.4087 196.9682 -55.6907 -0.804 -0.545 -0.238 74 74 69
361.1733 209.5120 -60.4119 -0.436 0.051 0.898 74 74 69
360.2437 207.1867 -60.1102 -0.696 0.358 0.623 74 74 69
360.3221 203.7823 -59.9195 -0.662 0.417 0.623 56 56 46
372.7438 182.8102 -60.8254 -0.820 -0.493 0.291 88 79 80
372.9172 182.1147 -60.8138 -0.883 -0.399 0.249 92 86 88
368.0897 175.8687 -59.5973 -0.156 -0.681 0.716 91 92 73
368.9805 175.5504 -59.7335 -0.115 -0.722 0.682 92 92 74
371.1336 175.0878 -60.0810 -0.175 -0.712 0.680 80 82 61
372.5981 175.0388 -60.3334 -0.104 -0.976 0.191 75 76 56
376.4735 174.6185 -60.9836 -0.112 -0.735 0.669 50 48 43
376.6613 167.9970 -60.6188 -0.251 -0.486 0.837 64 61 62
374.2793 165.4729 -60.0520 -0.776 -0.208 0.595 81 76 77
375.8568 163.2913 -60.1960 -0.975 -0.098 -0.200 67 63 64
369.2684 156.9466 -58.6666 -0.291 -0.112 0.950 52 51 47
366.0649 154.2313 -57.9452 -0.198 -0.231 0.953 50 49 46
365.7266 153.4156 -57.8372 -0.191 -0.235 0.953 50 49 45
368.4629 151.8600 -58.2208 -0.503 -0.089 0.860 63 62 59
364.1186 146.1711 -57.1219 -0.774 0.003 0.634 63 62 57
364.1504 144.8958 -57.0509 -0.386 -0.922 -0.031 62 61 56
323.5983 128.5437 -49.0005 -0.107 -0.993 0.040 59 55 52
374.9146 143.1878 -58.8246 -0.749 -0.662 0.024 75 68 75
374.6077 142.4301 -58.7256 -0.731 -0.681 0.036 75 68 75
362.0108 131.1496 -55.8526 -0.733 -0.476 -0.486 68 55 62
362.1204 130.5945 -55.8383 -0.738 -0.475 -0.479 68 55 62
363.5629 130.4940 -56.0837 -0.611 -0.609 -0.505 74 61 68
366.2598 123.7930 -56.1515 -0.898 -0.021 -0.440 79 68 76
364.1252 119.1819 -55.5025 -0.816 0.115 -0.566 62 52 61
361.3129 115.6041 -54.7975 0.001 -0.990 -0.139 67 57 66
384.0622 120.4510 -59.0539 -0.653 -0.315 0.689 66 56 64
361.7289 108.8014 -54.4615 -0.593 -0.524 0.612 67 59 70
358.3966 105.8663 -53.7044 -0.574 -0.439 0.692 78 70 81
352.6985 100.4512 -52.3860 -0.141 -0.227 0.964 88 78 87
353.7373 100.2165 -52.5530 -0.503 0.187 0.844 81 71 80
355.4529 90.1924 -52.2502 -0.154 -0.938 -0.310 100 90 98
359.3253 90.0554 -52.9169 -0.118 -0.958 -0.261 99 89 97
361.3969 90.0064 -53.2751 -0.662 -0.380 0.646 99 89 97
360.7540 89.4149 -53.1275 -0.948 0.277 0.157 98 88 96
282.9996 311.1672 -53.7282 -0.546 -0.785 -0.293 69 84 56
283.0347 308.4597 -53.5669 -0.963 -0.226 0.148 67 74 58
287.2137 304.4915 -54.0569 -0.409 -0.679 -0.610 68 88 58
362.1029 212.7647 -61.5625 -0.451 0.044 0.892 77 81 71
343.7602 199.5100 -57.5151 -0.800 -0.521 -0.297 77 81 71
355.9207 196.1275 -59.4458 -0.844 -0.177 0.506 45 48 40
356.0834 195.4002 -59.4294 -0.844 -0.177 0.506 46 47 41
355.4100 194.1902 -59.2361 -0.863 -0.169 0.476 46 47 43
373.8413 194.6789 -62.5097 -0.970 0.133 -0.202 45 56 44
321.8048 161.5687 -51.3052 0.333 -0.801 0.497 56 59 52
372.7565 182.0199 -61.5359 -0.883 -0.399 0.249 75 74 72
373.1729 181.4483 -61.5738 -0.813 -0.497 0.303 79 79 72
369.9202 174.4839 -60.5708 -0.142 -0.971 0.194 66 70 49
371.8497 174.6613 -60.9213 -0.129 -0.969 0.209 65 70 48
375.2619 174.0259 -61.4824 -0.113 -0.739 0.664 53 54 47
375.5373 173.4022 -61.4923 -0.114 -0.721 0.683 54 53 51
373.8202 171.8471 -61.0940 -0.195 -0.898 0.394 54 53 51
368.9804 165.9474 -59.8775 -0.289 -0.474 0.832 45 45 43
374.9908 167.9524 -61.0591 -0.295 -0.485 0.823 45 45 43
375.5659 167.4804 -61.1311 -0.295 -0.485 0.823 47 47 45
376.8730 162.2763 -61.0393 -0.914 -0.333 -0.232 59 59 57
342.6156 144.9905 -53.9421 -0.069 -0.891 -0.448 49 50 45
364.7214 153.6408 -58.3670 -0.198 -0.231 0.953 49 50 45
365.4832 152.6157 -58.4376 -0.191 -0.232 0.954 49 50 45
367.3658 152.7232 -58.7755 -0.225 -0.204 0.953 56 57 52
367.0367 151.9174 -58.6678 -0.528 -0.070 0.847 57 58 53
366.7350 151.1265 -58.5658 -0.217 -0.214 0.952 58 59 54
323.6582 127.9918 -49.5549 -0.097 -0.995 -0.028 60 59 54
330.7542 124.1021 -50.5630 -0.999 -0.034 0.023 62 55 62
313.7763 115.5087 -47.0440 -0.974 -0.056 0.218 68 55 62
363.3824 130.9889 -56.7305 -0.730 -0.490 -0.476 68 55 62
370.2027 126.7412 -57.6680 -0.722 0.284 0.631 91 80 88
363.7749 109.8250 -55.4907 -0.841 0.220 0.495 63 55 66
370.1606 110.9932 -56.6867 -0.912 0.118 0.394 64 56 67
438.4675 127.1413 -69.7052 0.120 -0.988 -0.095 63 55 66
437.4849 125.5788 -69.4357 0.156 -0.984 -0.084 62 54 65
361.5267 90.9129 -53.9256 0.103 -0.995 0.001 90 80 88
360.0785 90.1546 -53.6238 -0.118 -0.958 -0.261 89 79 87
360.8456 89.8439 -53.7396 -0.658 -0.378 0.651 88 78 86
346.1488 84.2982 -50.8104 -0.889 0.349 0.296 80 71 77
319.2401 78.8111 -45.7360 -0.840 0.220 0.496 80 71 76
360.8317 210.1975 -61.9677 -0.872 -0.477 -0.109 70 80 64
361.8398 209.9433 -62.1306 -0.668 0.355 0.655 70 80 65
357.9684 201.5215 -60.9069 -0.662 0.417 0.623 71 77 72
357.3848 200.3273 -60.7273 -0.662 0.417 0.623 73 77 75
372.6485 181.9518 -62.2692 -0.874 -0.411 0.258 68 70 65
372.0412 180.8663 -62.0922 -0.878 -0.395 0.271 69 73 61
365.7951 174.7102 -60.5909 -0.165 -0.718 0.676 70 77 57
361.9789 172.0969 -59.7467 -0.263 -0.529 0.807 69 76 55
363.0348 171.8741 -59.9201 -0.171 -0.577 0.798 64 71 49
343.8875 159.1608 -55.7098 0.406 -0.903 0.141 52 55 48
375.1649 168.7434 -61.8755 -0.407 -0.485 0.774 45 45 43
374.4951 166.9749 -61.6440 -0.392 -0.454 0.800 47 47 45
375.1861 165.8300 -61.6939 -0.968 -0.057 0.245 52 52 50
377.6406 162.5813 -61.9232 -0.980 -0.184 -0.081 53 53 51
364.4975 152.1793 -58.9265 -0.194 -0.227 0.955 49 50 45
365.3775 151.8753 -59.0635 -0.223 -0.212 0.951 51 52 47
365.0646 151.0804 -58.9573 -0.217 -0.214 0.952 51 52 47
366.1288 150.1869 -59.0895 -0.264 -0.188 0.946 50 52 47
361.0004 147.4582 -58.0048 -0.430 -0.075 0.900 51 52 47
355.1783 141.3394 -56.5812 0.185 -0.964 -0.191 52 51 46
371.4842 141.2121 -59.4696 -0.050 -0.992 0.113 75 68 75
372.8737 141.0837 -59.7083 -0.058 -0.993 0.103 73 66 73
374.9929 141.2163 -60.0931 -0.092 -0.992 0.081 62 55 62
373.1196 139.9012 -59.6767 -0.598 -0.748 -0.288 62 55 62
371.5624 137.4566 -59.2445 -0.565 -0.701 -0.435 63 56 63
337.6727 119.4799 -52.0805 -0.979 -0.164 0.125 85 72 79
331.7207 116.9878 -50.8646 -0.956 -0.275 -0.098 85 72 79
359.9723 104.1420 -55.0655 -0.111 -0.473 0.874 70 60 69
243.5972 69.7665 -32.2057 -0.587 -0.319 0.744 92 82 90
357.1314 90.8956 -53.7179 -0.148 -0.929 -0.340 86 76 84
359.3174 90.8786 -54.1051 0.088 -0.995 0.051 80 70 78
362.2105 90.9989 -54.6266 0.087 -0.995 0.043 79 69 78
360.8364 90.2544 -54.3352 -0.118 -0.958 -0.261 79 69 78
360.4378 89.7101 -54.2297 -0.658 -0.378 0.651 78 68 77
330.9772 79.7529 -48.3629 -0.954 0.266 0.137 75 65 74
359.2928 204.8914 -62.1332 -0.724 -0.689 -0.031 70 83 66
353.8033 195.7095 -60.5480 -0.856 -0.205 0.474 61 69 69
367.3861 179.2840 -61.9085 -0.706 0.067 0.705 61 66 58
365.0629 174.3349 -61.1680 -0.165 -0.718 0.676 60 69 48
360.9283 171.5678 -60.2456 -0.287 -0.520 0.804 62 71 51
362.1204 171.4135 -60.4493 -0.171 -0.577 0.798 63 71 51
342.3415 158.4122 -56.0521 0.406 -0.903 0.141 53 54 49
374.9608 164.9818 -62.3306 -0.992 -0.125 0.015 46 46 44
364.8604 150.9684 -59.6026 -0.660 -0.489 0.570 47 47 45
360.9102 148.6949 -58.7455 -0.867 0.166 0.471 48 48 46
370.1869 143.8994 -60.0950 -0.409 -0.680 -0.609 68 67 63
373.2698 139.9193 -60.3873 -0.588 -0.752 -0.299 60 53 60
371.3987 137.3618 -59.8844 -0.532 -0.710 -0.461 70 63 70
365.8524 129.9655 -58.4059 -0.986 -0.163 -0.020 82 69 76
329.3933 113.1326 -50.7672 -0.162 -0.943 0.292 91 80 88
365.0693 106.9258 -56.7577 -0.808 -0.192 0.557 53 45 56
353.0099 101.8571 -54.2638 -0.206 -0.398 0.894 69 59 68
243.1773 69.6449 -32.4627 -0.571 -0.328 0.752 92 82 90
357.3357 91.3510 -54.3518 -0.574 -0.448 0.685 91 81 89
357.2216 90.8628 -54.2994 0.022 -0.991 0.130 81 71 80
361.9131 90.4178 -55.1115 -0.128 -0.952 -0.277 73 63 73
360.9459 89.7585 -54.8949 -0.660 -0.355 0.662 73 63 73
359.3733 88.9844 -54.5623 -0.732 -0.312 0.606 73 63 73
331.3731 79.7768 -48.9393 -0.956 0.261 0.133 77 67 79
356.6875 201.6058 -62.2183 -0.663 0.417 0.622 72 82 72
354.7087 197.0711 -61.5552 -0.883 -0.182 0.433 78 88 83
335.3976 154.4571 -55.1949 -0.253 -0.260 0.932 53 53 51
330.1312 151.3417 -54.0323 -0.502 -0.167 0.849 54 54 52
365.8527 163.7457 -61.3309 -0.696 -0.223 0.683 46 47 42
361.1928 160.9366 -60.2987 -0.778 0.208 0.594 45 46 41
376.3389 146.8523 -62.0926 -0.144 -0.867 -0.478 58 57 52
374.8533 141.7352 -61.4796 -0.738 -0.538 -0.407 59 52 59
375.8362 141.4502 -61.6383 -0.713 -0.602 -0.359 56 49 56
372.2495 138.8835 -60.8167 -0.461 -0.623 -0.632 64 57 64
372.9100 138.4892 -60.9097 -0.461 -0.623 -0.632 68 61 68
371.8871 137.4980 -60.6579 -0.532 -0.710 -0.461 72 65 72
332.7566 116.7391 -52.1805 -0.935 -0.344 -0.091 82 69 78
327.5641 113.0187 -50.9907 -0.985 0.149 -0.087 85 72 82
355.6926 91.8882 -54.6601 -0.802 -0.371 -0.469 87 82 88
357.1144 91.2539 -54.8748 -0.557 -0.441 0.704 87 81 89
357.5147 90.8715 -54.9215 0.030 -0.990 0.136 80 73 83
359.7411 207.7853 -63.9710 -0.837 -0.511 -0.197 60 78 56
356.2925 203.9280 -63.0748 -0.688 0.362 0.629 60 78 56
355.3998 201.6786 -62.7564 -0.688 0.362 0.629 64 79 61
354.3188 197.6720 -62.2823 -0.677 0.397 0.620 72 82 73
353.3482 192.1849 -61.7261 -0.745 0.158 0.649 84 96 85
355.2609 173.1428 -60.7606 -0.906 -0.094 0.412 59 61 55
354.7962 172.1737 -60.6088 -0.935 -0.031 0.353 57 59 55
354.2955 171.1920 -60.4495 -0.943 -0.172 0.284 70 72 68
354.4237 170.5276 -60.4271 -0.943 -0.172 0.284 71 76 71
353.8111 169.4997 -60.2442 -0.962 -0.205 0.179 77 82 76
352.8127 168.2881 -59.9782 -0.978 -0.157 0.136 82 87 82
375.6775 173.3896 -64.5065 -0.904 -0.034 0.426 63 63 61
360.0390 161.7892 -60.8492 -0.612 -0.744 0.267 49 49 48
376.9799 147.7265 -62.9722 -0.060 -0.924 -0.378 54 54 46
373.2193 144.3275 -62.0507 -0.387 -0.712 -0.587 55 51 51
372.4959 142.7626 -61.8105 -0.505 -0.667 -0.548 56 49 56
376.6322 141.7026 -62.4928 -0.717 -0.632 -0.293 57 50 57
373.9958 140.1086 -61.9012 -0.585 -0.734 -0.346 59 52 59
373.5132 139.3000 -61.7572 -0.608 -0.641 -0.470 63 56 63
369.6233 136.0395 -60.8216 -0.503 -0.783 -0.366 83 73 79
364.8112 131.9268 -59.6587 -0.970 0.084 0.229 87 73 80
367.3687 132.2001 -60.1447 -0.901 0.058 0.430 85 72 79
368.5023 131.9816 -60.3367 -0.883 0.086 0.461 90 77 84
366.6010 130.1393 -59.8622 -0.915 0.036 0.402 92 79 86
336.3100 118.9231 -53.5554 -0.974 -0.169 0.152 92 79 86
332.8189 116.7244 -52.7659 -0.935 -0.344 -0.091 89 78 86
337.2575 112.9716 -53.3174 0.229 -0.952 0.201 61 50 58
357.8450 103.4673 -56.4212 -0.400 -0.399 0.825 57 49 60
353.7835 100.9707 -55.5070 -0.006 -0.674 0.739 60 53 61
355.2254 92.6721 -55.1974 -0.175 -0.937 0.303 84 79 86
355.4102 92.2442 -55.2016 -0.752 -0.426 -0.503 84 79 85
351.7963 189.6860 -62.0097 -0.753 0.158 0.639 70 83 64
317.7531 162.0461 -53.7765 -0.852 0.414 0.321 66 77 61
352.4561 170.2605 -60.7548 -0.876 -0.107 0.471 77 79 78
352.1575 168.6688 -60.5869 -0.892 -0.106 0.439 75 79 80
349.8826 166.8345 -60.0377 -0.971 -0.164 0.171 73 77 77
348.9561 165.6732 -59.7846 -0.946 0.081 0.315 73 77 78
319.9397 149.0024 -53.2552 -0.819 -0.309 0.484 62 64 63
364.1206 166.4876 -62.6373 0.071 -0.364 0.929 68 67 65
359.7444 160.9360 -61.4374 -0.714 -0.409 0.569 59 59 58
368.2747 159.1372 -62.8821 -0.886 -0.107 0.451 42 41 41
367.0717 155.8565 -62.4279 -0.662 -0.354 0.661 45 46 42
376.7126 144.9484 -63.4319 -0.679 -0.623 -0.389 49 44 48
377.5580 142.0019 -63.3789 -0.165 -0.357 0.919 57 50 57
370.0143 136.1401 -61.5732 -0.503 -0.783 -0.366 74 66 71
368.2716 130.0609 -60.8212 -0.989 -0.129 -0.069 95 85 91
354.1780 123.1062 -57.7307 -0.952 -0.074 0.297 89 80 85
331.6922 112.2327 -52.8158 0.180 -0.974 0.137 56 50 54
334.6613 112.1375 -53.3563 0.136 -0.984 0.119 58 52 56
354.9940 100.7269 -56.2953 -0.438 -0.208 0.875 60 52 63
354.3675 93.3745 -55.6588 -0.306 -0.834 0.460 80 75 82
357.1300 93.0281 -56.1434 -0.038 -0.966 0.256 80 75 82
357.8983 92.2498 -56.2299 -0.755 -0.440 -0.485 80 75 82
358.5470 91.9160 -56.3258 -0.735 -0.442 -0.514 79 74 81
358.8098 91.5016 -56.3449 -0.735 -0.442 -0.514 79 73 83
358.8941 91.0511 -56.3285 -0.732 -0.456 -0.505 76 68 81
349.6170 188.4398 -62.2543 -0.694 -0.229 0.683 70 83 58
352.1362 170.0872 -61.3891 -0.876 -0.107 0.471 111 112 114
352.0343 169.3136 -61.3140 -0.903 -0.086 0.420 103 107 111
351.8632 168.5090 -61.2237 -0.892 -0.106 0.439 95 98 103
348.7318 165.5485 -60.4261 -0.946 0.081 0.315 82 85 89
361.3043 162.3231 -62.5301 -0.658 -0.469 0.589 77 77 74
367.8492 154.7898 -63.1999 -0.069 -0.172 0.983 45 45 43
368.8877 154.5412 -63.3750 -0.066 -0.174 0.982 45 45 43
339.3449 139.1970 -56.7653 -0.613 -0.450 0.649 42 43 39
378.3694 150.8852 -64.8727 -0.415 -0.866 0.278 45 44 41
377.9030 150.0266 -64.7236 -0.269 -0.652 0.709 44 43 40
379.6124 150.0137 -65.0406 -0.160 -0.610 0.776 44 43 40
376.4853 146.1450 -64.1778 -0.639 -0.733 -0.233 43 42 41
369.7298 136.0031 -62.1844 -0.518 -0.770 -0.372 69 66 69
365.0048 132.5211 -61.0525 -0.922 0.254 0.293 72 68 71
354.1401 123.0556 -58.3439 -0.949 -0.076 0.305 73 69 70
346.6618 111.0666 -56.0818 -0.704 -0.709 -0.049 62 60 63
338.1024 106.6077 -54.1658 -0.105 -0.877 0.468 61 59 64
358.8214 101.6081 -57.6560 0.077 -0.700 0.710 55 49 59
242.3265 69.6205 -33.6647 -0.692 -0.722 -0.021 68 63 70
353.3960 92.6470 -55.9957 -0.030 -0.964 0.263 74 68 78
354.9112 92.5043 -56.2671 -0.042 -0.963 0.268 74 69 76
359.4929 91.5909 -57.0529 -0.732 -0.435 -0.525 73 67 77
321.9591 156.3158 -55.4067 -0.034 -0.780 0.625 92 97 90
351.7511 169.1590 -61.9543 -0.903 -0.086 0.420 102 105 114
351.5691 168.3494 -61.8598 -0.892 -0.106 0.439 101 104 113
351.2041 167.4535 -61.7246 -0.966 -0.181 0.183 100 104 111
348.5076 165.4238 -61.0674 -0.946 0.081 0.315 97 100 107
357.1813 163.9250 -62.5835 0.054 -0.314 0.948 118 120 120
357.1484 163.2047 -62.5236 0.049 -0.317 0.947 119 121 122
357.8954 162.8479 -62.6372 0.044 -0.316 0.948 115 115 116
359.6932 162.2698 -62.9316 0.044 -0.317 0.947 98 101 101
359.8315 157.4752 -62.6004 -0.789 0.254 0.559 77 74 75
356.8195 154.7976 -61.8357 -0.897 -0.442 0.015 73 69 70
357.0920 154.2436 -61.8456 -0.897 -0.442 0.015 72 68 70
380.3966 151.6455 -66.0255 -0.419 -0.855 0.305 41 39 40
380.4160 149.6136 -65.8778 -0.595 -0.756 0.273 46 45 45
379.6641 147.9800 -65.6150 -0.443 -0.796 0.413 47 45 47
378.5396 146.8865 -65.3226 -0.044 -0.986 -0.164 46 44 47
376.3680 145.4071 -64.8048 -0.179 -0.958 -0.225 44 42 46
375.4536 144.4088 -64.5589 -0.224 -0.942 -0.250 45 40 47
377.8949 139.4751 -64.6495 -0.256 -0.394 0.883 51 48 54
367.7899 132.8364 -62.2587 -0.934 0.138 0.330 58 60 61
367.1698 131.4145 -62.0364 -0.925 0.154 0.347 76 77 79
368.3138 129.9963 -62.1455 -0.924 -0.237 -0.302 75 75 77
364.2343 128.0495 -61.2349 -0.956 0.105 0.276 74 75 75
347.4205 119.7433 -57.4608 -0.951 0.207 0.231 65 65 63
354.9462 107.1506 -57.9351 0.054 -0.911 -0.409 48 45 52
363.2799 101.6297 -59.0879 0.094 -0.991 0.100 65 59 69
355.0679 92.9560 -56.9007 -0.258 -0.916 0.306 71 65 75
356.4599 92.3141 -57.1141 -0.490 -0.110 0.865 70 65 72
351.0830 169.5346 -62.5615 -0.892 -0.106 0.439 70 78 74
351.2753 168.1899 -62.4954 -0.892 -0.106 0.439 78 86 85
350.3694 167.0289 -62.2352 -0.966 -0.175 0.192 82 90 88
348.1455 165.2319 -61.6770 -0.947 0.087 0.310 87 95 92
355.4224 163.0836 -62.8910 0.043 -0.310 0.950 132 137 139
355.8583 161.8858 -62.8821 0.044 -0.317 0.947 132 136 141
359.0374 160.5517 -63.3823 0.038 -0.315 0.948 107 110 116
360.3127 159.7354 -63.5615 0.027 -0.317 0.948 101 95 102
360.4028 158.3916 -63.4760 -0.864 -0.245 0.439 112 101 110
359.9413 157.5001 -63.3206 -0.882 -0.199 0.428 117 106 115
359.6147 156.6724 -63.1956 -0.883 -0.214 0.418 120 108 117
359.1237 155.7771 -63.0343 -0.898 -0.294 0.327 119 107 116
359.8194 155.4004 -63.1373 -0.852 -0.295 0.434 115 103 112
361.3155 155.3675 -63.4180 -0.441 -0.159 0.883 110 99 108
359.6460 153.9743 -62.9956 -0.277 -0.102 0.955 104 93 102
381.0692 151.8757 -66.8919 -0.380 -0.866 0.325 49 47 51
373.2420 144.1993 -64.8241 -0.123 -0.967 -0.222 46 43 50
374.5867 144.0506 -65.0674 -0.309 -0.914 -0.265 49 43 53
376.0736 143.9508 -65.3413 -0.630 -0.769 0.113 49 43 53
376.6143 143.4978 -65.4091 -0.630 -0.769 0.113 48 45 52
375.6318 140.5521 -64.9983 -0.432 -0.423 0.796 50 47 54
377.1858 140.4677 -65.2861 -0.444 -0.361 0.820 50 47 54
369.6691 133.4429 -63.3269 -0.904 -0.390 -0.176 52 57 57
368.2845 132.3599 -62.9821 -0.931 -0.358 -0.075 51 56 57
347.0198 111.0871 -57.3326 -0.658 -0.753 0.027 50 50 52
351.0884 107.6032 -57.8371 -0.687 -0.653 -0.319 45 42 49
331.5048 93.1000 -53.0225 -0.257 -0.953 -0.158 76 70 80
328.0511 89.6758 -52.1073 -0.990 -0.030 0.140 72 67 74
357.0634 93.8073 -57.9158 -0.322 -0.736 0.596 69 64 71
355.6087 92.0835 -57.5089 -0.278 -0.195 0.941 69 64 71
355.8525 91.6675 -57.5233 -0.278 -0.195 0.941 69 64 71
355.3746 84.7309 -56.9035 -0.701 -0.705 -0.107 80 72 87
356.3490 84.4642 -57.0677 -0.671 -0.729 -0.131 79 71 86
356.2687 84.0041 -57.0174 -0.666 -0.732 -0.142 80 72 87
349.5539 170.2014 -63.0272 -0.952 -0.169 0.256 70 84 63
347.2478 164.7784 -62.1630 -0.934 0.101 0.343 74 87 72
346.9669 163.9412 -62.0439 -0.936 0.105 0.335 71 83 70
353.7965 160.9126 -63.1120 0.044 -0.317 0.947 113 121 127
354.6505 160.6132 -63.2517 0.044 -0.317 0.947 119 128 132
356.9749 159.5970 -63.6163 0.038 -0.315 0.948 125 130 135
358.3123 158.8178 -63.8110 0.027 -0.317 0.948 134 128 135
360.4022 158.3683 -64.1751 -0.860 -0.251 0.445 126 114 123
359.7195 157.3791 -63.9674 -0.855 -0.255 0.452 119 107 116
359.6461 156.6624 -63.8974 -0.861 -0.213 0.462 124 112 121
359.1692 155.7728 -63.7368 -0.873 -0.257 0.413 128 116 125
359.2081 155.1113 -63.6926 -0.873 -0.245 0.421 126 114 123
358.0869 149.9620 -63.0761 0.058 -0.355 0.933 101 101 103
385.1580 154.1369 -68.5735 -0.354 -0.777 0.520 65 63 68
380.8087 151.7410 -67.5555 -0.380 -0.866 0.325 66 64 69
381.3157 149.8917 -67.5079 -0.405 -0.709 0.578 48 46 51
381.2679 149.1956 -67.4444 -0.587 -0.627 0.512 49 47 52
383.0429 148.5170 -67.7305 -0.461 -0.707 0.537 50 47 54
382.8730 147.7785 -67.6403 -0.441 -0.665 0.602 53 50 57
383.4556 147.3237 -67.7161 -0.441 -0.665 0.602 52 49 56
378.3359 144.7543 -66.5374 -0.609 -0.786 0.107 55 50 57
377.1626 143.6643 -66.2281 -0.601 -0.787 0.140 54 51 58
373.4542 141.6528 -65.3625 -0.516 -0.213 0.830 54 51 58
370.4719 137.4013 -64.4607 -0.804 -0.568 0.175 50 47 54
370.5314 136.1734 -64.3762 -0.802 -0.572 0.174 49 49 53
355.8593 124.0648 -60.6275 -0.952 0.044 0.302 53 55 52
350.9037 121.8911 -59.5110 -0.934 0.066 0.351 53 55 52
344.8166 118.8338 -58.1094 -0.969 0.186 0.162 54 55 50
336.8431 105.6407 -55.5556 -0.695 -0.270 0.666 50 48 53
362.9885 101.9660 -60.2630 -0.285 -0.951 -0.120 68 62 72
331.7897 92.6773 -53.5776 -0.257 -0.956 -0.141 80 74 84
330.0318 90.5116 -53.0726 -0.986 0.006 0.165 81 76 83
330.9355 90.2790 -53.2270 -0.979 0.002 0.202 77 72 79
355.0754 90.9890 -57.8939 -0.278 -0.195 0.941 65 60 67
361.3068 86.2287 -58.7124 -0.779 -0.625 -0.054 76 68 83
362.3308 85.9615 -58.8871 -0.742 -0.664 -0.091 76 68 83
362.6855 85.5698 -58.9243 -0.742 -0.664 -0.091 76 68 83
346.7146 165.9107 -62.8422 -0.989 -0.138 0.062 72 89 71
347.0111 163.2489 -62.6865 -0.978 -0.143 0.151 71 87 65
359.3474 156.5079 -64.5250 -0.861 -0.213 0.462 120 114 115
359.1195 155.7271 -64.4187 -0.882 -0.146 0.448 117 110 111
359.1901 155.0791 -64.3805 -0.897 -0.168 0.409 118 112 112
356.8416 152.0575 -63.6864 -0.272 -0.100 0.957 125 122 122
356.0066 149.0695 -63.2866 0.058 -0.355 0.933 122 122 124
356.7158 148.7106 -63.3945 0.064 -0.358 0.932 120 120 122
358.2286 140.9928 -63.0691 -0.331 -0.347 0.878 68 66 71
377.5291 145.0782 -67.1151 -0.250 -0.757 0.604 58 56 61
377.6219 144.4542 -67.0831 -0.660 -0.737 0.147 58 56 61
371.5433 140.9173 -65.6290 -0.505 -0.211 0.837 58 55 62
370.0901 133.5107 -64.7569 -0.812 -0.561 -0.162 43 47 48
354.9134 123.7178 -61.0493 -0.958 0.017 0.288 53 53 51
321.9074 109.9913 -53.5914 -0.977 0.062 0.206 52 52 50
363.2319 101.9752 -60.9143 -0.285 -0.951 -0.120 64 58 68
364.2110 101.7033 -61.0812 -0.285 -0.951 -0.120 66 60 70
331.1941 92.0509 -53.9469 -0.252 -0.955 -0.157 78 73 81
328.7018 91.0368 -53.3855 -0.237 -0.943 -0.232 83 77 85
330.1627 89.6257 -53.5542 -0.955 -0.051 0.294 73 68 75
324.5768 87.5356 -52.3107 -0.953 0.029 0.300 68 63 70
345.0514 84.8847 -56.0445 -0.352 -0.853 -0.384 66 58 73
373.6540 88.9483 -61.8813 -0.886 -0.427 -0.183 71 63 78
368.1184 87.4412 -60.6941 -0.829 -0.524 -0.197 70 62 77
364.5177 85.8499 -59.8730 -0.903 -0.400 0.154 70 62 77
364.0822 85.3122 -59.7461 -0.883 -0.467 0.048 70 62 77
352.3282 156.0961 -63.8245 -0.120 -0.288 0.950 83 82 77
352.8555 155.6562 -63.8910 -0.120 -0.288 0.950 86 83 78
354.8795 155.8784 -64.3027 -0.136 -0.287 0.948 85 86 79
357.6619 156.4269 -64.8884 -0.862 -0.249 0.442 86 86 80
356.9269 155.4249 -64.6636 -0.848 -0.209 0.487 95 95 90
356.0890 154.3842 -64.4156 -0.854 -0.277 0.440 103 103 98
356.2845 153.7972 -64.4056 -0.854 -0.277 0.440 106 106 100
355.5730 152.8213 -64.1875 -0.847 -0.283 0.450 111 113 106
