ply
format ascii 1.0
element vertex 867
property float x
property float y
property float z
property float nx
property float ny
property float nz
property uchar diffuse_red
property uchar diffuse_green
property uchar diffuse_blue
end_header
-357.1477 150.4824 37.6416 0.217 0.099 0.971 82 76 78
-254.2669 260.9466 45.9159 0.645 0.529 -0.552 101 98 119
-262.0761 270.0684 47.3190 0.606 0.581 -0.543 62 59 80
-49.5894 -37.4375 2.0856 0.715 0.695 0.076 141 158 178
-71.9554 -36.4640 3.1343 0.386 0.598 0.703 123 132 161
-102.0507 -33.5559 4.7302 0.258 -0.961 -0.103 185 190 221
-110.3496 -32.0712 5.2491 0.706 -0.707 0.031 184 184 201
-379.5745 -70.4426 12.0883 0.485 0.156 0.861 80 78 89
-345.9288 -13.6790 17.2358 0.907 -0.218 0.361 88 89 94
-328.3052 11.2201 19.3738 0.446 -0.542 -0.712 97 85 93
-331.6921 97.7085 29.5047 0.856 0.506 -0.109 88 86 100
-331.8435 99.6101 29.7307 0.852 0.507 -0.131 83 82 89
-321.9411 129.1114 32.7234 0.804 0.279 -0.525 102 94 107
-64.7160 41.8634 11.8778 0.319 -0.322 0.891 96 94 99
-235.0298 243.4316 42.2885 0.696 0.699 0.165 133 130 149
-51.6538 -36.9547 2.0474 0.269 0.431 0.861 164 181 199
-52.7995 -37.0578 2.0809 0.467 0.715 0.521 190 206 221
-60.4931 -36.8652 2.4076 0.365 -0.228 0.903 177 192 213
-94.0695 -35.2176 3.9260 0.472 0.659 -0.586 134 150 166
-102.3365 -33.6041 4.4387 0.261 -0.961 -0.097 175 180 211
-110.3720 -32.0611 4.9341 0.713 -0.701 0.032 192 194 210
-346.5233 -69.0898 10.0238 0.653 -0.278 -0.705 85 83 96
-363.8424 -61.2440 11.6114 0.515 0.173 0.839 75 73 87
-331.3703 -45.8122 12.1003 0.779 0.300 0.551 76 74 88
-333.4584 -30.2527 13.9719 0.564 -0.671 -0.482 79 76 87
-369.9290 -28.4098 15.6273 0.109 -0.525 0.844 80 78 91
-363.7677 -25.4382 15.7251 0.115 -0.458 0.882 81 81 93
-294.4072 -16.0167 14.0630 0.630 -0.672 -0.388 81 81 93
-341.7350 -5.1429 17.1864 0.785 0.239 0.571 81 78 86
-345.1393 -2.5964 17.6139 0.503 -0.864 0.022 74 72 80
-336.9842 11.6632 18.9306 0.397 -0.721 -0.567 95 83 92
-311.2239 23.2867 19.2474 0.288 -0.939 0.189 84 86 86
-337.4073 112.7101 30.5649 0.887 0.428 -0.172 66 65 71
-322.0992 130.2252 31.9728 0.858 0.206 -0.470 108 100 113
-335.2349 147.9892 34.5351 0.757 0.559 0.339 104 99 105
-43.2899 -37.2696 1.5190 0.620 0.674 -0.403 142 158 173
-43.9024 -37.2392 1.5453 0.631 0.650 -0.423 142 158 173
-51.3445 -36.8351 1.8691 0.215 0.295 0.931 166 183 202
-85.3075 -30.9469 3.8097 0.362 -0.801 0.477 95 101 125
-352.1709 -70.0057 9.2921 0.816 0.430 -0.386 54 52 65
-397.5912 -71.4173 10.8244 0.654 -0.247 0.715 67 65 76
-368.6303 -64.4103 10.5463 0.161 -0.613 0.774 67 65 78
-362.8083 -61.8833 10.6184 0.556 0.146 0.819 66 64 78
-369.7219 -46.6468 12.6200 0.286 -0.958 -0.029 86 84 98
-342.0837 -37.3107 12.6577 0.709 -0.694 -0.126 88 84 98
-347.2842 -32.8207 13.3655 0.151 -0.978 0.147 72 69 80
-371.5396 -28.4463 14.7708 0.081 -0.452 0.888 71 69 83
-350.8044 -23.8572 14.5227 0.131 -0.449 0.884 71 69 83
-333.8592 -20.5835 14.2654 0.912 0.120 0.392 76 74 88
-340.5660 -14.2621 15.2389 0.210 -0.960 -0.185 81 78 89
-338.3332 -6.7427 16.0163 0.784 0.209 0.585 90 84 96
-341.5694 -5.9217 16.2309 0.778 0.276 0.565 89 83 95
-342.3714 -5.0816 16.3570 0.773 0.273 0.572 88 82 92
-343.6823 -4.2367 16.5026 0.778 0.275 0.565 81 75 85
-340.7890 -1.7119 16.6836 0.290 -0.930 -0.228 67 61 73
-367.0220 13.0414 19.3504 0.527 -0.623 -0.578 89 79 90
-346.3944 23.5338 19.7819 0.718 0.673 -0.178 75 73 78
-361.5149 40.3793 22.2738 0.306 -0.688 0.659 85 80 87
-360.8384 41.2355 22.3465 0.316 -0.668 0.674 95 90 97
-327.4445 99.4817 27.7672 0.444 -0.745 0.498 91 86 92
-340.4611 117.6527 30.3323 0.871 0.391 -0.298 124 122 127
-338.1759 152.3309 34.2159 0.352 0.378 0.856 117 112 116
-258.3085 158.5013 31.9435 0.759 0.519 -0.393 66 65 70
-124.8762 120.4236 22.6093 0.857 0.168 -0.488 107 101 115
-262.0989 268.6439 44.6903 0.621 0.597 -0.508 163 162 178
-258.0178 269.7126 44.6604 0.427 -0.712 0.557 59 58 73
-253.2169 266.1686 44.0758 0.432 -0.711 0.556 60 58 72
-244.1036 258.5266 42.8613 0.370 -0.759 0.536 57 55 69
-239.4741 255.0693 42.2929 0.340 -0.748 0.570 56 54 68
-209.6069 232.4996 38.5960 0.564 -0.617 0.549 49 45 60
-49.9155 -36.7689 1.6467 0.496 0.720 0.485 169 186 206
-50.3115 -36.7613 1.6615 0.474 0.703 0.530 171 188 208
-56.7020 -36.4354 1.9223 0.239 0.408 0.881 156 169 186
-63.2698 -37.0518 2.0820 0.762 0.629 -0.156 192 207 226
-63.3282 -36.8837 2.1032 0.408 0.344 0.846 188 203 224
-63.9130 -36.6992 2.1447 0.550 0.703 0.451 179 194 216
-102.0235 -33.5126 3.8419 0.264 -0.963 -0.055 174 179 210
-346.5998 -48.2453 10.7255 0.175 -0.973 0.152 64 62 75
-339.0021 -10.0173 14.8145 0.806 0.339 0.486 77 74 85
-339.5469 -9.1925 14.9276 0.837 0.330 0.437 79 73 85
-339.3051 -6.6873 15.2045 0.781 0.222 0.584 91 85 97
-345.2288 -5.0233 15.6015 0.785 0.270 0.558 89 81 94
-345.6050 -3.3197 15.8087 0.808 0.347 0.476 72 64 79
-344.1640 9.5202 17.2210 0.877 0.476 0.066 83 72 86
-334.8788 18.4900 17.9178 0.231 -0.844 -0.484 83 77 89
-346.6990 23.6299 18.9171 0.718 0.673 -0.178 85 77 89
-359.8995 40.2787 21.2759 0.535 -0.827 -0.172 79 70 79
-83.3504 20.5763 9.3501 0.776 0.325 -0.541 135 134 140
-326.4113 99.2853 26.8257 0.404 -0.779 0.480 79 74 80
-341.8248 168.3025 35.2279 0.735 0.678 0.009 55 54 52
-353.6512 174.7925 36.3812 0.711 0.584 -0.391 58 57 55
-353.0898 175.5964 36.4531 0.802 0.508 -0.313 66 65 63
-320.4000 162.3677 33.8017 0.696 0.216 -0.685 87 85 86
-266.7811 204.8326 36.7623 0.404 -0.876 -0.263 92 89 98
-80.6142 83.6943 16.4448 0.778 0.627 0.038 95 89 103
-252.3203 260.7533 42.6267 0.673 0.676 -0.300 128 127 141
-254.9907 265.1301 43.2187 0.718 0.667 -0.196 101 100 114
-229.8402 246.1042 40.1708 0.308 -0.902 0.304 62 60 74
-224.1905 241.6134 39.4615 0.541 -0.748 0.384 61 59 73
-49.3352 -36.5446 1.4764 0.262 0.474 0.841 161 178 198
-51.5131 -36.5688 1.5449 0.205 0.279 0.938 140 156 172
-56.3344 -36.3027 1.7329 0.239 0.409 0.880 165 178 194
-63.2313 -36.6590 1.9181 0.396 0.295 0.869 185 200 221
-66.8605 -36.2884 2.0789 0.337 0.702 0.628 186 204 223
-107.8951 -35.0345 3.5637 0.259 -0.964 -0.060 127 133 163
-377.7417 -61.3495 9.4088 0.336 0.246 0.909 60 57 74
-385.0782 -60.5955 9.7344 0.345 0.206 0.916 63 62 76
-386.4014 -59.8857 9.8582 0.357 0.204 0.912 68 68 80
-391.2914 -59.6310 10.0470 0.354 0.160 0.922 73 71 84
-394.9749 -58.2936 10.3192 0.404 -0.093 0.910 63 61 75
-387.2825 -56.4383 10.2779 0.743 -0.409 0.530 63 61 75
-356.7800 -50.1955 9.9878 0.152 -0.957 0.246 62 60 74
-334.2666 -36.5304 10.8008 0.299 -0.952 -0.064 85 82 93
-332.7189 -35.6050 10.8551 0.282 -0.959 -0.021 93 90 101
-363.6911 -33.0637 12.1566 0.196 -0.978 0.068 59 56 67
-336.8698 -23.0472 12.4149 0.718 0.034 0.695 55 51 66
-328.6890 -10.6145 13.5570 0.746 0.475 0.467 73 67 79
-326.7901 -7.3617 13.8637 0.791 0.166 0.589 75 69 81
-340.6494 -4.9547 14.5902 0.767 0.282 0.577 76 68 81
-299.2086 3.3674 14.1779 0.578 -0.637 -0.511 66 58 71
-361.3861 13.8456 17.4005 0.243 -0.946 -0.213 76 68 81
-339.5148 26.6482 18.1367 0.105 -0.723 0.683 82 74 87
-270.6074 24.4768 15.6358 0.783 -0.607 -0.137 92 82 93
-355.0737 35.2280 19.6187 0.211 -0.492 0.844 91 81 92
-345.2149 43.1846 20.1983 0.625 -0.488 0.610 97 85 95
-336.9521 43.0297 19.9104 0.757 -0.296 0.583 105 95 104
-362.5711 47.2482 21.2270 0.357 0.132 0.925 112 102 111
-336.4745 155.8730 32.6907 0.466 0.675 0.572 136 131 137
-302.6969 173.8934 33.6290 0.778 -0.437 -0.452 77 75 78
-304.1643 204.8044 37.1822 0.617 0.786 -0.018 83 81 86
-310.9333 209.9947 37.9922 0.620 0.784 -0.028 89 87 92
-50.1854 59.4268 12.3870 0.915 -0.203 0.350 72 70 86
-229.6535 246.0809 39.4249 0.309 -0.901 0.303 83 79 94
-224.3071 241.8752 38.7730 0.791 -0.608 0.066 80 76 91
-54.9089 -36.3096 1.4969 0.245 0.410 0.879 177 190 206
-58.2589 -36.2641 1.6040 0.583 0.808 -0.086 199 214 237
-63.8879 -36.1122 1.7924 0.504 0.705 0.499 183 202 219
-65.6614 -35.7133 1.8914 0.558 0.706 0.436 190 209 226
-346.7950 -20.9764 12.1095 0.485 -0.738 -0.470 59 57 71
-329.0841 -8.1324 13.0202 0.834 0.208 0.512 68 65 76
-326.1800 -7.2980 13.0261 0.791 0.166 0.589 65 62 73
-331.5416 -6.5215 13.2768 0.739 0.043 0.672 67 61 73
-331.9832 115.2158 27.0308 0.700 -0.063 0.711 67 62 69
-311.5491 114.8468 26.3673 0.986 -0.132 0.102 116 111 117
-294.4766 182.7690 33.5142 0.740 0.434 -0.513 79 78 83
-266.4969 275.1882 43.0941 0.675 0.682 -0.282 148 147 161
-54.5701 -36.1853 1.3127 0.245 0.412 0.877 103 116 132
-66.1488 -36.0538 1.6533 0.405 0.474 0.782 140 159 174
-82.5637 -35.4590 2.1820 0.388 0.647 0.657 210 225 246
-104.3388 -33.6834 2.9942 0.460 0.686 -0.564 149 160 180
-340.1375 -44.1702 8.4510 0.490 0.279 0.825 54 52 65
-342.9391 -23.2385 10.8814 0.449 -0.721 -0.529 55 53 67
-341.5601 -20.6935 11.1285 0.436 -0.724 -0.535 59 57 71
-340.2761 -5.6696 12.7802 0.793 0.006 0.609 70 64 76
-341.1538 -4.8307 12.8992 0.783 0.028 0.621 70 64 78
-344.4829 -3.1328 13.1836 0.834 0.444 0.327 48 42 56
-361.8093 -1.2887 13.8783 0.180 -0.964 -0.194 69 63 75
-349.4128 9.9215 14.7889 0.856 0.420 0.302 80 69 83
-351.0001 10.8610 14.9391 0.851 0.430 0.301 72 61 75
-352.3182 13.5679 15.2803 0.803 0.462 0.375 70 62 75
-333.4430 41.8648 17.9281 0.759 -0.334 0.558 102 90 100
-334.1554 42.8303 18.0566 0.784 -0.325 0.528 112 102 111
-342.1717 44.7542 18.4983 0.598 -0.564 0.570 121 111 120
-331.0349 115.0138 26.0782 0.700 -0.063 0.711 84 79 85
-332.1571 161.2416 31.3031 0.962 0.079 -0.261 58 57 55
-317.5144 155.5899 30.2562 0.932 -0.020 -0.362 58 57 53
-327.6524 166.1612 31.7291 0.770 -0.148 -0.620 100 98 99
-205.0847 228.6827 35.3041 0.373 -0.581 0.723 94 90 107
-107.0956 -33.3835 2.7955 0.464 0.732 -0.499 87 102 123
-335.3194 -43.6127 7.5503 0.504 0.266 0.821 70 66 80
-332.7578 -36.2506 8.3074 0.270 -0.962 -0.033 87 84 95
-356.4692 -22.9946 10.4024 0.584 -0.658 -0.476 59 57 71
-355.2568 -22.0814 10.4732 0.585 -0.667 -0.461 59 57 71
-341.1021 26.1278 15.4980 0.217 -0.911 0.351 74 66 79
-336.6071 26.6260 15.4375 0.225 -0.947 0.231 80 72 85
-343.4697 36.0562 16.6693 0.203 -0.514 0.833 74 62 72
-330.6042 42.4531 17.0521 0.501 -0.702 0.506 89 79 88
-322.8242 158.1275 29.7853 0.950 0.086 -0.301 58 57 55
-159.3087 125.9202 21.9578 0.492 -0.810 0.320 91 88 95
-270.2215 270.9800 41.0446 0.980 0.158 -0.120 189 189 201
-208.6878 229.0709 34.7681 0.772 -0.635 -0.008 74 70 85
-198.0426 249.1178 36.7345 0.470 -0.765 -0.440 28 27 33
-51.4492 -38.7799 0.5742 0.776 0.602 0.189 112 128 144
-54.4094 -35.7825 0.9775 0.609 0.762 0.221 140 153 169
-55.5789 -36.0217 0.9784 0.644 0.730 -0.230 138 151 167
-76.6344 -35.4146 1.5419 0.407 0.723 0.558 157 174 194
-77.4849 -35.4301 1.5602 0.401 0.710 0.579 165 182 202
-85.6453 -34.8210 1.8202 0.336 0.591 0.734 180 195 216
-371.1237 -61.9526 5.5244 0.633 0.423 0.648 75 69 75
-315.1938 -40.6925 6.5731 0.728 0.209 0.653 65 59 71
-331.6872 -40.8311 6.9462 0.489 0.184 0.852 62 56 68
-342.0974 -37.8184 7.5266 0.490 0.277 0.827 68 62 74
-334.3582 -36.3391 7.5090 0.299 -0.952 -0.064 77 71 83
-333.5501 -33.8852 7.7630 0.839 -0.173 0.516 73 67 79
-373.4614 -25.5272 9.6332 0.406 -0.669 -0.622 56 52 67
-340.1219 6.2938 12.3893 0.923 -0.322 -0.213 64 56 69
-337.8132 7.0744 12.4218 0.918 -0.331 -0.217 64 53 67
-335.1635 12.0564 12.9139 0.883 -0.449 0.133 72 61 75
-336.8178 12.9812 13.0558 0.888 -0.436 0.145 72 61 75
-335.7035 26.6235 14.5478 0.225 -0.947 0.231 71 63 76
-327.4169 28.4630 14.5573 0.826 0.477 -0.300 75 65 76
-366.3392 102.1563 23.6753 0.781 0.570 -0.255 126 121 127
-319.5072 148.0638 27.6814 0.881 -0.256 0.398 71 66 70
-329.6449 168.3632 30.1793 0.890 -0.153 -0.430 54 52 53
-210.0459 259.7850 37.5368 0.558 -0.819 -0.136 33 32 38
-78.9569 -35.3799 1.3558 0.438 0.806 0.397 128 143 164
-79.1759 -35.2146 1.3788 0.438 0.806 0.399 125 140 161
-361.2354 -66.3066 3.9307 0.749 0.587 0.308 64 61 72
-345.6780 -62.2898 4.0449 0.382 -0.771 -0.510 48 45 56
-340.9411 -35.2353 6.9409 0.801 0.359 0.479 72 66 78
-339.6031 4.6450 11.3297 0.913 -0.287 -0.290 66 58 71
-346.8084 5.6868 11.5982 0.855 -0.341 -0.390 65 57 70
-337.2526 10.5161 11.9300 0.724 -0.426 0.542 73 62 76
-343.6133 11.6376 12.1894 0.929 0.177 0.324 72 61 75
-322.6800 16.4892 12.2818 0.907 -0.285 0.311 63 57 67
-332.1207 30.6818 14.0545 0.838 0.321 0.440 97 87 98
-345.4794 104.4293 22.5069 0.667 0.723 -0.179 68 62 66
-318.0671 144.7003 26.3848 0.858 0.400 -0.323 81 75 79
-317.3800 145.3611 26.4433 0.900 -0.317 0.298 78 73 77
-316.7719 147.0049 26.6125 0.900 -0.275 0.337 51 46 50
-330.6257 169.9677 29.4504 0.887 -0.285 0.363 71 69 72
-271.4753 273.4579 39.6559 0.982 -0.016 -0.186 137 136 150
-47.0882 -37.3425 0.2904 0.629 0.778 0.005 120 138 150
-61.8951 -37.4824 0.5557 0.639 0.264 -0.723 87 100 116
-72.9509 -36.0647 0.9216 0.255 0.577 0.775 188 203 222
-109.2712 -34.0793 1.8291 0.493 0.772 -0.401 194 206 228
-46.0619 -18.6039 2.3366 0.708 0.132 0.694 81 79 90
-348.5835 -61.8866 3.3013 0.385 -0.779 -0.495 51 48 59
-341.8485 -37.6951 5.8404 0.668 0.515 0.537 60 52 65
-340.4752 -35.1458 6.0954 0.801 0.359 0.479 79 71 84
-352.9748 -35.3291 6.3122 0.802 0.208 0.560 82 74 87
-360.2779 -33.3434 6.6695 0.869 0.138 0.475 89 81 94
-355.6257 -32.1563 6.7122 0.327 -0.944 0.049 93 85 98
-341.0006 6.4521 10.6909 0.586 0.358 0.727 71 63 76
-339.4807 11.5296 11.2218 0.827 0.310 0.469 73 62 76
-338.5065 15.7694 11.6707 0.956 -0.199 0.217 64 56 67
-338.5193 26.1377 12.8139 0.771 0.517 0.371 79 71 84
-331.5563 27.2746 12.8072 0.871 0.130 0.473 91 81 92
-340.2163 123.3329 23.5604 0.326 -0.626 0.708 87 82 86
-317.6575 182.6091 29.6670 0.799 -0.092 -0.594 74 65 70
-317.8910 183.7297 29.7949 0.805 -0.062 -0.590 73 64 69
-320.2661 189.0224 30.4234 0.806 -0.042 -0.591 76 66 74
-322.2427 212.7006 33.0710 0.689 -0.535 -0.490 79 74 80
-261.0245 244.9869 35.4694 0.659 -0.750 0.051 71 70 75
-130.1692 -77.0365 -2.8506 0.380 -0.630 -0.677 135 153 167
-52.0257 -37.5477 0.1795 0.667 0.743 0.059 174 189 210
-63.2798 -36.4497 0.4874 0.545 0.454 -0.705 118 130 144
-107.9924 -34.0938 1.4909 0.495 0.855 -0.153 189 202 220
-110.0149 -33.9234 1.5433 0.498 0.849 -0.177 191 203 225
-348.7871 -58.6567 2.8086 0.692 0.332 0.641 64 58 62
-336.3615 -38.7589 4.7845 0.667 0.482 0.568 92 84 97
-338.8379 -38.1839 4.8888 0.673 0.512 0.534 86 78 91
-353.6026 -31.1143 5.9104 0.336 -0.939 0.074 115 107 122
-350.7215 -30.0782 5.9761 0.336 -0.939 0.074 104 98 112
-375.3829 -21.8410 7.2907 0.641 -0.447 -0.624 75 67 78
-336.2726 7.2246 9.8277 0.767 -0.457 0.450 83 72 86
-341.4221 11.6813 10.4025 0.813 0.339 0.473 74 63 77
-340.2491 16.7972 10.9442 0.951 -0.201 0.234 57 47 58
-337.3163 24.3803 11.7272 0.600 -0.736 0.312 66 56 67
-337.5248 26.1295 11.9226 0.774 0.514 0.371 77 67 78
-335.5861 27.6977 12.0623 0.806 0.592 0.021 89 79 90
-329.1312 27.9868 11.9865 0.897 0.305 0.320 107 95 105
-329.6848 28.8885 12.0946 0.895 0.313 0.319 108 98 109
-332.6498 30.0202 12.2682 0.866 0.341 0.366 113 103 114
-330.4043 41.8728 13.5311 0.951 -0.203 0.232 93 80 89
-345.6390 100.8147 20.2513 0.724 0.679 -0.122 89 82 89
-344.2850 103.3317 20.5049 0.669 0.722 -0.175 90 83 90
-327.6812 115.3932 21.5514 0.820 0.285 0.496 64 60 61
-327.8970 131.6371 23.3371 0.979 -0.204 0.028 76 74 77
-326.4653 132.0568 23.3593 0.977 -0.210 0.032 70 68 71
-338.1618 164.6025 27.1247 0.348 -0.514 0.784 71 64 71
-307.4180 164.8279 26.6371 0.580 0.798 0.160 69 63 67
-61.0153 -38.2650 0.0482 0.458 -0.675 -0.579 154 170 186
-177.6817 -79.0138 -2.7249 0.321 -0.863 -0.390 161 177 193
-62.9784 -37.4695 0.1633 0.671 0.741 0.030 181 195 206
-110.1710 -33.9414 1.2264 0.497 0.851 -0.170 182 194 216
-339.5128 -38.1946 4.0563 0.653 0.530 0.540 105 97 110
-343.4658 -36.9203 4.2522 0.638 0.521 0.568 77 69 82
-355.9303 -33.7640 4.7758 0.567 0.183 0.803 107 99 112
-328.6378 10.3664 9.2019 0.769 -0.466 0.438 82 71 87
-338.2545 11.6132 9.4761 0.918 0.307 0.252 74 63 79
-339.6020 15.9686 9.9710 0.975 -0.156 0.157 89 79 90
-335.8987 17.4743 10.0822 0.947 -0.220 0.235 66 56 67
-341.4735 18.6729 10.2932 0.984 0.085 -0.154 72 62 73
-325.5226 24.3741 10.6865 0.975 -0.016 0.220 73 63 74
-331.1651 29.0975 11.2832 0.811 0.585 -0.009 83 73 84
-329.7221 40.9979 12.5618 0.977 -0.025 0.213 97 84 93
-343.5309 117.8026 21.1456 0.274 0.248 0.929 90 83 90
-345.8625 119.5431 21.3691 0.274 0.248 0.929 79 73 78
-328.9516 166.5476 26.2581 0.429 0.512 0.744 81 78 85
-332.8766 172.4560 26.9596 0.816 -0.560 0.142 59 57 62
-321.1901 183.7515 28.0249 0.822 -0.356 -0.445 85 75 83
-320.6776 185.4901 28.2074 0.873 -0.165 -0.459 90 80 88
-320.9376 187.6449 28.4464 0.851 -0.069 -0.520 83 73 81
-317.0807 187.5600 28.3817 0.926 -0.210 0.315 50 39 47
-326.0336 193.4735 29.1559 0.868 -0.175 0.464 64 54 62
-234.5481 251.0780 34.1310 0.733 -0.679 0.038 71 68 75
-78.9228 -34.2129 0.5021 0.491 0.859 0.148 188 199 219
-367.1213 -51.8067 2.0672 0.740 -0.291 -0.606 58 56 70
-337.9529 -42.0079 2.7800 0.942 0.311 -0.124 81 73 86
-336.8735 -40.3048 2.9520 0.971 0.235 -0.050 100 92 105
-337.0582 -39.5238 3.0391 0.971 0.235 -0.050 112 104 117
-353.2658 -31.8251 4.0711 0.350 -0.933 0.081 123 115 128
-357.8644 -26.1540 4.7427 0.793 0.017 -0.609 69 63 77
-334.5553 1.4323 7.4588 0.795 0.236 0.559 69 61 74
-338.2636 7.4204 8.1541 0.767 -0.398 0.503 83 72 86
-332.0850 12.2546 8.6048 0.887 0.281 0.366 75 64 78
-332.3960 13.1111 8.7017 0.887 0.281 0.366 91 81 92
-336.7668 15.8831 9.0556 0.906 -0.034 0.423 89 79 90
-330.8221 40.3449 11.6416 0.979 0.033 0.199 104 91 98
-327.8942 151.3063 23.6623 0.886 0.446 -0.128 76 67 70
-326.5307 165.5377 25.1921 0.681 -0.623 -0.385 86 83 90
-310.4760 166.5944 25.1133 0.712 0.528 0.463 67 58 63
-325.5489 193.3484 28.2019 0.868 -0.175 0.464 93 83 91
-322.9091 192.9182 28.1233 0.953 -0.299 -0.053 108 98 106
-321.8294 241.4521 33.3836 0.926 0.134 -0.354 75 72 79
-162.3432 175.4939 24.2932 0.877 -0.351 -0.328 79 78 83
-214.5429 243.1272 32.2713 0.476 -0.542 0.693 38 37 42
-63.1496 -37.5173 -0.2551 0.647 0.002 0.762 180 194 207
-63.1959 -37.3456 -0.2361 0.816 -0.353 0.458 201 215 228
-92.1947 -34.1228 0.3955 0.410 0.615 0.673 186 198 216
-101.9283 -34.7405 0.4237 0.568 0.517 -0.640 101 109 120
-358.1129 -61.4879 0.0326 0.170 -0.625 0.762 66 60 69
-372.4928 -53.2542 1.0632 0.718 -0.303 -0.627 51 49 63
-372.0217 -52.3331 1.1582 0.718 -0.303 -0.627 52 50 64
-371.5512 -51.4133 1.2530 0.718 -0.303 -0.627 55 53 67
-341.2646 -39.0614 2.2929 0.879 0.422 -0.221 107 99 112
-339.2047 -38.0666 2.3803 0.857 0.500 -0.126 106 98 111
-316.9844 -15.3255 4.6222 0.819 -0.563 -0.105 89 81 92
-335.9449 15.9073 8.1843 0.976 -0.062 0.211 79 69 80
-337.6777 16.8610 8.3043 0.918 -0.194 0.347 64 54 65
-335.5671 18.4497 8.4555 0.949 -0.205 0.241 77 67 78
-314.2811 131.4967 20.4705 0.144 -0.596 0.790 62 60 61
-289.1459 136.5282 20.7692 0.893 0.436 -0.109 60 51 54
-329.8308 161.2065 23.8346 0.506 0.522 0.687 68 61 68
-331.4481 170.0054 24.8017 0.573 -0.645 -0.506 94 93 99
-330.6719 170.6465 24.8635 0.573 -0.645 -0.506 100 99 105
-330.0600 173.3883 25.1539 0.327 -0.738 -0.591 50 45 51
-319.7204 173.2843 25.0418 0.535 0.776 0.335 68 62 66
-321.3854 242.3829 32.5291 0.924 0.155 -0.349 83 78 85
-321.0821 243.2475 32.6196 0.921 0.163 -0.354 87 82 89
-218.9109 179.0514 24.6812 0.195 -0.658 0.727 75 67 78
-187.1328 197.5278 26.3687 0.664 0.229 0.712 68 67 72
-93.3120 121.0563 17.1846 0.463 -0.862 0.208 53 50 57
-91.1953 120.6843 17.1237 0.444 -0.749 0.492 31 30 35
-118.3388 -57.2992 -2.1798 0.331 -0.872 -0.362 137 153 168
-63.2090 -37.5323 -0.4642 0.815 -0.339 0.469 186 200 213
-63.1332 -37.3195 -0.4419 0.815 -0.339 0.469 197 211 222
-62.9754 -37.0794 -0.4173 0.798 -0.343 0.496 211 225 236
-145.1152 -61.3602 -2.4170 0.517 -0.818 -0.254 100 112 112
-98.1180 -40.5283 -0.5262 0.304 -0.925 -0.230 133 141 162
-90.9092 -38.0758 -0.3161 0.299 -0.949 -0.101 100 108 129
-301.0724 -88.2450 -4.1464 0.644 -0.765 0.017 133 145 161
-362.7206 -67.1037 -1.4119 0.174 -0.460 0.871 78 72 82
-346.8365 -62.2083 -1.0037 0.379 -0.611 0.695 65 59 71
-350.7242 -60.3716 -0.7771 0.171 -0.639 0.750 61 55 65
-352.3638 -42.5272 1.1551 0.891 0.190 0.412 91 83 96
-341.9602 -37.4511 1.6236 0.645 0.533 0.547 100 92 105
-381.2263 -20.9194 3.6952 0.219 -0.847 0.484 86 78 89
-334.7487 15.9106 7.3112 0.953 -0.233 0.192 73 63 74
-335.4464 16.8026 7.4124 0.958 -0.185 0.219 73 63 74
-330.8720 18.2282 7.5316 0.955 -0.200 0.217 87 77 88
-374.4656 21.8831 8.2500 0.008 -0.881 0.473 98 88 99
-357.7928 35.4656 9.5870 0.669 0.738 -0.093 100 90 101
-362.8045 39.7261 10.0828 0.768 -0.542 0.342 96 83 89
-351.8535 40.3375 10.0669 0.689 -0.622 0.373 100 87 94
-331.9737 137.5300 20.3758 0.697 -0.579 0.423 62 60 61
-287.5604 282.8154 35.6762 0.983 0.184 -0.011 80 75 82
-226.5940 238.7760 30.4831 0.667 -0.738 -0.101 77 76 81
-46.4173 -37.2083 -0.7243 0.301 0.393 0.869 158 176 188
-67.8592 -41.6316 -1.0874 0.484 -0.427 -0.764 160 176 192
-64.2750 -39.5843 -0.8867 0.582 -0.717 -0.383 139 155 171
-345.0610 -61.8969 -1.8283 0.383 -0.613 0.691 81 75 85
-338.2280 -39.4856 0.5359 0.945 0.312 -0.095 98 88 99
-341.1822 -37.3323 0.7817 0.673 0.499 0.546 98 88 99
-338.3978 -32.2419 1.3124 0.577 0.543 0.610 139 131 142
-349.2827 -31.3819 1.4605 0.552 0.619 0.558 134 126 137
-337.7438 3.3653 5.1212 0.794 0.287 0.536 95 87 100
-371.6093 17.0852 6.7647 0.912 0.342 0.226 73 62 76
-372.7891 18.0869 6.8780 0.907 0.336 0.253 73 63 74
-373.1746 19.0491 6.9830 0.907 0.336 0.253 72 62 73
-347.5116 29.1149 7.9284 0.776 0.531 -0.339 63 53 64
-353.6083 40.6226 9.1919 0.647 0.756 -0.100 85 72 79
-347.2779 41.6995 9.2745 0.827 0.010 0.562 91 78 85
-340.9857 140.1394 19.7814 0.760 -0.525 0.382 66 64 65
-339.5241 140.5740 19.8204 0.719 -0.592 0.364 66 64 65
-320.8853 145.7655 20.2801 0.559 0.658 0.504 64 55 56
-327.2401 150.4111 20.8103 0.895 0.438 -0.085 64 55 56
-334.0983 166.4436 22.5621 0.280 0.303 0.911 74 69 76
-317.1096 193.1510 25.3339 0.901 -0.434 0.021 91 81 89
-319.8177 196.7065 25.7285 0.760 0.191 0.621 94 84 92
-317.2141 232.4000 29.5366 0.625 0.779 -0.053 75 70 77
-231.8132 219.4897 27.7142 0.887 -0.422 -0.190 58 55 62
-321.7249 309.9839 37.8662 0.402 0.297 0.866 76 71 78
-253.8515 258.5994 32.0150 0.969 0.236 0.072 57 56 61
-52.2702 -38.4339 -1.0080 0.622 -0.671 -0.403 136 151 170
-68.8447 -41.9839 -1.3390 0.460 -0.471 -0.753 161 177 193
-63.0555 -37.6576 -0.8946 0.650 0.758 0.060 110 123 137
-80.0360 -34.4693 -0.5066 0.513 0.858 0.003 210 218 239
-347.1585 -62.9706 -2.7820 0.955 -0.151 0.257 100 92 103
-365.3356 -41.1145 -0.4018 0.370 -0.929 -0.034 92 82 91
-344.2746 -36.7324 0.0050 0.793 0.333 0.511 90 82 93
-348.5312 -31.2751 0.5985 0.552 0.619 0.558 109 101 112
-357.3640 -26.7556 1.1052 0.451 -0.887 -0.104 87 81 95
-353.9957 -25.7125 1.2067 0.951 -0.271 0.150 85 79 93
-359.2464 -4.1260 3.5213 0.261 -0.625 0.736 86 75 83
-335.6941 2.5461 4.1651 0.795 0.308 0.523 39 33 45
-338.9726 3.4564 4.2714 0.818 0.273 0.506 43 37 51
-339.4073 7.7241 4.7273 0.486 -0.531 -0.694 81 73 85
-336.6006 8.4804 4.7998 0.484 -0.537 -0.691 83 73 84
-337.9028 12.7938 5.2631 0.914 0.400 0.069 54 43 57
-346.1688 40.7420 8.2640 0.690 0.675 -0.260 94 81 88
-350.0640 43.9480 8.6167 0.729 -0.175 0.662 62 49 58
-321.4896 148.0708 19.6278 0.939 0.344 -0.013 67 58 61
-306.7143 145.4567 19.3073 0.861 -0.035 -0.507 59 53 57
-311.8421 148.6534 19.6624 0.898 0.408 -0.166 52 45 52
-322.2644 187.0258 23.7801 0.985 -0.166 0.040 91 81 89
-313.4736 189.2530 23.9923 0.897 -0.185 -0.402 82 72 80
-317.3637 192.4249 24.3413 0.851 -0.207 -0.482 81 71 79
-316.1915 219.3335 27.2046 0.890 -0.286 -0.355 99 93 97
-292.2128 285.1931 34.1525 0.560 0.414 0.718 59 54 61
-232.0006 246.7726 29.8880 0.666 -0.745 -0.014 59 58 63
-215.0445 234.9690 28.5822 0.154 -0.976 0.154 84 81 88
-213.4135 235.9027 28.6770 0.180 -0.968 0.175 62 59 66
-212.9759 236.3118 28.7193 0.477 -0.683 0.553 59 56 63
-62.8360 -37.7647 -1.1141 0.586 0.792 0.171 102 115 132
-346.9869 -62.9015 -3.6249 0.921 -0.169 0.351 92 84 95
-334.9701 -57.1825 -3.0251 0.265 -0.883 0.387 65 61 75
-349.8283 -55.2441 -2.8116 0.444 -0.469 0.763 64 60 75
-345.3244 -47.3831 -1.9808 0.105 -0.769 0.630 64 60 77
-329.1484 -32.2425 -0.3846 0.776 -0.617 -0.131 89 84 91
-330.1556 -31.5268 -0.3082 0.797 -0.582 -0.161 89 84 91
-352.3836 -29.8019 -0.1133 0.573 0.494 0.654 93 87 99
-367.5575 7.7968 3.8805 0.641 -0.634 -0.431 82 74 87
-352.4679 36.0746 6.8699 0.599 0.776 0.198 90 82 93
-351.5992 45.1445 7.8309 0.451 -0.717 0.532 62 51 59
-350.4653 45.9176 7.9122 0.451 -0.717 0.532 56 44 54
-308.2394 136.0228 17.4408 0.708 0.370 0.602 59 50 57
-335.6641 149.2546 18.8583 0.209 -0.896 0.391 59 52 58
-311.0244 169.4355 20.9842 0.677 0.728 0.108 87 77 85
-311.7373 170.7645 21.1254 0.558 0.805 0.201 81 71 79
-325.2308 200.0661 24.2388 0.793 -0.417 0.444 84 74 83
-329.3725 211.8896 25.4944 0.640 0.131 -0.757 70 60 68
-306.5013 203.2698 24.5683 0.668 -0.728 0.156 116 106 114
-317.7173 220.4590 26.3965 0.886 -0.291 -0.361 113 107 111
-275.7852 277.9240 32.4652 0.514 -0.844 0.155 48 47 52
-246.8493 259.0505 30.4489 0.617 -0.413 0.670 49 48 53
-241.2483 254.7256 29.9874 0.614 -0.619 0.488 49 48 53
-229.8445 246.6589 29.1262 0.889 0.251 0.383 56 53 60
-122.7431 -58.7878 -3.6450 0.446 -0.773 -0.451 144 159 178
-149.8718 -62.4640 -4.0807 0.497 -0.131 0.857 106 118 118
-163.5859 -66.3865 -4.5186 0.873 -0.486 0.038 102 113 118
-91.7290 -35.2316 -1.1056 0.376 0.621 0.688 153 165 179
-107.0691 -34.9516 -1.1032 0.535 0.480 -0.695 114 120 142
-98.2038 -31.1485 -0.6864 0.519 0.554 -0.651 77 85 104
-344.2054 -62.4333 -4.4208 0.922 -0.165 0.350 109 101 112
-342.8033 -61.4278 -4.3123 0.786 -0.474 0.396 101 93 104
-339.9887 -60.2172 -4.1796 0.411 -0.865 0.289 90 82 93
-363.2601 -43.3888 -2.4458 0.352 -0.164 0.921 82 72 81
-330.2917 -31.4858 -1.1321 0.797 -0.582 -0.161 92 87 94
-381.8491 -17.9242 0.2072 0.937 -0.253 0.242 77 66 82
-344.5342 5.4324 2.7366 0.805 0.579 -0.131 70 63 79
-355.0577 6.5956 2.8407 0.932 -0.237 -0.273 69 63 78
-339.5638 8.7185 3.0920 0.584 -0.656 -0.478 88 81 89
-363.4798 20.5567 4.2983 -0.001 -0.890 0.455 105 95 106
-372.7619 41.1737 6.4565 0.663 0.742 -0.105 87 76 84
-349.0058 39.4207 6.3136 0.674 -0.520 0.525 91 80 88
-334.8298 43.0698 6.7235 0.757 -0.355 0.548 43 32 40
-336.1741 95.2382 12.2235 0.295 -0.749 0.593 121 110 120
-320.7525 156.7268 18.7361 0.492 0.505 0.709 97 92 98
-318.2425 160.4435 19.1326 0.584 0.580 0.568 88 81 88
-244.7478 -115.5758 -10.4368 0.387 -0.893 0.228 119 135 148
-123.1676 -58.9265 -3.9962 0.474 -0.718 -0.510 144 160 178
-63.3559 -37.1806 -1.4703 0.775 0.629 -0.061 199 210 229
-92.1651 -33.7952 -1.2325 0.550 0.734 0.398 176 188 202
-338.7595 -41.7478 -3.0724 0.856 0.340 0.390 80 70 81
-378.8306 -18.6792 -0.8149 0.874 -0.275 0.400 77 66 82
-353.2892 1.3223 1.3883 0.360 -0.931 0.063 66 60 74
-378.7725 18.7284 3.1110 0.489 -0.279 0.826 77 67 78
-365.4821 19.8323 3.2810 0.483 -0.174 0.858 90 80 91
-353.0646 39.0477 5.3482 0.586 0.790 0.180 76 66 75
-331.9637 42.7800 5.8259 0.733 -0.362 0.577 42 31 39
-307.2978 146.9989 16.8634 0.895 0.393 -0.212 82 77 83
-325.2935 170.8495 19.2930 0.839 -0.446 -0.312 78 68 76
-315.2958 177.7480 20.0577 0.975 0.217 -0.040 87 80 87
-334.9239 205.8703 22.9289 0.685 0.700 -0.201 84 74 83
-320.8616 222.7735 24.7601 0.853 -0.188 -0.487 61 55 59
-50.3189 -36.7059 -1.5468 0.553 -0.662 -0.507 159 175 190
-62.9866 -37.6144 -1.7226 0.670 0.730 0.134 114 123 152
-63.3978 -37.1894 -1.6809 0.773 0.631 -0.068 196 207 226
-92.1613 -33.7834 -1.5090 0.545 0.732 0.408 177 189 203
-106.8919 -34.5994 -1.6883 0.272 -0.817 -0.508 110 116 142
-113.6545 -33.9143 -1.6599 0.503 0.840 -0.205 90 98 117
-117.4543 -33.4169 -1.6323 0.228 -0.938 -0.262 145 153 171
-338.4135 -41.6644 -3.9049 0.856 0.340 0.390 79 69 78
-375.0372 -0.1373 0.1971 0.582 0.729 0.360 70 59 67
-366.7564 0.6835 0.3357 0.695 0.630 0.346 63 54 65
-347.9224 40.3654 4.5992 0.646 0.750 -0.141 67 57 66
-335.9185 206.5849 22.0311 0.685 0.700 -0.201 82 72 81
-322.3059 211.2539 22.6056 0.734 -0.678 0.045 74 64 72
-309.6904 204.6374 21.9953 0.427 -0.653 -0.625 74 64 72
-322.6564 216.6981 23.1717 0.642 0.721 0.259 64 58 62
-330.3053 227.8867 24.2911 0.756 -0.642 -0.126 88 82 86
-318.6760 221.5300 23.7017 0.820 -0.173 -0.545 95 89 93
-52.7385 -38.4381 -1.9274 0.642 -0.610 -0.465 173 189 204
-62.8900 -37.5767 -1.9263 0.670 0.732 0.128 110 119 148
-63.4155 -37.1901 -1.8907 0.773 0.631 -0.068 194 205 224
-94.0550 -34.7292 -1.9016 0.416 0.624 0.661 160 172 187
-92.3023 -33.8051 -1.7904 0.528 0.724 0.444 175 187 202
-330.3495 -48.6230 -5.4008 0.536 -0.354 0.766 60 56 73
-302.8271 -44.5770 -4.7410 0.134 -0.887 0.441 60 56 73
-333.7598 -42.7355 -4.8188 0.810 0.561 -0.173 80 72 84
-335.9455 -42.1666 -4.7788 0.806 0.592 0.005 93 83 94
-337.2499 -40.6996 -4.6377 0.848 0.352 0.397 92 82 91
-353.4062 16.5538 1.1692 0.495 -0.001 0.869 61 51 60
-344.5442 38.2499 3.5001 0.768 0.326 -0.551 80 70 79
-333.7710 98.6437 9.8675 0.962 0.151 -0.229 101 87 100
-336.1211 102.1438 10.2107 0.891 0.408 0.197 54 41 52
-333.1136 183.1584 18.6527 0.804 0.342 0.487 83 73 81
-311.0742 177.7677 18.2844 0.968 0.015 -0.249 86 79 86
-315.4243 194.0474 19.9377 0.978 -0.203 0.051 77 67 76
-334.5363 207.0102 21.1180 0.703 0.696 -0.143 77 65 75
-324.8296 210.8309 21.5994 0.656 -0.728 0.197 90 80 88
-50.8975 -36.9185 -1.9345 0.531 -0.680 -0.505 148 164 179
-93.3303 -35.0641 -2.2102 0.389 0.697 0.602 126 138 152
-93.8123 -34.6613 -2.1739 0.414 0.620 0.666 155 167 181
-106.8465 -34.2750 -2.2775 0.283 -0.845 -0.454 143 150 169
-340.5812 -41.7821 -5.6278 0.794 0.573 -0.203 94 84 93
-338.9701 -40.8178 -5.5104 0.846 0.341 0.409 94 84 93
-356.3582 -17.7269 -3.3155 0.668 0.493 0.557 88 75 93
-372.1529 0.8928 -1.5651 0.069 -0.620 0.782 64 55 66
-360.0448 3.4207 -1.1705 0.067 -0.615 0.786 129 125 142
-352.1897 41.9488 2.8978 0.654 0.724 -0.219 68 61 69
-340.6797 94.0011 8.4041 0.673 -0.304 -0.674 68 55 65
-340.2141 94.8288 8.4948 0.673 -0.304 -0.674 77 64 74
-331.5108 103.7381 9.5114 0.883 -0.291 0.367 49 48 46
-338.6399 114.5193 10.5471 0.625 -0.339 -0.703 74 64 72
-338.1076 115.3175 10.6355 0.625 -0.339 -0.703 66 56 65
-330.8941 168.8985 16.2524 0.233 -0.908 -0.347 90 81 86
-307.9601 186.9991 18.3757 0.812 -0.315 -0.492 75 68 75
-52.3795 -38.1296 -2.2598 0.952 0.289 -0.099 196 212 227
-93.5041 -34.5781 -2.4428 0.414 0.620 0.666 150 162 176
-115.9757 -32.7800 -2.5575 0.261 -0.955 -0.139 208 215 231
-336.0927 -42.0848 -6.4482 0.803 0.595 0.026 80 72 83
-336.0551 -41.2837 -6.3653 0.814 0.581 -0.012 80 73 81
-341.7130 -10.4647 -3.2720 0.942 0.270 0.198 77 71 83
-342.2219 -9.6292 -3.1929 0.963 0.262 0.069 83 77 89
-345.0960 -7.9658 -3.0602 0.977 0.135 0.165 82 76 88
-345.3583 -2.8356 -2.5362 0.303 -0.142 0.943 87 74 81
-353.2205 -0.1699 -2.3670 0.435 -0.460 0.774 83 72 81
-351.1015 6.8258 -1.6194 0.450 -0.752 0.481 77 73 88
-350.8741 30.0277 0.7691 0.888 0.460 0.030 60 52 65
-336.8393 99.7076 8.1205 0.703 -0.695 0.155 104 90 103
-341.0534 111.5057 9.2773 0.671 -0.235 -0.703 98 97 95
-338.7464 111.7592 9.3342 0.647 -0.236 -0.725 99 93 97
-338.8134 112.7469 9.4348 0.645 -0.320 -0.694 94 87 94
-330.4575 172.8798 15.7289 0.524 -0.291 -0.800 58 49 54
-221.5321 238.8123 23.9597 0.684 0.068 0.726 46 43 50
-93.1265 -34.4787 -2.7078 0.412 0.613 0.674 147 159 173
-341.8815 -7.8747 -3.8787 0.960 0.271 0.074 88 80 91
-349.2504 -7.0787 -3.9125 0.965 0.260 0.037 88 81 90
-344.6312 -5.3411 -3.6625 0.319 -0.412 0.854 91 81 90
-344.8203 -1.9163 -3.3152 0.330 -0.418 0.846 106 95 103
-352.3441 30.2370 -0.1441 0.876 0.457 -0.157 57 49 60
-350.9883 31.0214 -0.0427 0.876 0.460 -0.141 48 40 53
-331.5277 207.8477 18.3484 0.640 -0.756 -0.138 69 64 71
-336.7513 230.4340 20.5769 0.733 -0.679 -0.047 85 75 83
-52.0321 -37.9893 -2.6072 0.550 0.040 0.834 193 209 224
-52.3563 -37.6245 -2.5759 0.761 0.235 0.605 142 158 173
-92.0123 -33.9507 -2.9145 0.399 0.756 0.518 199 211 223
-331.3712 -4.4254 -4.2101 0.292 -0.403 0.867 90 80 91
-333.5065 -3.5944 -4.1639 0.717 -0.387 -0.580 89 82 90
-339.3712 -2.7354 -4.1818 0.661 -0.047 0.749 92 82 91
-342.3273 -1.8692 -4.1468 0.859 -0.443 -0.256 92 82 91
-352.2876 -0.0477 -4.1404 0.712 -0.453 0.537 94 84 95
-347.6090 0.7656 -3.9736 0.620 -0.673 0.404 87 79 90
-344.1667 5.8920 -3.3901 0.473 -0.251 0.844 96 93 104
-343.8773 6.7488 -3.2977 0.473 -0.251 0.844 63 59 73
-349.5686 40.0511 -0.0114 0.631 -0.600 0.491 83 71 83
-354.9774 42.5318 0.1439 0.087 -0.604 0.792 86 76 87
-348.7426 43.6077 0.3653 0.103 -0.627 0.772 72 60 70
-346.2590 44.2058 0.4708 0.103 -0.624 0.775 74 62 72
-316.1732 105.8455 7.2832 0.958 -0.266 -0.105 120 114 118
-315.1945 191.4582 16.0121 0.880 -0.446 -0.165 77 72 79
-73.5567 -36.3341 -3.0597 0.531 0.840 0.108 173 179 200
-92.5724 -34.3271 -3.2422 0.404 0.711 0.576 131 143 157
-106.3774 -33.8354 -3.4725 0.262 -0.963 -0.064 169 176 192
-101.8361 -32.3319 -3.2282 0.350 -0.936 0.029 75 80 100
-336.1432 -3.5256 -5.0649 0.755 -0.235 -0.612 84 76 87
-346.0490 0.8097 -4.8270 0.904 -0.307 -0.298 77 69 80
-348.6788 2.5884 -4.7003 0.157 -0.759 0.631 77 71 83
-358.3537 26.3287 -2.4936 0.601 -0.512 -0.614 80 68 78
-360.0842 29.2368 -2.2344 0.582 -0.275 -0.765 96 84 94
-357.5118 34.5521 -1.6442 0.509 -0.319 -0.799 72 66 78
-357.1178 35.4379 -1.5465 0.522 -0.301 -0.798 60 54 66
-343.0343 35.7894 -1.2253 0.767 -0.247 -0.592 54 48 60
-344.9725 43.2164 -0.5128 0.103 -0.623 0.775 104 92 104
-341.1077 146.5543 10.0253 0.819 -0.092 0.567 60 60 62
-321.8539 198.4077 15.6644 0.731 0.286 0.620 57 54 61
-321.5430 199.2586 15.7568 0.748 0.424 0.510 61 60 66
-315.4771 218.3198 17.8092 0.537 -0.306 -0.786 77 65 75
-312.4503 275.9713 23.7061 0.490 0.392 0.779 91 85 95
-255.2498 308.1162 28.1200 0.901 -0.217 -0.376 22 23 25
-73.6460 -36.3533 -3.2980 0.547 0.810 0.213 169 174 196
-92.6291 -34.3296 -3.5233 0.404 0.716 0.569 127 139 153
-102.1673 -32.3864 -3.5433 0.360 -0.875 -0.324 72 77 96
-353.7276 -6.0427 -6.5771 0.240 -0.900 -0.363 87 77 86
-350.3005 0.0616 -5.8850 0.901 -0.263 -0.346 66 58 69
-358.7389 23.6809 -3.6976 0.555 -0.597 -0.579 63 51 63
-362.0559 28.5542 -3.2819 0.581 -0.284 -0.762 81 69 79
-351.7307 34.9685 -2.4027 0.622 -0.643 -0.447 70 62 73
-325.6081 146.2835 9.3957 0.664 -0.419 0.620 70 68 67
-321.5994 147.5084 9.6096 0.641 -0.288 0.711 86 85 83
-241.1070 261.7486 22.9314 0.628 0.556 0.545 51 48 55
-271.8188 301.7769 26.2675 0.791 -0.381 -0.478 58 59 60
-73.7094 -36.3649 -3.5354 0.547 0.810 0.213 164 169 191
-92.3773 -34.2598 -3.7899 0.404 0.716 0.569 125 137 151
-102.5397 -32.4493 -3.8619 0.349 -0.887 -0.302 75 80 99
-294.5521 -59.2975 -11.3369 0.757 0.287 0.587 58 55 66
-347.2397 -5.0926 -7.2214 0.901 -0.188 -0.390 86 76 87
-350.6248 0.1315 -6.7825 0.901 -0.263 -0.346 84 76 87
-339.9338 5.9755 -5.9308 0.301 -0.398 0.866 61 55 65
-368.0401 26.3050 -4.5953 0.532 -0.580 -0.618 80 68 78
-356.6289 36.4747 -3.2923 0.266 -0.589 0.763 67 59 70
-79.5002 98.9946 9.8768 0.702 0.475 -0.531 61 57 66
-269.4342 299.5808 25.2318 0.718 -0.429 -0.547 70 72 71
-102.8283 -35.5816 -4.4858 0.361 0.821 0.443 145 155 167
-119.3228 -33.3152 -4.7095 0.230 -0.971 0.058 190 196 213
-131.3792 -33.5046 -5.0569 0.875 0.451 -0.173 68 65 76
-370.3120 -54.7801 -13.6870 0.407 -0.761 0.505 63 60 71
-343.0518 -5.8747 -8.0723 0.866 -0.330 -0.375 79 69 78
-351.0327 -5.0343 -8.2061 0.915 -0.103 -0.389 74 66 77
-350.9499 0.2017 -7.6822 0.901 -0.263 -0.346 112 104 115
-359.8168 32.2326 -4.7330 0.271 -0.563 0.781 73 63 74
-351.2879 38.7411 -3.8522 0.835 -0.278 -0.475 82 71 85
-347.8694 106.3785 2.9789 0.753 -0.060 0.655 74 64 74
-342.3604 105.7510 3.0665 0.850 -0.060 0.524 84 72 81
-344.0742 108.2015 3.2639 0.751 0.659 -0.041 87 76 82
-335.6195 107.5967 3.4341 0.661 -0.682 0.312 106 95 101
-332.1982 107.5091 3.5186 0.657 -0.685 0.314 123 112 118
-331.5070 157.9841 8.5657 0.657 0.413 -0.631 89 85 86
-331.4598 158.9672 8.6649 0.664 -0.461 0.589 78 74 75
-73.4795 -36.2831 -3.9906 0.522 0.734 0.434 153 160 181
-90.9821 -34.1657 -4.2984 0.542 0.744 0.392 119 131 145
-349.7978 -7.5673 -9.3171 0.940 0.008 -0.342 83 72 80
-351.2903 -0.6038 -8.6712 0.894 -0.330 -0.302 129 121 132
-336.7354 14.5588 -6.7384 0.458 -0.822 -0.338 82 72 81
-332.4851 15.1900 -6.5502 0.726 -0.611 -0.316 83 73 84
-354.0795 39.1353 -4.8162 0.830 -0.321 -0.455 78 67 81
-352.6998 39.9014 -4.6995 0.139 -0.748 0.650 93 79 94
-339.2880 105.9206 2.2387 0.855 -0.069 0.515 85 74 82
-339.2680 106.8780 2.3341 0.855 -0.069 0.515 86 75 81
-337.8285 107.4100 2.4294 0.898 -0.413 0.154 85 74 80
-332.8470 106.8628 2.5225 0.679 -0.607 0.413 95 84 90
-337.3431 140.5298 5.7254 0.659 -0.145 -0.738 92 89 96
-317.8810 146.2808 6.8708 0.814 0.160 0.558 72 68 67
-258.3560 292.8802 23.1570 0.813 -0.269 -0.517 61 63 62
-72.9995 -36.1351 -4.1954 0.476 0.723 0.501 149 156 177
-90.9720 -34.1527 -4.5734 0.541 0.742 0.395 118 130 144
-371.8181 -54.0003 -15.4883 0.726 -0.323 0.608 60 56 70
-345.8001 -6.6160 -9.9886 0.883 -0.225 -0.412 78 66 76
-347.4325 13.4132 -8.0668 0.309 -0.925 0.222 83 73 81
-338.7079 103.9337 1.1323 0.832 -0.051 0.553 81 71 81
-331.7483 106.6349 1.6206 0.840 -0.493 0.228 92 81 87
-338.8446 141.2357 4.8041 0.654 -0.161 -0.739 83 82 88
-320.6056 148.5349 6.1053 0.805 0.185 0.564 81 80 78
-330.9622 153.9926 6.3127 0.663 0.502 -0.556 101 100 98
-323.1865 151.6008 6.3251 0.405 -0.298 0.864 115 114 112
-70.8779 78.1022 7.1304 0.077 -0.096 0.992 69 61 72
-142.8324 -60.1070 -9.1691 0.266 -0.891 0.368 95 106 102
-90.2652 -33.9753 -4.8085 0.545 0.718 0.434 118 130 144
-117.7670 -32.9779 -5.6521 0.224 -0.972 0.070 197 203 219
-370.0088 -53.7299 -16.3197 0.719 -0.322 0.616 59 53 67
-354.7715 10.2405 -9.5280 0.475 -0.592 -0.651 74 64 73
-335.5862 14.6381 -8.4403 0.345 -0.767 0.541 83 73 82
-343.2104 20.2934 -8.1470 0.323 0.091 0.942 76 66 77
-356.6742 23.0001 -8.3425 0.260 0.012 0.965 98 88 99
-353.2953 33.6928 -7.1788 0.599 -0.589 0.543 53 45 56
-339.2760 104.2038 0.2122 0.829 -0.065 0.555 75 65 75
-343.7639 108.4319 0.4730 0.731 0.227 0.644 84 73 79
-339.3363 109.0429 0.6844 0.752 -0.394 0.529 86 75 81
-323.4539 121.0574 2.4057 0.958 0.285 -0.031 82 74 85
-324.0996 122.2307 2.4986 0.928 -0.364 -0.084 76 69 77
-319.3849 147.1643 5.1038 0.818 -0.301 -0.491 84 80 81
-332.2439 154.6735 5.3997 0.663 0.502 -0.556 102 98 99
-330.7979 176.2923 7.5682 0.307 0.453 0.837 85 78 85
-332.4782 209.5962 10.7750 0.309 -0.242 0.920 80 77 84
-200.3469 229.4903 17.2474 0.611 -0.466 0.640 39 39 41
-81.2734 112.5682 9.8628 0.455 0.284 0.844 65 67 66
-372.4103 -53.9718 -17.3473 0.704 -0.285 0.651 58 52 66
-353.9553 10.2802 -10.4093 0.293 -0.930 0.222 91 81 92
-323.9995 17.4339 -8.6169 0.448 -0.758 0.475 79 68 82
-358.0240 27.7654 -8.8536 0.653 0.492 0.575 89 77 87
-352.7123 40.1479 -7.4523 0.789 -0.386 -0.479 81 69 83
-337.2071 102.7513 -0.7829 0.925 -0.010 -0.381 139 129 140
-340.1852 104.5736 -0.7141 0.902 -0.016 -0.432 119 109 118
-335.6633 134.2907 2.3480 0.592 -0.241 -0.769 92 87 93
-320.2168 148.6095 4.3085 0.754 -0.403 -0.518 96 90 92
-191.1128 222.7542 16.2557 0.574 -0.453 0.682 49 51 50
-71.2831 -42.3797 -5.4360 0.392 -0.909 -0.141 171 185 198
-366.9243 10.8459 -11.7724 0.053 -0.906 0.421 84 73 87
-347.6907 13.6376 -10.7538 0.444 -0.786 0.431 68 60 74
-330.3171 16.1941 -9.8304 0.347 -0.774 0.529 64 56 70
-348.4098 26.1533 -9.5685 0.853 0.379 0.359 93 81 91
-356.9242 27.7528 -9.7445 0.653 0.488 0.579 104 92 102
-363.1627 38.5973 -8.9358 0.952 0.305 -0.043 73 63 74
-344.1584 39.2426 -8.1342 0.380 -0.877 -0.295 82 70 84
-339.4567 103.5048 -1.7215 0.887 -0.099 -0.450 146 136 147
-340.6254 104.8073 -1.6406 0.902 -0.016 -0.432 128 118 127
-330.5087 117.0316 -0.0621 0.847 0.127 -0.516 124 118 120
-298.7320 145.8569 3.9680 0.466 -0.319 0.825 91 85 89
-325.4088 193.2932 7.5294 0.381 0.045 0.923 100 89 95
-309.8683 192.6991 8.0761 0.658 -0.159 0.736 73 66 73
-69.1136 -41.5997 -5.4983 0.408 -0.910 -0.076 170 184 197
-87.4383 -36.2259 -5.7355 0.311 -0.939 -0.148 190 202 218
-351.2488 11.2063 -12.0363 0.548 0.529 0.648 79 70 87
-347.8059 25.2841 -10.5371 0.703 0.519 0.486 99 89 97
-348.6959 26.2520 -10.4805 0.848 0.380 0.370 94 84 92
-356.1387 27.7658 -10.6413 0.653 0.488 0.579 106 96 104
-362.9396 29.2610 -10.7775 0.361 -0.119 0.925 96 86 94
-352.5809 31.1168 -10.1716 0.534 -0.599 0.597 110 99 107
-351.7692 31.9539 -10.0574 0.534 -0.599 0.597 107 95 105
-363.2344 38.6881 -9.8808 0.952 0.305 -0.043 71 59 69
-362.6324 40.5123 -9.6801 0.702 -0.710 -0.059 84 72 84
-340.2331 39.7627 -8.8291 0.380 -0.873 -0.306 97 87 98
-339.0158 103.4825 -2.6357 0.896 -0.072 -0.438 154 148 155
-316.4319 108.7811 -1.1940 0.851 0.317 0.418 89 80 84
-336.3850 134.7964 0.4917 0.517 -0.179 -0.837 119 113 115
-305.1050 151.6617 3.4069 0.859 0.123 0.497 98 89 94
-302.4653 151.3812 3.4887 0.683 0.225 0.695 100 91 96
-333.1649 184.0844 5.3762 0.665 0.083 0.743 78 68 76
-191.6628 223.5870 15.0171 0.806 -0.205 0.555 36 38 37
-191.7772 224.4793 15.0984 0.616 -0.432 0.659 36 38 37
-69.3190 -41.6684 -5.7362 0.412 -0.908 -0.076 169 183 196
-113.7406 -50.9599 -8.5616 0.259 -0.842 0.473 58 69 66
-87.9745 -36.3558 -6.0394 0.311 -0.939 -0.148 185 196 214
-82.8032 -34.0707 -5.5951 0.443 0.875 0.196 146 158 174
-110.7074 -36.0875 -7.0037 0.229 -0.974 0.001 80 87 103
-371.7648 -50.2597 -19.7316 0.112 -0.642 0.758 64 58 72
-354.4536 27.7041 -11.5030 0.654 0.483 0.583 92 82 90
-360.7686 29.1557 -11.6389 0.361 -0.119 0.925 90 80 88
-340.6614 39.8930 -9.7338 0.380 -0.873 -0.306 98 88 99
-214.8699 30.4084 -5.1648 0.884 0.463 0.059 79 66 83
-334.7469 119.6318 -1.8313 0.961 -0.001 -0.277 100 94 96
-329.6223 118.8670 -1.6815 0.994 -0.061 -0.089 83 77 79
-333.3411 121.0936 -1.6300 0.921 0.115 -0.373 99 93 95
-301.3191 150.0411 2.5399 0.730 -0.045 0.683 119 110 115
-62.7806 -37.2722 -5.2401 0.640 0.746 0.183 117 124 149
-63.6182 -36.6041 -5.2148 0.658 0.727 0.196 109 123 127
-104.8532 -41.2862 -7.5532 0.290 -0.948 -0.133 104 116 132
-91.7975 -34.0270 -6.2621 0.395 0.710 0.583 122 134 148
-362.5238 -51.7235 -20.3715 0.255 -0.761 0.596 64 58 72
-358.9659 -49.6134 -20.0071 0.159 -0.777 0.609 74 68 82
-366.5496 -26.9232 -18.1918 0.551 -0.684 0.479 78 68 79
-363.3868 -5.4193 -15.9966 0.923 0.258 -0.286 72 64 77
-347.8600 26.3364 -12.2566 0.546 -0.255 0.798 78 68 76
-357.4351 41.0237 -11.2957 0.808 -0.334 -0.485 114 104 115
-339.6131 40.7427 -10.5047 0.649 -0.653 -0.391 82 72 83
-334.4073 130.3550 -1.7225 0.701 -0.469 -0.537 101 95 97
-340.5936 160.9952 0.9148 0.849 0.341 0.404 96 84 94
-300.5345 149.7991 1.6855 0.730 -0.045 0.683 113 104 109
-325.1224 196.6658 5.0255 0.733 0.244 -0.635 105 94 98
-62.6266 -37.4030 -5.4552 0.654 0.745 0.134 110 117 143
-62.8942 -37.3054 -5.4589 0.700 0.703 0.130 115 122 147
-115.1219 -51.0821 -9.2834 0.519 -0.708 0.479 80 86 84
-92.0523 -34.0756 -6.5587 0.394 0.714 0.579 122 134 148
-371.2166 -24.4344 -19.1061 0.431 -0.465 0.773 84 74 85
-374.0965 -6.2999 -17.5259 0.977 0.130 -0.168 70 64 76
-359.6742 -4.4527 -16.6553 0.916 0.285 -0.282 70 60 71
-367.9685 -0.7990 -16.7089 0.925 0.330 -0.190 87 77 88
-347.8349 24.6158 -13.3287 0.703 0.520 0.485 103 93 103
-347.5025 25.4864 -13.2301 0.709 0.512 0.484 98 88 97
-347.8694 26.4130 -13.1600 0.539 -0.258 0.802 90 80 88
-326.5978 106.7366 -4.5195 0.827 -0.067 0.558 113 107 111
-319.9073 119.5306 -2.9840 0.735 0.025 0.678 101 95 97
-327.9247 125.2126 -2.8319 0.883 0.371 -0.288 104 98 100
-327.8735 145.6155 -0.8953 0.471 0.562 0.680 97 87 88
-336.8654 159.4801 -0.0145 0.995 -0.064 0.071 104 92 102
-333.3814 158.9539 0.1036 0.995 -0.066 -0.072 112 101 109
-332.4709 162.5954 0.4928 0.935 0.301 0.185 123 117 121
-332.3076 163.5350 0.5897 0.928 0.312 0.204 117 108 113
-301.2482 150.2465 0.8277 0.868 -0.195 0.457 102 93 98
-309.0775 174.0753 2.7091 0.781 0.364 0.507 74 67 75
-55.7874 101.9447 8.0848 0.130 0.019 0.991 20 22 21
-69.0920 -41.7712 -6.4038 0.423 -0.887 0.187 149 165 178
-63.1019 -37.3701 -5.6860 0.677 0.736 -0.005 112 120 144
-91.3727 -37.2092 -7.1002 0.291 -0.945 -0.145 173 181 200
-92.3109 -34.1251 -6.8569 0.390 0.722 0.571 123 135 149
-362.9207 -6.1843 -17.9044 0.943 -0.269 0.197 70 64 76
-357.4529 26.3441 -14.5617 0.820 0.572 -0.036 99 89 98
-359.0852 28.3223 -14.4578 0.872 -0.113 -0.477 99 89 97
-343.2982 29.6777 -13.5319 0.444 -0.796 0.412 84 74 82
-349.8405 32.9945 -13.5500 0.874 0.318 0.368 78 66 76
-327.9864 109.1538 -5.2660 0.835 -0.159 -0.528 108 102 106
-331.0135 118.7079 -4.5184 0.618 -0.773 0.142 68 62 64
-327.8939 118.6105 -4.3699 0.417 -0.908 0.046 66 60 62
-324.3779 124.0555 -3.6789 0.406 0.436 0.803 91 85 87
-327.4988 126.1335 -3.6408 0.405 0.434 0.805 98 92 94
-334.9315 130.7782 -3.5787 0.473 0.393 0.789 100 94 96
-321.4010 136.3137 -2.3729 0.651 -0.724 0.226 109 98 102
-335.0611 159.8281 -0.8469 0.980 -0.097 -0.176 101 90 98
-333.0362 159.9400 -0.7340 1.000 -0.018 -0.013 104 94 102
-332.7099 163.8491 -0.3490 0.924 0.320 0.209 96 87 92
-330.3046 176.9935 1.0116 0.769 0.162 0.618 93 83 91
-323.5282 190.9107 2.6661 0.919 -0.345 -0.190 87 76 83
-310.4886 192.7523 3.4990 0.429 0.099 0.898 89 83 87
-322.6913 218.5609 5.3148 0.611 0.790 -0.059 90 80 88
-328.3036 275.1448 10.3649 0.612 0.721 0.324 66 56 69
-63.2107 -37.4016 -5.9059 0.679 0.734 -0.003 111 119 142
-117.3932 -34.0449 -8.4573 0.498 0.751 -0.434 104 110 124
-110.7157 -30.6360 -7.7846 0.339 -0.933 -0.123 47 47 55
-359.2242 -29.8101 -20.8522 0.361 0.083 0.929 88 80 93
-362.0938 -29.1219 -20.9395 0.416 -0.060 0.907 96 88 101
-349.9225 -11.2647 -18.6220 0.777 0.022 -0.630 69 63 73
-351.7647 -5.1985 -18.1509 0.085 -0.961 -0.264 70 62 73
-354.0214 23.4182 -15.5881 0.290 -0.879 -0.378 89 78 94
-357.2548 24.5678 -15.6514 0.815 0.579 -0.021 80 69 83
-357.9432 25.5390 -15.5968 0.815 0.579 -0.021 90 80 90
-359.5676 26.5882 -15.5844 0.816 0.578 -0.025 93 83 91
-355.2054 27.1601 -15.3000 0.946 0.217 0.238 93 83 91
-357.8106 30.1428 -15.1583 0.876 -0.122 -0.466 92 82 90
-343.4932 30.6647 -14.3520 0.579 -0.701 0.417 80 69 77
-342.8212 103.1697 -7.5208 0.950 0.081 0.303 71 66 72
-328.8687 118.0950 -5.3839 0.640 -0.764 0.076 127 121 123
-324.7908 117.6659 -5.2084 0.427 -0.889 0.163 125 119 121
-335.1450 133.9305 -4.2317 0.373 0.345 0.861 105 99 101
-334.8524 134.8085 -4.1339 0.494 0.395 0.775 105 99 101
-349.2554 156.8115 -2.8335 0.432 0.645 0.630 93 83 84
-353.6555 159.7177 -2.7939 0.432 0.645 0.630 88 78 80
-335.2108 160.0232 -1.7896 0.980 -0.097 -0.176 88 77 85
-336.2529 161.5076 -1.7056 0.973 -0.156 -0.170 94 83 89
-336.0845 162.4540 -1.6080 0.973 -0.156 -0.170 99 90 95
-335.9161 163.4006 -1.5103 0.973 -0.156 -0.170 102 93 98
-321.4439 190.9358 1.8360 0.859 -0.473 -0.196 85 73 77
-313.4392 209.8498 4.0321 0.801 0.513 -0.307 78 72 76
-316.5445 212.7983 4.1442 0.801 0.514 -0.307 79 70 75
-318.2816 227.5328 5.4334 0.320 -0.941 0.109 89 82 89
-313.4138 225.3785 5.4889 0.367 -0.718 0.591 83 76 83
-312.7659 228.0873 5.7771 0.635 0.759 -0.141 87 80 87
-322.9424 242.4764 6.5874 0.751 -0.660 -0.027 83 71 80
-28.6152 50.8346 4.1942 0.323 -0.786 -0.527 68 61 71
-68.5290 -41.5598 -6.7986 0.403 -0.878 0.257 150 166 179
-63.1750 -37.1955 -6.0962 0.876 0.482 0.026 160 169 188
-114.6077 -31.9414 -8.4475 0.313 -0.939 -0.144 165 169 181
-358.3799 -12.2330 -20.0758 0.795 0.058 -0.604 69 63 73
-359.0508 -11.3619 -20.0317 0.798 0.060 -0.600 68 62 72
-361.0866 -7.8327 -19.8152 0.208 -0.938 -0.279 70 64 76
-339.1462 -5.1127 -18.3499 0.092 -0.947 -0.307 70 62 73
-321.5005 -0.2306 -16.9202 0.926 0.244 -0.288 76 66 75
-366.8727 2.1427 -19.2052 0.625 -0.513 -0.588 86 79 87
-324.5607 3.9080 -16.7036 0.788 -0.514 -0.338 80 73 81
-342.9858 29.8021 -15.3083 0.518 -0.854 0.036 86 76 84
-336.2643 30.9453 -14.8305 0.995 0.095 -0.001 88 76 86
-352.9915 35.2986 -15.3487 0.902 0.397 0.171 76 65 73
-341.8502 106.8807 -8.0626 0.798 -0.497 0.340 103 97 101
-328.1501 125.6310 -5.5586 0.782 -0.590 0.201 126 120 122
-328.7119 126.7973 -5.4809 0.765 -0.614 0.196 121 115 117
-333.7946 176.9313 -1.0897 0.651 -0.178 -0.738 92 83 88
-302.6789 219.4559 4.5918 0.617 -0.783 -0.078 92 83 88
-306.5388 223.0449 4.7131 0.788 -0.569 -0.237 103 94 99
-324.8825 239.6176 5.2442 0.722 -0.619 0.308 104 95 100
-322.5265 239.1002 5.3262 0.851 -0.520 -0.070 104 93 99
-325.4792 243.2990 5.5543 0.773 -0.621 -0.133 101 90 96
-67.9375 -41.3429 -6.9663 0.375 -0.856 0.355 152 168 181
-63.2528 -37.2164 -6.3143 0.874 0.485 0.024 144 152 172
-398.9854 -10.0373 -23.1264 0.187 -0.918 -0.349 78 72 82
-352.1277 -3.3161 -19.8058 0.090 -0.945 -0.315 86 76 85
