ply
format ascii 1.0
element vertex 842
property float x
property float y
property float z
property float nx
property float ny
property float nz
property uchar diffuse_red
property uchar diffuse_green
property uchar diffuse_blue
end_header
14.7367 130.1819 -42.4411 0.431 -0.883 0.185 72 94 56
14.4317 129.3261 -42.2081 0.560 -0.799 0.219 72 94 56
14.9995 129.5182 -42.3019 0.635 -0.746 0.200 65 87 51
15.9905 130.2122 -42.5526 0.621 -0.750 0.229 56 78 42
26.0879 128.6206 -43.0054 -0.279 -0.942 0.188 60 84 50
26.4304 128.5458 -43.0157 -0.273 -0.944 0.184 63 87 53
-172.2724 188.7766 -41.6106 -0.765 -0.277 0.582 58 73 51
-161.6490 179.4823 -40.2174 0.009 -0.373 0.928 69 68 63
-160.9116 179.9508 -40.3937 0.011 -0.369 0.929 73 72 65
-139.6172 157.3212 -36.6205 0.433 -0.663 -0.611 35 29 31
-138.7373 156.8995 -36.5905 -0.169 -0.985 0.020 31 27 26
-137.3523 153.9993 -35.9949 -0.863 -0.339 0.374 32 28 27
-136.2944 156.5414 -36.7063 0.091 -0.837 0.540 33 29 28
-135.7396 155.7164 -36.5503 0.082 -0.825 0.559 38 37 35
-135.3526 155.7511 -36.5910 -0.589 -0.749 0.303 48 48 46
-134.9675 155.7972 -36.6344 0.073 -0.823 0.563 55 55 55
-134.4492 155.1313 -36.5144 -0.543 -0.763 0.350 57 59 58
-129.1269 156.3991 -37.2688 0.316 -0.848 0.426 26 27 21
-126.6948 156.1255 -37.4044 0.089 -0.983 0.160 27 26 24
-125.5654 156.6438 -37.6257 0.076 -0.709 0.701 27 26 24
-120.8837 154.1740 -37.4104 0.531 -0.808 -0.257 35 30 29
-118.0681 158.4228 -38.6867 -0.019 -0.596 0.803 48 47 43
-116.6314 161.0304 -39.4458 0.790 -0.611 -0.051 55 51 48
-115.0720 162.6100 -39.9630 -0.646 -0.757 0.101 55 49 51
-113.3730 162.3510 -40.0411 -0.425 -0.771 0.474 61 55 55
-112.0901 161.9645 -40.0533 -0.430 -0.779 0.456 55 48 55
-111.5043 158.5146 -39.2563 -0.496 -0.707 0.504 56 50 60
-109.5534 150.6656 -37.4946 0.649 -0.599 -0.468 62 57 63
-94.2590 146.6533 -37.7857 0.665 -0.546 0.509 58 71 45
-93.9163 145.8267 -37.6116 0.350 -0.902 0.253 53 66 40
-93.5175 145.9626 -37.6781 0.350 -0.902 0.253 52 62 37
-31.6834 138.9521 -41.1133 -0.194 -0.125 0.973 65 81 52
-31.1082 136.7944 -40.6322 -0.294 -0.119 0.948 55 69 45
-16.9060 145.7798 -44.0189 0.315 -0.064 0.947 122 112 121
-12.0410 136.1238 -42.0570 0.083 -0.113 0.990 127 118 123
-11.2013 136.8177 -42.2972 -0.040 -0.076 0.996 119 108 114
-9.3524 137.1372 -42.5296 0.051 -0.110 0.993 81 75 79
-8.9510 137.1185 -42.5585 0.073 -0.120 0.990 61 56 60
-9.2139 136.0565 -42.2762 0.122 -0.124 0.985 54 49 54
-4.7682 129.4097 -41.0171 -0.077 0.014 0.997 86 98 84
15.4475 133.0087 -43.5845 -0.106 -0.771 0.629 64 86 50
15.8127 132.9461 -43.5996 -0.106 -0.771 0.629 66 88 50
14.5650 129.9431 -42.7594 0.437 -0.886 0.153 66 88 50
14.0693 128.8598 -42.4524 0.571 -0.797 0.198 67 89 51
14.8420 129.2977 -42.6242 0.635 -0.746 0.200 62 84 48
15.6693 129.7974 -42.8157 0.506 -0.816 0.281 58 80 42
6.8851 116.2630 -38.7653 0.694 -0.686 0.216 58 80 44
-168.6251 181.8322 -40.6867 -0.691 -0.229 0.685 70 81 64
-160.4499 178.2199 -40.4755 0.044 -0.419 0.907 63 64 56
-157.6493 176.0912 -40.1823 0.325 -0.447 0.833 83 77 77
-153.8636 168.7531 -38.6811 -0.695 -0.620 -0.364 76 70 72
-153.2247 167.9521 -38.5361 -0.695 -0.620 -0.364 78 71 74
-152.9381 169.9450 -39.0538 0.359 -0.690 -0.628 70 61 69
-139.2602 157.2876 -37.0620 0.451 -0.673 -0.586 38 32 34
-139.1639 158.7139 -37.4234 -0.020 -0.965 -0.262 37 33 32
-137.0906 158.3385 -37.5038 -0.842 -0.539 0.029 32 28 27
-135.8178 155.8926 -37.0043 -0.582 -0.751 0.310 33 31 29
-135.3592 155.5560 -36.9593 -0.582 -0.751 0.310 41 41 39
-134.9652 155.5533 -36.9916 0.073 -0.823 0.563 49 49 49
-134.4624 154.9687 -36.8888 -0.543 -0.763 0.350 51 53 52
-133.1670 154.3160 -36.8354 -0.805 -0.441 0.396 33 35 34
-127.1720 156.3915 -37.8508 0.493 -0.643 0.586 27 26 24
-126.7453 156.1966 -37.8382 0.349 -0.817 0.458 26 25 23
-126.3082 155.9215 -37.8066 0.090 -0.705 0.704 23 22 20
-125.9372 156.1293 -37.8891 0.077 -0.713 0.697 24 23 21
-125.5387 156.1377 -37.9245 0.077 -0.713 0.697 25 24 22
-124.8944 154.2536 -37.5117 -0.303 -0.558 0.772 30 29 27
-124.0680 150.8712 -36.7429 -0.628 -0.754 0.193 30 28 29
-122.8971 147.6464 -36.0420 0.796 -0.512 0.323 29 27 28
-121.5951 153.0847 -37.4980 0.692 -0.665 -0.282 58 57 56
-120.9263 154.2185 -37.8347 0.538 -0.805 -0.249 56 56 53
-120.5575 154.4956 -37.9342 0.538 -0.805 -0.249 52 51 49
-115.5552 162.9737 -40.4526 -0.703 -0.711 0.021 69 64 61
-113.3938 162.0813 -40.4122 -0.501 -0.835 0.230 65 56 57
-109.9280 149.3857 -37.5572 0.648 -0.526 -0.551 68 64 69
-93.9485 145.7103 -37.9828 0.350 -0.902 0.253 59 71 47
-93.5498 145.8460 -38.0498 0.350 -0.902 0.253 58 67 44
-92.7716 145.7943 -38.1021 0.040 -0.582 0.812 87 95 72
-30.6538 136.8955 -41.0915 -0.141 -0.091 0.986 53 70 47
-9.9516 136.1661 -42.6418 0.072 -0.121 0.990 90 84 88
-5.0256 127.3340 -40.8659 -0.114 0.018 0.993 95 107 93
16.0573 133.2107 -44.0844 -0.131 -0.750 0.649 60 82 44
14.2963 129.5880 -43.0397 0.444 -0.882 0.160 62 83 44
14.0361 128.7879 -42.8198 0.559 -0.802 0.208 61 83 45
14.6848 129.0778 -42.9459 0.635 -0.746 0.200 58 80 42
15.5276 129.5963 -43.1448 0.506 -0.816 0.281 55 77 39
-168.1790 180.3271 -40.8226 -0.694 -0.229 0.683 73 84 65
-159.1613 175.1724 -40.2890 0.252 -0.383 0.889 63 59 57
-156.8001 174.4441 -40.3047 -0.630 -0.382 0.676 78 73 74
-154.7836 170.3451 -39.4481 -0.726 -0.617 -0.303 69 64 68
-139.9495 158.4398 -37.7130 0.433 -0.661 -0.612 35 29 31
-137.2248 158.7872 -38.0284 -0.878 -0.478 0.016 34 28 28
-136.5800 157.5435 -37.7713 -0.868 -0.496 -0.010 29 24 24
-135.3755 155.4118 -37.3389 -0.582 -0.751 0.310 36 35 33
-134.9188 155.0767 -37.2933 -0.582 -0.751 0.310 40 40 40
-134.4503 154.6713 -37.2312 -0.577 -0.757 0.307 45 47 46
-130.2486 152.9997 -37.1652 0.613 -0.758 0.224 33 34 26
-127.2003 156.3033 -38.2476 -0.124 -0.908 0.399 31 32 27
-126.7919 156.2396 -38.2659 -0.124 -0.908 0.399 27 28 23
-126.2967 155.5434 -38.1333 0.114 -0.688 0.716 23 24 19
-125.9313 155.7866 -38.2248 0.065 -0.671 0.738 22 22 20
-125.5587 155.9856 -38.3058 0.087 -0.698 0.710 24 22 23
-124.8772 153.8171 -37.8203 -0.303 -0.558 0.772 29 25 26
-116.1346 158.9564 -39.8397 0.765 -0.642 0.050 62 61 51
-115.1143 162.1383 -40.7215 -0.713 -0.696 0.078 71 64 61
-114.3310 163.0424 -41.0135 0.662 -0.749 0.033 70 65 61
-113.8193 161.5645 -40.6866 0.741 -0.660 0.124 72 67 63
-113.2503 158.9815 -40.0879 -0.700 -0.704 0.120 73 68 64
-111.1277 157.7847 -39.9664 -0.470 -0.688 0.553 68 69 63
-110.3489 149.3228 -37.9142 0.619 -0.620 -0.482 68 70 62
-94.3494 145.9634 -38.4154 0.664 -0.553 0.503 59 68 49
-93.9806 145.5939 -38.3539 0.350 -0.902 0.253 57 66 46
-93.5821 145.7295 -38.4212 0.350 -0.902 0.253 55 62 44
-45.1304 132.5831 -39.1952 0.451 -0.348 0.822 57 79 43
-45.3587 131.0762 -38.7989 0.415 -0.370 0.831 59 81 45
-18.4629 141.3845 -43.6344 0.268 -0.073 0.961 125 115 124
-18.2622 140.9924 -43.5531 0.222 -0.072 0.972 128 118 128
-7.8393 134.9634 -42.9186 -0.275 0.018 0.961 68 67 73
-1.1617 128.8436 -41.9472 -0.100 0.014 0.995 89 104 78
-161.5347 174.3399 -40.3399 0.255 -0.559 0.789 61 64 55
-157.2513 174.3264 -40.6969 0.289 -0.510 0.810 76 74 75
-153.5049 173.1909 -40.7250 0.497 -0.761 -0.416 57 55 60
-136.7030 157.9411 -38.2836 -0.849 -0.527 0.038 40 34 34
-135.4007 155.3141 -37.7290 -0.844 -0.533 0.061 32 30 31
-133.3346 152.6177 -37.2212 -0.654 -0.400 0.642 29 31 28
-131.2188 151.5895 -37.1394 0.796 -0.589 0.138 49 52 45
-128.1653 157.1553 -38.8033 -0.689 -0.718 0.104 41 42 34
-125.8964 155.2301 -38.5075 0.145 -0.933 0.329 21 21 19
-118.4012 156.3137 -39.4120 0.022 -0.580 0.814 57 57 45
-117.0348 154.4530 -39.0566 0.525 -0.581 0.622 51 53 39
-116.5239 153.0694 -38.7498 0.613 -0.539 0.578 54 56 42
-113.2838 158.9433 -40.5073 -0.700 -0.704 0.120 75 72 64
-110.7311 157.3306 -40.3144 -0.664 -0.640 0.386 69 75 61
-94.0163 145.4191 -38.7096 0.360 -0.901 0.242 51 60 41
-93.6144 145.6130 -38.7924 0.350 -0.902 0.253 52 59 41
-46.6497 123.4649 -37.1449 -0.829 -0.415 -0.374 58 82 48
-18.0931 142.7988 -44.4351 0.297 -0.050 0.954 117 111 114
-18.2088 138.1213 -43.2429 0.433 -0.081 0.897 134 124 132
-164.1624 173.0800 -40.2552 -0.332 -0.626 0.705 66 79 59
-161.5448 174.1877 -40.7589 0.238 -0.466 0.852 64 67 58
-157.8738 171.9009 -40.4848 0.305 -0.484 0.820 55 52 48
-145.2212 156.8930 -37.7205 0.376 -0.925 -0.050 65 50 55
-144.5498 157.3601 -37.8965 0.407 -0.913 -0.026 64 51 58
-136.7477 157.9400 -38.7030 -0.867 -0.494 0.065 42 36 38
-131.2920 149.5426 -37.0193 -0.656 -0.492 0.573 58 63 56
-131.2556 151.5617 -37.5379 0.698 -0.693 0.180 48 51 44
-130.3150 152.8993 -37.9588 0.261 -0.724 0.638 45 46 38
-129.9183 152.8581 -37.9818 0.637 -0.736 0.232 40 41 33
-128.8634 156.1957 -38.9231 0.578 -0.562 0.591 40 41 33
-125.8327 154.4625 -38.7363 -0.068 -0.657 0.751 33 34 29
-126.0848 159.3412 -39.9607 0.365 -0.775 0.515 38 37 35
-124.9800 154.0003 -38.6902 -0.294 -0.540 0.789 44 42 43
-124.1439 150.5601 -37.8824 -0.658 -0.715 0.235 46 42 43
-121.4457 154.2905 -39.0626 0.453 -0.603 0.657 62 62 62
-120.2816 154.5872 -39.2366 0.665 -0.436 0.606 51 52 47
-118.7852 155.6906 -39.6447 0.304 -0.436 0.847 58 58 48
-117.0418 154.0961 -39.3847 0.525 -0.581 0.622 56 58 42
-115.4675 149.1192 -38.2467 0.609 -0.644 -0.462 70 72 57
-114.6439 143.1469 -36.7913 0.674 -0.620 0.403 77 78 64
-114.0653 140.2447 -36.0990 0.761 -0.554 0.338 77 78 65
-106.4209 145.6322 -38.1199 0.282 -0.959 0.039 59 72 51
-105.5916 141.4876 -37.1316 0.478 -0.807 -0.346 56 72 45
-104.9644 154.0065 -40.3811 0.646 -0.750 -0.138 55 70 41
-46.6694 122.5646 -37.2727 -0.801 -0.438 -0.408 60 84 50
-20.4119 137.1011 -43.2006 0.376 -0.063 0.925 120 111 114
-9.8643 131.8067 -42.7389 0.245 -0.043 0.969 95 86 95
-7.5473 127.0074 -41.7090 -0.150 0.005 0.989 35 29 41
-165.0701 173.0915 -40.6365 -0.747 -0.399 0.531 58 71 52
-159.4507 172.7321 -41.0196 -0.155 -0.780 0.606 64 65 59
-159.3215 173.7105 -41.2829 0.156 -0.457 0.876 69 68 63
-158.6873 173.0182 -41.1580 -0.146 -0.779 0.610 67 66 61
-157.5616 172.0877 -41.0133 0.357 -0.516 0.779 59 59 54
-155.5227 169.4243 -40.4991 0.199 -0.325 0.925 66 68 63
-152.5164 167.6237 -40.2893 -0.523 -0.312 0.793 61 67 63
-148.2388 157.7483 -38.1046 -0.668 -0.578 0.469 63 58 65
-146.0051 158.2618 -38.4261 -0.373 -0.678 0.633 60 49 53
-145.3900 160.6090 -39.0835 0.272 -0.957 0.098 61 47 52
-131.1852 150.9070 -37.7841 0.534 -0.405 0.742 44 47 40
-130.6617 152.3892 -38.2106 0.263 -0.733 0.627 49 50 42
-130.2868 152.4742 -38.2643 0.315 -0.743 0.590 51 52 44
-128.5495 156.4871 -39.4463 -0.074 -0.933 0.353 42 43 35
-128.1705 156.6290 -39.5150 -0.691 -0.715 0.102 31 32 24
-127.3532 156.5157 -39.5549 -0.690 -0.718 0.090 32 33 25
-126.3277 154.8896 -39.2224 -0.691 -0.715 0.102 36 37 31
-123.1868 148.7766 -37.9118 -0.059 -0.957 0.284 44 43 39
-121.5175 154.5990 -39.5547 0.507 -0.565 0.651 66 66 64
-120.6130 153.5764 -39.3675 0.277 -0.434 0.857 63 64 59
-118.7725 155.1481 -39.9287 0.304 -0.436 0.847 74 76 64
-118.0051 155.5572 -40.0992 0.070 -0.609 0.790 67 70 52
-106.0391 144.0205 -38.1370 0.302 -0.939 0.165 54 70 44
-105.6073 140.5686 -37.2833 0.326 -0.945 0.009 53 69 42
-16.4260 138.3197 -44.2536 0.422 -0.056 0.905 139 127 131
-7.8986 127.0395 -42.0665 -0.068 0.001 0.998 39 33 47
-167.6468 170.6600 -40.2399 -0.596 -0.746 0.297 60 75 47
-166.9146 169.7558 -40.0666 -0.634 -0.714 0.299 62 74 49
-166.6041 170.0525 -40.1702 -0.486 -0.670 0.562 62 74 50
-161.4151 173.4055 -41.4842 0.241 -0.463 0.853 59 65 55
-160.0547 173.1328 -41.5287 -0.150 -0.793 0.590 63 66 59
-159.5147 172.7560 -41.4764 -0.129 -0.783 0.609 65 66 60
-159.1789 173.0502 -41.5815 -0.141 -0.783 0.606 65 64 59
-158.5049 176.5662 -42.5545 0.294 -0.413 0.862 69 68 63
-155.3033 168.4741 -40.7189 0.249 -0.357 0.900 70 70 66
-148.8000 161.1928 -39.3748 -0.353 -0.700 0.621 57 50 58
-148.3183 160.8853 -39.3356 -0.571 -0.672 0.471 57 47 57
-147.9580 161.0435 -39.4074 -0.626 -0.538 0.565 53 47 54
-147.5882 161.1682 -39.4713 -0.590 -0.514 0.623 55 49 54
-146.0729 159.9293 -39.2773 -0.521 -0.677 0.519 66 55 59
-145.5902 159.5932 -39.2308 -0.521 -0.677 0.519 66 52 59
-143.6491 158.1476 -39.0191 -0.250 -0.619 0.745 42 31 35
-140.4488 158.0501 -39.2655 0.704 -0.708 -0.066 34 25 28
-140.2450 158.9490 -39.5169 0.734 -0.657 -0.172 26 17 20
-133.5338 150.9105 -37.9933 -0.513 -0.372 0.773 47 45 47
-130.7616 152.7394 -38.7051 0.279 -0.719 0.637 46 47 41
-130.2767 152.1606 -38.5955 0.634 -0.739 0.228 51 52 46
-128.8959 155.8639 -39.6772 0.598 -0.550 0.583 39 40 34
-128.5033 155.9021 -39.7206 -0.082 -0.914 0.397 33 34 28
-128.1156 155.9768 -39.7729 -0.084 -0.908 0.410 33 34 28
-127.6616 155.5984 -39.7129 -0.079 -0.908 0.411 40 41 33
-126.8351 155.3885 -39.7284 -0.090 -0.898 0.431 39 40 34
-125.4920 154.2806 -39.5540 -0.692 -0.718 0.072 42 43 37
-125.1185 154.4535 -39.6307 0.005 -0.983 0.186 44 45 40
-124.5895 153.4261 -39.4080 -0.700 -0.710 0.080 43 44 39
-123.3126 149.4865 -38.4905 -0.567 -0.817 0.105 44 45 39
-123.7062 155.9048 -40.1286 0.727 -0.606 0.323 48 50 43
-117.0556 153.3858 -40.0374 0.525 -0.581 0.622 81 86 63
-112.0617 142.7057 -37.6799 0.474 -0.839 0.268 67 74 52
-10.4909 128.3923 -42.5779 0.195 -0.078 0.978 92 80 90
-2.3088 123.4626 -41.9889 -0.304 0.030 0.952 84 91 63
-2.4326 122.7843 -41.8017 -0.301 0.029 0.953 78 94 59
-166.7404 169.0901 -40.3532 -0.591 -0.741 0.319 69 78 56
-166.5470 169.7189 -40.5351 -0.506 -0.665 0.550 68 77 56
-164.3747 169.4214 -40.6419 -0.459 -0.225 0.859 57 65 50
-161.7042 170.1512 -41.0613 0.349 -0.514 0.784 64 72 61
-160.7144 168.3540 -40.6730 0.344 -0.381 0.858 61 69 58
-160.9547 173.1088 -41.9030 -0.035 -0.340 0.940 60 65 58
-159.3013 173.2677 -42.0856 -0.127 -0.780 0.612 61 60 56
-153.0275 166.0993 -40.7348 -0.568 -0.224 0.792 59 62 55
-152.2913 164.9280 -40.4895 -0.573 -0.223 0.789 70 72 64
-149.2020 161.0049 -39.7209 -0.299 -0.611 0.732 58 54 55
-148.3327 160.7483 -39.7275 -0.641 -0.668 0.379 54 46 53
-147.5080 159.1084 -39.3664 -0.715 -0.578 0.393 53 48 54
-147.0986 159.0615 -39.3890 -0.632 -0.538 0.557 56 53 56
-144.3993 157.7730 -39.2800 -0.126 -0.690 0.713 43 31 33
-140.4940 158.0439 -39.6840 0.704 -0.708 -0.066 39 30 33
-140.1895 158.4769 -39.8238 0.704 -0.708 -0.065 33 24 27
-135.3139 149.9996 -38.0096 -0.057 -0.889 0.454 43 37 39
-134.0937 149.5972 -38.0078 -0.628 -0.464 0.624 46 41 45
-133.4458 150.2082 -38.2236 -0.542 -0.378 0.751 46 44 47
-132.3167 148.1979 -37.7911 -0.640 -0.426 0.640 52 52 50
-130.2963 152.0281 -38.9706 0.634 -0.739 0.228 42 43 37
-129.1952 154.9568 -39.8346 0.599 -0.525 0.605 46 47 41
-126.8756 155.3873 -40.1454 -0.127 -0.886 0.447 41 42 36
-123.3402 149.4022 -38.8725 -0.306 -0.918 0.253 54 57 48
-120.9336 152.1621 -39.8034 0.210 -0.297 0.932 53 55 46
-120.6005 152.7372 -39.9830 0.190 -0.291 0.938 54 56 46
-120.2418 153.0922 -40.1069 0.187 -0.293 0.938 54 56 44
-112.0823 142.5001 -38.0163 0.264 -0.957 -0.119 59 69 45
-111.6765 141.9170 -37.8976 0.090 -0.922 -0.377 63 73 49
-111.3034 141.9154 -37.9289 0.079 -0.921 -0.381 67 77 53
-110.4766 140.2034 -37.5491 0.068 -0.960 -0.271 68 81 54
-33.6882 123.8680 -39.7944 -0.028 -0.089 0.996 56 69 49
-20.8097 130.7156 -42.6923 0.391 -0.068 0.918 132 119 126
0.5469 124.6556 -42.9179 -0.124 0.015 0.992 69 85 58
-165.9202 165.4327 -39.8977 -0.534 -0.841 -0.080 77 85 64
-165.8892 166.4960 -40.1827 -0.591 -0.791 0.159 76 85 65
-166.2019 168.5599 -40.7041 -0.500 -0.754 0.426 78 85 67
-166.6996 171.1859 -41.3589 -0.567 -0.196 0.800 80 87 69
-158.7665 162.0663 -39.6150 -0.855 -0.466 0.230 66 72 62
-158.0490 161.0605 -39.4092 -0.854 -0.473 0.218 68 74 64
-154.0138 162.2415 -40.0676 0.135 -0.501 0.855 74 71 66
-152.6508 161.6909 -40.0379 0.124 -0.545 0.829 68 68 60
-152.1456 161.3223 -39.9832 0.161 -0.505 0.848 65 66 58
-149.1323 160.5522 -40.0362 -0.525 -0.592 0.612 69 67 66
-148.7619 160.6655 -40.0979 -0.285 -0.697 0.657 69 65 67
-148.0619 159.5186 -39.8532 -0.242 -0.467 0.850 66 62 66
-147.4170 158.5654 -39.6552 -0.710 -0.575 0.406 71 68 73
-146.9556 158.3108 -39.6270 -0.710 -0.574 0.408 71 71 73
-145.5681 157.5111 -39.5332 0.428 -0.899 0.091 34 28 30
-145.2610 157.8653 -39.6535 -0.092 -0.703 0.705 29 19 25
-143.5977 157.5291 -39.7063 -0.623 -0.554 0.552 46 35 39
-145.3931 166.8374 -42.0248 -0.086 -0.305 0.948 45 34 38
-140.2347 158.4708 -40.2438 0.704 -0.708 -0.065 37 28 31
-133.5312 150.4399 -38.6840 -0.783 -0.308 0.540 56 51 55
-130.3263 151.9591 -39.3613 0.636 -0.731 0.245 40 41 36
-129.2058 154.7581 -40.2003 0.597 -0.521 0.610 58 59 54
-127.6553 154.9929 -40.3951 -0.410 -0.363 0.837 46 47 42
-127.2875 155.1987 -40.4812 0.134 -0.781 0.610 49 50 44
-123.2781 148.5962 -39.0705 -0.020 -0.940 0.340 58 64 52
-121.3259 151.8088 -40.0905 0.205 -0.294 0.934 64 64 54
-120.8960 151.4620 -40.0351 0.210 -0.297 0.932 62 64 53
-120.5137 151.5535 -40.0921 0.210 -0.297 0.932 60 62 49
-120.1879 152.2014 -40.2920 0.198 -0.300 0.933 57 59 46
-116.8658 145.6886 -38.8463 -0.298 -0.591 0.750 73 82 55
-116.4391 145.1263 -38.7335 -0.219 -0.599 0.770 71 80 52
-112.4878 142.4854 -38.3698 0.189 -0.981 0.051 52 64 40
-112.1168 142.5404 -38.4161 0.264 -0.957 -0.119 51 63 39
-111.7215 142.1574 -38.3482 0.093 -0.941 -0.326 53 65 41
-110.9496 141.6666 -38.2838 0.317 -0.938 -0.139 64 74 50
-110.5432 140.9549 -38.1296 -0.067 -0.645 0.762 63 76 51
-6.4769 118.8265 -41.1459 -0.137 0.023 0.990 92 94 79
-171.3684 165.8358 -39.9757 -0.145 -0.983 -0.108 52 67 44
-166.2157 169.6187 -41.4315 -0.584 -0.240 0.775 85 91 71
-164.0941 165.8383 -40.5998 -0.454 -0.307 0.836 69 72 55
-163.4764 165.2153 -40.4858 -0.417 -0.336 0.844 71 75 58
-149.0338 159.9922 -40.3233 -0.526 -0.585 0.618 69 70 65
-148.7847 160.5612 -40.4972 -0.278 -0.684 0.675 71 71 69
-146.9337 158.0341 -39.9783 -0.710 -0.574 0.408 64 64 65
-145.2252 157.5246 -39.9882 -0.092 -0.703 0.705 40 32 35
-144.7068 157.0205 -39.8975 -0.126 -0.709 0.694 45 34 38
-144.5630 158.0513 -40.1862 -0.683 -0.571 0.455 55 45 47
-144.0282 157.4762 -40.0778 -0.786 -0.515 0.343 59 48 52
-145.1971 165.7928 -42.2074 -0.082 -0.311 0.947 42 31 35
-132.3708 148.0391 -38.5468 -0.843 -0.340 0.417 53 52 50
-130.8580 152.5678 -39.8907 0.234 -0.818 0.525 41 40 38
-130.3444 151.8182 -39.7337 0.636 -0.731 0.245 37 38 33
-128.0376 154.6171 -40.6819 -0.397 -0.412 0.820 65 66 62
-127.6005 154.3373 -40.6443 -0.413 -0.360 0.837 40 41 36
-127.2051 154.3409 -40.6792 -0.388 -0.362 0.848 51 52 47
-123.3341 148.7415 -39.5097 -0.046 -0.901 0.431 63 71 56
-123.0053 149.1948 -39.6595 -0.414 -0.870 0.267 66 76 60
-121.6892 147.8114 -39.4013 -0.419 -0.883 0.209 62 67 53
-121.6137 150.5423 -40.1400 0.204 -0.292 0.935 62 65 52
-121.2864 151.1078 -40.3197 0.205 -0.294 0.934 63 64 52
-120.4742 150.8235 -40.3131 0.216 -0.300 0.929 60 62 49
-119.8064 151.9579 -40.6744 0.399 -0.453 0.797 63 66 51
-117.2866 145.7584 -39.2283 -0.369 -0.631 0.682 68 79 49
-116.8704 145.3371 -39.1510 -0.280 -0.618 0.734 70 80 51
-111.3770 142.1065 -38.7557 0.243 -0.962 -0.123 54 66 43
-110.9772 141.5852 -38.6502 0.223 -0.975 0.026 58 69 47
-110.5581 140.6084 -38.4242 -0.067 -0.645 0.762 60 72 48
-32.6433 123.0205 -40.3872 -0.051 -0.081 0.995 43 51 36
-12.2163 128.0832 -43.4954 0.071 -0.068 0.995 126 113 123
-12.0527 127.7354 -43.4162 0.071 -0.066 0.995 130 117 126
-5.3731 117.7999 -41.3250 0.001 0.015 1.000 86 101 68
-4.0888 118.5145 -41.6266 -0.059 0.024 0.998 83 98 68
-4.5020 113.7263 -40.3075 -0.088 0.027 0.996 61 83 44
-179.8672 174.6615 -42.0707 0.236 -0.391 0.890 63 85 46
-163.9586 165.2753 -40.8979 -0.536 -0.230 0.813 71 72 58
-157.3776 159.8469 -39.9944 -0.312 -0.925 0.217 80 85 78
-155.5186 156.4001 -39.2213 -0.619 -0.540 -0.571 75 80 76
-148.8824 160.7408 -40.9668 -0.335 -0.823 0.458 66 65 61
-147.8572 158.3552 -40.4092 -0.234 -0.469 0.852 69 68 66
-147.0170 158.1671 -40.4305 -0.725 -0.578 0.375 59 61 60
-146.4127 157.3481 -40.2608 -0.709 -0.587 0.392 56 57 59
-146.0512 157.4774 -40.3269 0.368 -0.927 0.072 59 59 61
-145.6911 157.6153 -40.3952 0.368 -0.927 0.072 49 46 47
-145.1926 157.1976 -40.3250 -0.300 -0.705 0.643 49 42 43
-144.6732 156.6876 -40.2316 -0.126 -0.709 0.694 63 52 56
-144.0142 157.2189 -40.4320 -0.786 -0.515 0.343 70 60 62
-143.4135 156.3555 -40.2500 -0.776 -0.515 0.363 54 44 45
-144.9668 164.6051 -42.3494 -0.103 -0.317 0.943 41 32 33
-139.9887 155.1057 -40.2062 -0.598 -0.440 0.671 45 34 38
-130.3351 151.5110 -40.0632 0.644 -0.733 0.220 38 39 34
-129.9389 151.4593 -40.0832 0.312 -0.783 0.539 36 37 32
-128.8101 154.2201 -40.9276 0.593 -0.558 0.580 64 64 63
-127.5473 153.6951 -40.8941 -0.413 -0.360 0.837 49 51 48
-124.8146 150.9433 -40.3842 -0.384 -0.320 0.866 78 84 70
-123.0044 148.8776 -39.9807 -0.499 -0.297 0.814 69 76 64
-122.1820 148.4316 -39.9307 -0.472 -0.314 0.824 71 75 63
-121.1939 149.9283 -40.4207 0.595 -0.500 0.629 57 62 46
-118.1394 146.3815 -39.7234 -0.155 -0.824 -0.545 62 72 47
-117.7114 145.8680 -39.6211 -0.217 -0.599 0.771 62 74 47
-117.2582 145.0439 -39.4371 -0.224 -0.618 0.754 61 75 45
-116.3754 143.5426 -39.1066 -0.191 -0.634 0.750 63 76 46
-115.1742 137.8393 -37.6662 -0.276 -0.862 0.426 60 74 43
-32.7924 122.0285 -40.4697 -0.053 -0.083 0.995 40 50 37
-178.7766 166.9498 -40.5153 -0.016 -0.754 -0.657 60 80 45
-177.2079 164.1704 -39.8911 0.200 -0.752 -0.628 60 82 44
-176.1139 166.3434 -40.5792 0.072 -0.653 0.754 54 76 41
-173.7079 162.3774 -39.7031 -0.593 -0.756 -0.277 49 68 38
-170.9523 163.4029 -40.2209 0.270 -0.362 0.892 56 69 51
-169.0331 163.5850 -40.4362 -0.241 -0.963 -0.118 73 86 68
-168.5953 163.4794 -40.4451 -0.229 -0.964 -0.132 67 80 61
-165.3811 166.8761 -41.6504 -0.584 -0.240 0.775 83 85 72
-157.7583 158.4010 -39.9921 -0.215 -0.880 -0.423 74 79 73
-157.2099 159.1447 -40.2426 -0.228 -0.893 -0.387 80 82 77
-149.1078 159.8920 -41.1455 -0.381 -0.721 0.579 69 66 61
-147.7608 157.7978 -40.6895 -0.234 -0.469 0.852 65 62 61
-147.2048 157.1766 -40.5677 -0.396 -0.632 0.666 52 53 51
-147.0092 157.9456 -40.7947 -0.690 -0.580 0.432 50 52 51
-146.0882 157.4313 -40.7336 0.368 -0.927 0.072 49 49 49
-145.2660 157.2990 -40.7684 -0.207 -0.742 0.638 59 54 54
-144.7261 156.7077 -40.6534 -0.178 -0.776 0.605 71 62 65
-144.0446 157.1464 -40.8320 -0.774 -0.516 0.367 60 49 53
-143.4704 156.3951 -40.6763 -0.774 -0.516 0.367 48 38 39
-142.8518 155.4416 -40.4691 -0.692 -0.471 0.547 42 33 34
-142.2677 154.6177 -40.2943 -0.377 -0.493 0.784 43 34 36
-141.8903 154.6702 -40.3412 -0.326 -0.487 0.810 43 33 38
-141.4432 154.4205 -40.3116 -0.326 -0.487 0.810 41 30 38
-137.9498 154.5132 -40.6382 0.677 -0.701 -0.222 47 46 44
-130.0767 149.7001 -40.0021 0.166 -0.354 0.920 40 40 39
-129.8432 150.6198 -40.2735 0.032 -0.381 0.924 36 36 34
-129.3996 150.2611 -40.2138 0.058 -0.390 0.919 49 49 47
-129.0052 150.2043 -40.2322 0.055 -0.389 0.920 67 67 65
-128.7979 151.3453 -40.5619 0.450 -0.517 0.728 71 71 69
-128.7159 153.3385 -41.1136 0.545 -0.529 0.650 63 65 62
-128.3145 153.2846 -41.1334 -0.331 -0.124 0.935 64 66 63
-124.7635 150.2614 -40.6137 -0.384 -0.320 0.866 76 82 68
-124.3385 149.9736 -40.5717 -0.436 -0.302 0.848 73 79 65
-123.8418 149.1128 -40.3793 -0.444 -0.315 0.839 68 74 60
-122.9447 148.0816 -40.1749 -0.486 -0.294 0.823 59 65 51
-122.1910 148.1898 -40.2695 -0.470 -0.312 0.826 65 71 57
-116.9159 140.8016 -38.7057 -0.168 -0.682 0.712 52 67 37
-116.5391 140.7031 -38.7113 -0.168 -0.682 0.712 53 66 36
-116.1626 140.6046 -38.7169 -0.168 -0.682 0.712 56 69 39
-115.3620 139.7958 -38.5649 -0.183 -0.867 0.464 56 71 40
-114.5740 139.0619 -38.4323 -0.218 -0.910 0.354 67 79 52
-114.2022 138.9702 -38.4394 -0.218 -0.910 0.354 72 81 54
-113.1986 140.3971 -38.9158 0.553 -0.638 0.536 55 65 40
-28.3522 118.8759 -40.3528 0.152 -0.039 0.988 119 107 109
-28.3253 118.2977 -40.1972 -0.035 -0.074 0.997 114 101 108
-12.3094 121.5770 -42.4745 -0.141 -0.059 0.988 123 111 123
-7.2448 116.2390 -41.4527 0.033 -0.004 0.999 97 106 77
-183.1967 177.2657 -43.4166 -0.356 -0.819 -0.450 56 76 40
-181.9818 175.3862 -43.0033 -0.318 -0.814 -0.486 55 77 39
-168.6343 163.4269 -40.8596 -0.262 -0.951 -0.164 70 82 61
-163.1771 162.6633 -41.1211 -0.536 -0.230 0.813 75 77 66
-158.4427 159.1450 -40.5603 0.292 -0.832 0.472 72 74 72
-158.0646 159.1913 -40.6058 -0.341 -0.877 0.339 73 75 74
-157.4651 159.7846 -40.8213 -0.279 -0.890 0.361 77 77 75
-148.8813 157.3805 -40.9008 -0.566 -0.503 0.654 72 69 62
-149.1784 159.9680 -41.5887 -0.388 -0.712 0.586 69 66 61
-147.6649 157.2435 -40.9682 -0.234 -0.469 0.852 58 54 51
-144.8464 158.6212 -41.5920 -0.128 -0.926 0.356 56 48 51
-142.7962 155.0076 -40.7727 -0.692 -0.471 0.547 51 43 41
-142.2813 154.4761 -40.6707 -0.373 -0.478 0.795 52 42 42
-141.9232 154.6115 -40.7390 -0.632 -0.561 0.534 50 38 43
-141.4115 154.0809 -40.6369 -0.638 -0.563 0.525 49 35 44
-140.4413 153.2252 -40.4849 -0.600 -0.657 0.457 49 33 44
-137.5296 154.1562 -40.9935 -0.411 -0.519 0.750 50 50 46
-132.9466 148.4341 -39.8118 -0.832 -0.543 -0.115 56 53 56
-130.3018 146.2826 -39.4472 0.396 -0.878 -0.269 48 46 49
-129.8959 146.1002 -39.4320 0.406 -0.882 -0.241 42 42 43
-129.9699 148.8093 -40.1728 0.164 -0.360 0.918 48 48 48
-129.3968 149.9908 -40.5482 0.032 -0.381 0.924 59 59 59
-129.0073 149.9614 -40.5738 0.032 -0.381 0.924 64 64 62
-128.5863 149.7301 -40.5465 0.039 -0.377 0.925 63 64 61
-128.4948 151.6349 -41.0797 0.459 -0.510 0.727 56 58 53
-124.2819 149.2405 -40.7838 -0.440 -0.305 0.845 76 83 66
-123.7946 148.4425 -40.6058 -0.444 -0.315 0.839 70 77 59
-117.1912 139.4155 -38.6875 0.441 -0.789 0.427 51 64 37
-116.7805 138.9015 -38.5812 0.464 -0.589 0.662 46 61 31
-116.3990 138.6982 -38.5582 0.473 -0.595 0.650 48 61 31
-116.0351 138.6942 -38.5885 0.454 -0.603 0.656 51 64 34
-115.5598 137.3308 -38.2536 -0.237 -0.895 0.378 54 69 38
-115.2080 137.4413 -38.3145 -0.251 -0.885 0.393 57 72 41
-114.8388 137.3354 -38.3173 -0.251 -0.885 0.393 60 75 44
-114.4699 137.2297 -38.3200 -0.251 -0.885 0.393 62 75 47
-114.1033 137.1507 -38.3300 -0.226 -0.870 0.438 65 74 47
-113.7852 137.7637 -38.5265 0.439 -0.654 0.616 65 73 48
-33.0427 120.8433 -40.8447 -0.330 -0.077 0.941 50 56 41
-12.8067 120.8255 -42.5904 -0.141 -0.059 0.988 127 115 127
-12.5521 120.6519 -42.5645 -0.141 -0.059 0.988 123 111 123
-12.1748 120.6575 -42.5987 -0.144 -0.062 0.988 118 106 118
-5.8054 108.0481 -39.6720 0.445 -0.788 -0.426 64 88 52
-182.2282 175.8152 -43.5611 -0.318 -0.814 -0.486 54 72 39
-181.7191 175.6081 -43.5476 -0.318 -0.814 -0.486 54 73 40
-177.7620 169.0706 -42.0712 0.444 -0.665 0.601 51 68 40
-177.3187 168.9847 -42.0857 0.090 -0.995 -0.034 50 66 39
-176.8693 168.8831 -42.0964 0.101 -0.994 -0.047 48 62 40
-176.4999 168.9786 -42.1551 0.486 -0.684 0.545 48 61 41
-176.3118 169.5260 -42.3238 0.473 -0.683 0.556 51 64 44
-167.8521 162.2338 -41.0279 0.174 -0.483 0.858 73 81 58
-162.6169 160.8671 -41.1018 -0.491 -0.213 0.845 76 79 68
-158.5146 159.2008 -40.9939 0.277 -0.817 0.506 59 59 61
-147.5304 156.5431 -41.2072 -0.303 -0.593 0.746 57 54 49
-144.2033 154.1931 -40.8417 0.148 -0.374 0.916 57 53 52
-142.8062 154.8514 -41.1462 -0.475 -0.361 0.803 56 48 45
-142.3067 154.3856 -41.0599 -0.475 -0.361 0.803 58 47 46
-141.9921 154.7077 -41.1768 -0.494 -0.412 0.766 55 40 44
-141.3801 153.7426 -40.9613 -0.638 -0.563 0.525 49 32 42
-140.5537 151.8159 -40.4967 -0.604 -0.672 0.429 47 29 42
-138.7322 150.5101 -40.2912 -0.653 -0.621 0.433 60 45 45
-137.0346 149.6949 -40.2116 -0.571 -0.556 0.604 48 50 45
-136.3480 150.0602 -40.3729 -0.340 -0.500 0.796 56 57 51
-135.5224 153.6715 -41.4498 -0.904 -0.405 0.137 83 74 75
-134.2524 151.1001 -40.8442 -0.914 -0.398 0.086 96 86 92
-132.6510 148.6636 -40.3049 -0.831 -0.550 -0.082 69 65 68
-130.0688 146.8887 -40.0349 -0.060 -0.649 0.759 57 57 59
-129.5042 148.0473 -40.4064 -0.058 -0.358 0.932 72 72 72
-129.1097 147.9583 -40.4159 -0.058 -0.358 0.932 64 64 64
-128.7503 148.0885 -40.4833 0.526 -0.393 0.755 54 54 52
-128.4103 148.3481 -40.5851 0.526 -0.393 0.755 50 52 46
-128.2563 149.8234 -41.0091 0.373 -0.488 0.789 51 53 46
-127.3906 149.1861 -40.9068 -0.318 -0.114 0.941 46 51 41
-126.9357 148.7034 -40.8119 -0.318 -0.114 0.941 51 57 44
-126.7230 149.8812 -41.1582 -0.390 -0.110 0.914 58 65 50
-126.2502 149.2715 -41.0295 -0.390 -0.110 0.914 61 68 52
-124.6109 148.5245 -40.9638 -0.412 -0.310 0.857 74 83 60
-116.0037 137.9297 -38.7615 0.447 -0.623 0.642 49 62 32
-115.5740 137.1050 -38.5692 -0.274 -0.893 0.358 50 65 34
-115.2181 137.1587 -38.6150 -0.250 -0.889 0.384 53 68 37
-114.8495 137.0539 -38.6178 -0.250 -0.889 0.384 55 70 39
-114.4804 136.9377 -38.6175 -0.253 -0.886 0.388 54 67 39
-114.1124 136.8315 -38.6199 -0.253 -0.886 0.388 58 67 40
-113.8028 137.5558 -38.8484 0.444 -0.658 0.608 57 65 41
-35.2381 118.7095 -40.4194 -0.328 -0.102 0.939 51 63 43
-27.6408 117.5940 -40.7681 0.302 -0.077 0.950 103 89 102
-14.1742 120.4359 -42.7277 -0.234 -0.025 0.972 146 132 145
-13.9591 120.2041 -42.6818 -0.234 -0.025 0.972 145 131 144
-13.2313 120.1808 -42.7385 -0.144 -0.060 0.988 124 112 122
-12.9782 120.0074 -42.7122 -0.144 -0.060 0.988 124 112 122
-12.6625 119.9259 -42.7169 -0.142 -0.062 0.988 123 111 121
-3.4705 110.0238 -40.7581 0.480 -0.788 -0.385 66 90 54
-3.4488 109.6218 -40.6481 0.262 -0.901 -0.344 61 87 50
-181.7677 174.5638 -43.7109 -0.012 -0.940 -0.342 52 66 38
-177.4249 168.0987 -42.2725 -0.005 -1.000 -0.027 49 63 39
-176.6366 169.1611 -42.6396 0.077 -0.995 -0.056 48 61 41
-172.2028 160.1336 -40.4894 -0.124 -0.748 0.652 52 64 44
-163.0872 159.7875 -41.1855 -0.499 -0.127 0.857 84 88 71
-158.8803 158.9505 -41.3165 0.448 -0.687 0.573 57 57 58
-158.5670 159.1960 -41.4128 -0.333 -0.882 0.334 53 51 56
-147.4693 156.1237 -41.5156 -0.303 -0.593 0.746 66 63 56
-143.8179 150.8938 -40.3641 -0.147 -0.504 0.851 65 61 58
-141.1336 152.4700 -41.0406 -0.315 -0.227 0.922 50 33 42
-136.0837 148.5520 -40.3794 -0.518 -0.380 0.767 55 56 50
-134.9886 148.7563 -40.5321 0.537 -0.408 0.738 77 67 68
-134.8185 151.8174 -41.4069 0.594 -0.438 0.675 74 63 69
-134.2401 150.8092 -41.1740 -0.915 -0.395 0.083 73 60 67
-133.0261 148.4109 -40.6059 -0.841 -0.540 -0.022 69 54 61
-132.5713 147.9990 -40.5297 0.216 -0.929 -0.301 65 54 59
-131.3078 147.2769 -40.4368 0.306 -0.702 -0.642 46 46 46
-130.6212 147.6779 -40.6092 -0.073 -0.646 0.760 59 59 59
-129.7677 147.1027 -40.5219 -0.074 -0.343 0.936 69 69 68
-128.9791 146.9001 -40.5336 -0.074 -0.343 0.936 58 59 55
-128.1841 149.0952 -41.2195 -0.731 -0.668 0.136 47 50 39
-116.0002 137.4977 -39.0218 0.452 -0.622 0.640 50 63 33
-115.5961 136.9751 -38.9101 -0.274 -0.893 0.358 56 71 40
-115.2346 136.9565 -38.9364 -0.237 -0.895 0.378 66 83 51
-113.8137 137.2537 -39.1435 0.417 -0.626 0.659 51 59 36
-23.8365 119.1165 -41.8795 0.099 -0.995 0.020 112 94 110
-23.4495 119.1543 -41.9238 0.099 -0.995 0.020 116 98 114
-20.2515 123.7773 -43.5009 0.179 -0.947 0.268 120 102 116
-23.8253 117.3610 -41.3873 0.072 -0.939 -0.336 121 105 117
-24.4628 115.7490 -40.8789 0.117 -0.947 -0.299 121 105 116
-14.2344 120.8778 -43.2100 -0.146 -0.040 0.988 147 134 144
-13.7011 120.5622 -43.1678 -0.099 -0.056 0.994 145 131 144
-11.4642 120.0206 -43.2103 -0.097 0.012 0.995 108 96 106
-11.0521 118.4957 -42.8178 0.359 -0.133 0.924 83 73 87
-10.3051 119.0268 -43.0320 0.359 -0.133 0.924 73 65 79
-7.6403 112.3246 -41.3810 -0.044 0.013 0.999 99 104 74
-175.9151 164.2828 -41.7656 -0.088 -0.979 0.186 48 60 40
-171.6397 157.6246 -40.2512 -0.414 -0.590 0.693 55 67 45
-159.1510 158.4140 -41.5653 0.437 -0.702 0.562 70 70 68
-158.9344 158.9505 -41.7363 0.276 -0.870 0.408 63 63 63
-158.5749 159.0534 -41.7968 -0.333 -0.882 0.334 61 59 61
-158.0254 158.5664 -41.7067 -0.263 -0.538 0.801 65 63 67
-133.6611 149.5485 -41.2771 -0.853 -0.367 0.372 69 54 58
-132.9974 148.0302 -40.9046 -0.844 -0.354 0.402 59 45 48
-132.5901 147.8745 -40.8960 0.831 -0.338 0.442 53 44 45
-132.2575 148.1281 -40.9970 0.827 -0.349 0.441 40 37 36
-131.4221 147.6934 -40.9467 0.306 -0.702 -0.642 62 63 60
-130.5505 147.0266 -40.8337 0.286 -0.861 -0.421 71 71 67
-129.5519 145.5643 -40.5063 -0.023 -0.995 -0.095 70 71 65
-128.4734 145.8474 -40.6807 -0.072 -0.338 0.939 60 62 51
-116.0071 137.1910 -39.3149 0.452 -0.622 0.640 52 65 35
-115.6241 136.9187 -39.2711 -0.237 -0.895 0.378 53 68 37
-115.2840 137.1674 -39.3713 -0.322 -0.387 0.864 71 88 56
-22.0837 120.7699 -42.8591 0.075 -0.992 0.103 120 101 119
-21.6993 120.7949 -42.8997 0.075 -0.992 0.103 122 104 118
-21.6478 120.2811 -42.7585 0.094 -0.993 0.067 120 104 117
-10.6509 118.5164 -43.2183 0.509 -0.238 0.827 85 73 87
-204.1351 162.9895 -39.3585 -0.243 -0.763 0.599 44 65 34
-173.1210 158.2911 -40.7302 -0.472 -0.633 -0.614 53 65 43
-160.6772 156.9935 -41.4486 -0.444 -0.257 0.858 76 79 68
-159.1193 158.1526 -41.9166 0.437 -0.702 0.562 75 76 71
-158.8748 158.6016 -42.0665 0.273 -0.865 0.421 73 73 71
-158.4527 158.5090 -42.0770 -0.325 -0.868 0.375 73 71 70
-157.8108 157.7314 -41.9107 -0.266 -0.539 0.800 72 70 71
-142.8682 148.2113 -40.4957 -0.361 -0.474 0.803 56 56 50
-142.1514 146.8119 -40.1581 -0.225 -0.466 0.856 62 63 58
-138.5827 149.2154 -41.1582 -0.263 -0.454 0.851 85 79 74
-138.0937 148.7072 -41.0556 -0.395 -0.335 0.855 71 71 63
-135.8611 147.0428 -40.7750 -0.436 -0.338 0.834 53 56 47
-133.3540 147.6909 -41.1799 -0.911 -0.305 0.277 64 54 52
-132.3875 146.5426 -40.9360 0.825 -0.350 0.444 49 47 42
-129.5662 145.4102 -40.8591 -0.033 -0.995 -0.097 67 69 57
-128.4119 145.2137 -40.9040 -0.072 -0.338 0.939 72 74 59
-128.4615 150.3684 -42.3743 -0.632 -0.755 0.174 74 79 59
-115.6538 136.8810 -39.6373 -0.322 -0.387 0.864 57 72 41
-114.8964 136.4054 -39.5676 -0.322 -0.387 0.864 99 116 84
-21.8847 120.4751 -43.1550 0.094 -0.995 -0.017 122 104 121
-21.6511 120.2569 -43.1130 0.094 -0.993 0.067 122 105 121
-21.3155 120.2045 -43.1274 0.077 -0.994 0.077 122 105 121
-23.6685 114.1557 -41.1909 -0.323 -0.524 0.788 129 116 125
-13.2112 119.0598 -43.5096 0.176 -0.042 0.984 127 114 121
-12.3859 119.7183 -43.7703 0.198 -0.039 0.979 126 114 118
-11.7790 120.0566 -43.9202 0.171 -0.039 0.985 121 109 113
-11.2638 120.2605 -44.0237 0.169 -0.044 0.985 116 103 108
-11.3174 117.0415 -43.0980 0.521 -0.244 0.818 86 74 88
-10.3822 117.8352 -43.4070 0.529 -0.234 0.816 77 68 83
-10.4160 116.2653 -42.9549 -0.184 0.009 0.983 49 45 59
-4.4182 109.2136 -41.4628 0.010 0.014 1.000 73 94 63
-204.2149 161.6929 -39.4008 -0.443 -0.896 0.013 44 65 34
-203.4808 162.3891 -39.6663 -0.127 -0.785 0.606 52 73 42
-203.0550 162.3092 -39.6806 -0.127 -0.785 0.606 48 69 38
-176.0618 164.3393 -42.6375 -0.668 -0.545 -0.506 59 73 48
-171.9442 156.2051 -40.6511 -0.650 -0.651 -0.393 59 71 48
-170.7666 155.1712 -40.4561 0.581 -0.814 -0.004 69 81 59
-165.2688 151.6619 -39.9260 -0.691 -0.453 0.563 70 79 59
-165.0307 157.1307 -41.5256 0.388 -0.555 0.736 70 74 57
-164.3056 156.1954 -41.3193 0.345 -0.533 0.773 72 76 59
-156.6174 150.3718 -40.3135 -0.441 -0.299 0.846 81 82 77
-138.5113 148.6873 -41.4176 -0.263 -0.454 0.851 80 79 72
-138.0336 148.2268 -41.3266 -0.550 -0.379 0.745 74 75 67
-136.2038 146.6808 -41.0410 -0.444 -0.334 0.831 45 51 41
-135.7587 146.3341 -40.9800 -0.441 -0.337 0.832 60 66 55
-116.0210 136.5807 -39.8982 0.452 -0.622 0.640 59 74 44
-22.1460 119.4383 -43.1952 0.472 -0.090 0.877 119 102 120
-21.5011 119.2984 -43.2115 -0.688 -0.545 0.479 122 108 123
-23.1053 115.5896 -42.0000 -0.230 -0.467 0.854 128 115 125
-21.0933 117.0669 -42.6032 -0.629 -0.378 0.679 126 113 122
-12.5725 118.8909 -43.8781 0.207 -0.038 0.978 132 120 122
-12.0939 119.0467 -43.9651 0.175 -0.039 0.984 129 117 121
-10.9341 118.5900 -43.9351 0.050 -0.036 0.998 139 123 136
-10.9163 118.0950 -43.7938 0.032 -0.034 0.999 124 111 126
-11.6514 116.0416 -43.1365 0.533 -0.235 0.813 91 81 94
-10.3515 117.3418 -43.6260 0.532 -0.231 0.815 78 70 81
-10.0979 116.6789 -43.4569 -0.280 0.014 0.960 61 57 65
-9.9710 116.3510 -43.3734 -0.281 0.015 0.960 59 53 64
-204.4403 161.9572 -39.8786 -0.419 -0.907 -0.050 49 70 39
-204.1859 162.1715 -39.9634 -0.138 -0.952 -0.273 58 79 48
-203.7737 162.1145 -39.9831 -0.093 -0.969 -0.228 66 87 56
-203.3760 162.0825 -40.0088 -0.093 -0.969 -0.228 64 85 54
-203.0258 162.1337 -40.0546 -0.101 -0.970 -0.219 52 73 42
-178.6919 166.6548 -43.5151 -0.594 -0.527 -0.608 49 63 37
-176.8873 166.1877 -43.5380 -0.668 -0.545 -0.506 65 77 53
-173.4905 158.9008 -41.7151 -0.497 -0.637 -0.589 69 81 57
-166.5453 153.8884 -40.8671 -0.738 -0.464 0.490 68 77 56
-163.7890 149.5522 -39.8471 -0.712 -0.469 0.522 68 77 58
-163.2938 150.2020 -40.0799 0.735 -0.626 0.260 70 74 59
-164.4549 155.4017 -41.4920 0.276 -0.525 0.805 71 75 60
-159.7132 151.6370 -40.8133 -0.310 -0.365 0.878 85 88 77
-158.2649 150.6812 -40.6625 -0.407 -0.372 0.834 87 91 84
-153.3938 150.6664 -41.0874 -0.478 -0.282 0.832 71 70 65
-152.8399 150.0834 -40.9664 -0.478 -0.282 0.832 70 71 63
-152.2898 149.5043 -40.8462 -0.478 -0.282 0.832 71 74 63
-151.6819 148.7251 -40.6728 -0.476 -0.282 0.833 71 77 63
-151.1411 148.1591 -40.5556 -0.476 -0.282 0.833 72 79 63
-136.5587 146.3848 -41.3235 -0.395 -0.339 0.854 73 82 69
-136.1091 146.0180 -41.2563 -0.444 -0.334 0.831 51 58 46
-120.9196 138.3672 -40.3663 -0.301 -0.904 0.304 62 79 47
-28.2775 111.7380 -40.7724 0.178 -0.041 0.983 89 78 95
-24.3313 116.4668 -42.4973 0.465 -0.088 0.881 98 84 102
-21.2342 118.5401 -43.3740 -0.855 -0.383 0.351 122 109 119
-21.2204 117.9860 -43.2139 -0.803 -0.488 0.343 124 111 121
-21.6010 116.8159 -42.8395 -0.632 -0.377 0.677 125 112 122
-21.3975 116.5707 -42.7860 -0.632 -0.377 0.677 126 113 122
-21.2616 116.2219 -42.6964 -0.636 -0.386 0.668 127 114 121
-19.6336 117.0699 -43.0868 -0.531 -0.526 0.665 130 118 120
-18.6417 114.2317 -42.3476 0.319 -0.040 0.947 141 128 138
-12.6384 117.7166 -43.8914 0.042 -0.039 0.998 131 118 127
-14.0149 113.2188 -42.4602 0.448 -0.180 0.876 114 102 116
-12.9777 114.1691 -42.8284 0.533 -0.230 0.814 99 88 102
-11.7357 115.3958 -43.2951 0.533 -0.230 0.814 86 78 90
-10.9886 115.9283 -43.5160 0.351 -0.092 0.932 75 68 77
-10.0334 116.7430 -43.8374 0.324 -0.084 0.942 70 65 71
-9.4881 116.9887 -43.9570 0.310 -0.087 0.947 66 61 68
-10.0268 115.7508 -43.5490 -0.223 0.006 0.975 62 57 64
-204.3466 162.3248 -40.4165 -0.138 -0.952 -0.273 73 94 63
-204.0108 162.4009 -40.4685 -0.172 -0.962 -0.211 83 104 73
-203.5637 162.2843 -40.4738 -0.101 -0.970 -0.219 72 93 62
-203.1628 162.2480 -40.4985 -0.101 -0.970 -0.219 56 77 46
-202.8648 162.3917 -40.5671 -0.045 -0.980 -0.193 53 74 43
-167.0411 155.0401 -41.5726 -0.679 -0.528 0.511 64 73 54
-163.8380 150.5252 -40.5291 0.238 -0.750 0.617 58 62 47
-158.0058 149.7609 -40.8198 -0.414 -0.362 0.835 93 96 89
-157.2314 149.6660 -40.8604 -0.381 -0.400 0.833 89 92 85
-157.0705 152.5847 -41.7322 -0.365 -0.274 0.890 76 77 71
-150.9866 147.4784 -40.7695 -0.480 -0.284 0.830 68 77 60
-143.4187 146.8800 -41.2624 -0.389 -0.249 0.887 66 66 61
-139.0444 144.0323 -40.8122 -0.753 -0.199 0.627 89 95 85
-131.3918 146.5911 -42.2402 0.861 -0.362 0.356 54 67 45
-124.9226 143.5643 -41.9225 -0.472 -0.879 -0.067 60 81 50
-123.0161 143.2279 -41.9922 -0.755 -0.604 -0.255 56 77 46
-120.9122 138.0031 -40.6429 -0.291 -0.915 0.279 57 74 42
-120.5148 137.6835 -40.5841 0.011 -1.000 0.025 59 74 43
-117.5184 119.8831 -35.6188 -0.549 -0.408 0.729 59 74 43
-115.2420 135.0329 -40.2713 -0.343 -0.339 0.876 65 81 55
-99.9476 127.3647 -39.3697 0.352 -0.653 0.671 40 49 28
-29.1517 110.2828 -40.6065 0.175 -0.041 0.984 91 81 96
-28.7450 110.3919 -40.6745 0.175 -0.041 0.984 92 79 96
-21.2644 118.4729 -43.7099 -0.854 -0.379 0.357 116 103 112
-21.2764 117.8781 -43.5341 -0.803 -0.480 0.353 118 105 114
-21.4306 116.4993 -43.1153 -0.657 -0.393 0.643 122 109 118
-21.0659 116.5072 -43.1499 -0.687 -0.484 0.543 123 110 118
-18.6905 119.0662 -44.1117 -0.475 -0.528 0.704 125 112 117
-18.6220 118.6062 -43.9826 -0.473 -0.561 0.680 126 114 118
-16.7528 114.8918 -43.0564 0.227 -0.039 0.973 140 127 137
-16.8045 114.2947 -42.8763 0.268 -0.033 0.963 143 130 139
-14.5859 111.9043 -42.3700 0.445 -0.180 0.877 100 89 105
-11.1962 115.1170 -43.6135 0.331 -0.081 0.940 72 66 77
-10.6252 115.4041 -43.7484 0.329 -0.079 0.941 70 62 73
-10.4692 115.1216 -43.6791 0.269 -0.079 0.960 67 59 71
-12.0912 112.4211 -42.7423 0.346 -0.095 0.933 68 60 72
-11.1836 112.6886 -42.9011 0.345 -0.087 0.935 63 55 66
-10.6290 112.9561 -43.0287 0.252 -0.083 0.964 60 52 63
-10.7928 112.2585 -42.8093 0.265 -0.087 0.960 53 46 55
-10.2334 112.5314 -42.9389 0.265 -0.087 0.960 43 36 45
-10.2648 112.0164 -42.7848 0.180 -0.087 0.980 33 29 39
-8.7917 101.3758 -39.7885 -0.161 0.031 0.987 66 87 56
-204.5078 162.4785 -40.8708 -0.138 -0.952 -0.273 67 88 57
-204.1543 162.5247 -40.9158 -0.172 -0.962 -0.211 75 96 65
-203.7014 162.3990 -40.9187 -0.101 -0.970 -0.219 70 91 60
-203.3001 162.3627 -40.9435 -0.101 -0.970 -0.219 59 80 49
-164.7832 150.9235 -40.9666 -0.696 -0.490 0.525 58 66 51
-163.4495 153.3831 -41.8139 0.716 -0.649 0.257 70 74 59
-156.7094 143.6696 -39.5321 -0.785 -0.277 0.554 85 90 78
-158.8543 155.5217 -42.8550 -0.645 -0.274 0.713 88 94 84
-153.6680 150.0153 -41.6826 -0.779 -0.493 0.386 77 78 69
-152.2166 147.7213 -41.1313 -0.561 -0.479 0.675 75 78 67
-151.3335 147.2430 -41.0678 -0.560 -0.493 0.666 75 81 67
-144.7824 147.6666 -41.7740 -0.469 -0.118 0.875 63 69 56
-135.6131 138.1215 -39.7574 -0.553 -0.223 0.803 71 85 68
-136.4611 149.1252 -42.9438 -0.406 -0.374 0.834 81 95 79
-135.2804 148.9310 -42.9909 -0.214 -0.740 0.638 76 89 72
-135.5720 152.3555 -43.9801 -0.534 -0.593 0.602 75 88 68
-127.8137 136.1126 -39.8532 -0.433 -0.746 0.506 63 77 46
-117.0122 120.8462 -36.2855 -0.173 -0.505 0.845 55 72 40
-33.5467 110.2859 -40.5531 -0.120 -0.058 0.991 57 72 52
-23.1343 116.0542 -43.1857 0.484 -0.100 0.869 107 94 104
-20.8188 118.5814 -44.1400 -0.772 -0.484 0.412 112 99 107
-20.8688 117.9284 -43.9420 -0.778 -0.471 0.416 115 102 109
-20.3446 118.1800 -44.0630 -0.777 -0.485 0.400 120 107 116
-20.1793 117.8695 -43.9857 -0.799 -0.485 0.356 121 108 117
-19.6364 114.8328 -43.1337 -0.488 -0.289 0.824 132 119 128
-15.1976 114.5286 -43.4369 0.196 -0.044 0.980 133 121 125
-16.3985 109.8379 -41.9401 0.448 -0.179 0.876 103 90 107
-15.6787 110.3585 -42.1583 0.448 -0.179 0.876 100 89 106
-12.6532 113.0867 -43.2351 0.329 -0.079 0.941 80 72 87
-11.9414 113.5745 -43.4427 0.329 -0.079 0.941 75 67 82
-11.3787 113.8545 -43.5756 0.328 -0.079 0.941 73 65 80
-11.5847 112.6025 -43.1863 0.340 -0.114 0.934 70 62 76
-10.9879 112.9284 -43.3357 0.297 -0.127 0.946 68 60 75
-10.8805 112.5931 -43.2459 0.179 -0.081 0.981 68 60 74
-11.2845 111.5749 -42.9083 0.091 -0.064 0.994 63 55 68
-11.0080 111.0030 -42.7633 0.180 -0.089 0.980 48 43 52
-6.2992 106.3871 -41.8124 0.115 0.008 0.993 85 93 76
-204.9124 162.3968 -41.2341 -0.416 -0.909 -0.030 57 78 47
-204.4851 162.3154 -41.2477 -0.166 -0.984 -0.058 62 83 52
-204.0916 162.2921 -41.2757 -0.475 -0.878 0.058 63 84 53
-203.7941 162.4353 -41.3450 -0.106 -0.968 -0.226 57 78 47
-173.1938 148.9356 -40.0290 -0.848 -0.475 0.236 54 76 37
-175.5999 156.2149 -41.9916 -0.560 -0.684 0.468 56 78 39
-164.0317 149.7647 -41.0914 -0.690 -0.490 0.533 51 60 44
-157.7538 144.4741 -40.0676 -0.490 -0.180 0.853 77 86 70
-157.4982 152.4159 -42.4649 -0.531 -0.346 0.773 80 86 74
-150.9797 145.9091 -41.0989 -0.587 -0.785 -0.200 73 79 65
-150.5018 145.5342 -41.0293 -0.587 -0.785 -0.200 66 74 59
-145.4758 147.2950 -42.0026 -0.582 -0.119 0.805 68 79 57
-144.3288 145.7439 -41.6408 -0.477 -0.111 0.872 67 75 60
-143.7297 144.8493 -41.4265 -0.477 -0.111 0.872 64 72 59
-142.4705 142.7715 -40.9172 -0.616 -0.108 0.780 54 60 48
-135.8787 131.3343 -38.0836 -0.347 -0.592 0.727 69 84 71
-134.7854 132.5097 -38.5322 -0.258 -0.257 0.931 54 71 54
-127.7846 135.7095 -40.1113 -0.439 -0.744 0.503 55 73 41
-125.6863 131.2924 -38.9772 0.217 -0.609 0.763 53 74 43
-125.0795 129.5704 -38.5162 0.547 -0.503 0.669 51 71 43
-124.7004 131.5666 -39.1468 0.562 -0.592 0.578 53 74 44
-124.3684 131.6433 -39.1992 0.565 -0.592 0.575 55 76 46
-124.0211 131.6174 -39.2224 0.558 -0.634 0.535 56 76 48
-123.7125 131.8649 -39.3238 0.547 -0.614 0.569 53 73 45
-123.3217 131.5328 -39.2592 0.638 -0.491 0.593 51 71 43
-119.8260 122.6764 -36.9220 0.514 -0.813 0.274 45 64 34
-118.8215 122.3920 -36.9263 0.781 -0.564 0.269 50 69 39
-118.3780 121.3298 -36.6481 0.378 -0.926 0.006 53 69 40
-116.9440 119.8912 -36.3455 0.541 -0.778 -0.319 51 68 36
-116.1399 121.4678 -36.8883 0.760 -0.619 -0.198 54 70 43
-112.2056 125.6947 -38.5019 -0.803 -0.478 0.356 60 77 45
-111.7938 124.4551 -38.1679 -0.699 -0.497 0.515 57 74 42
-100.0293 126.0114 -39.6790 0.084 -0.606 0.791 47 56 34
-99.6872 126.0169 -39.7111 0.084 -0.606 0.791 44 52 36
-28.9599 108.3586 -40.7189 0.101 -0.038 0.994 100 88 100
-21.1296 117.4987 -44.1478 0.500 -0.098 0.860 112 99 107
-19.4100 117.3526 -44.2570 0.350 -0.045 0.936 126 114 118
-17.9548 118.4642 -44.7187 0.368 -0.050 0.928 128 115 122
-13.7084 113.0798 -43.4863 -0.018 -0.041 0.999 97 84 102
-13.4187 112.9883 -43.4847 -0.018 -0.041 0.999 95 84 101
-13.2450 112.7369 -43.4250 0.022 -0.024 0.999 92 81 98
-13.0895 111.4934 -43.0670 0.338 -0.079 0.938 84 73 90
-12.7730 111.4450 -43.0807 0.312 -0.108 0.944 80 69 86
-12.7212 110.5637 -42.8218 0.354 -0.106 0.929 73 62 79
-11.6832 111.4888 -43.1907 0.179 -0.081 0.981 74 63 80
-11.4533 109.9223 -42.7427 0.136 -0.086 0.987 49 47 52
-8.7663 105.0072 -41.5120 0.058 0.012 0.998 123 122 115
-7.1919 105.2737 -41.7317 0.114 0.008 0.993 99 102 91
-7.2031 104.8475 -41.6032 0.061 0.011 0.998 91 96 82
-7.5142 103.2524 -41.0987 -0.203 0.030 0.979 75 89 64
-205.7376 163.0337 -41.7764 -0.329 -0.944 -0.024 51 72 41
-205.1144 162.6192 -41.7070 -0.332 -0.943 -0.028 52 73 42
-204.6586 162.4900 -41.7086 -0.470 -0.881 0.054 53 74 43
-204.1730 162.3085 -41.6972 -0.475 -0.878 0.058 54 75 44
-203.6223 162.0132 -41.6572 -0.475 -0.878 0.058 55 76 45
-202.4833 160.6924 -41.3605 -0.398 -0.707 0.585 53 74 43
-173.5955 149.7263 -40.6291 -0.859 -0.457 0.229 57 79 40
-172.4343 147.8839 -40.1770 -0.858 -0.463 0.221 60 82 43
-173.6538 151.5537 -41.1750 -0.680 -0.446 0.582 62 84 45
-163.8544 149.1481 -41.3233 -0.665 -0.486 0.567 52 61 43
-163.2010 149.3679 -41.4478 0.220 -0.733 0.643 53 62 43
-157.8112 143.4700 -40.1497 -0.605 -0.353 0.714 78 91 71
-156.0375 141.4225 -39.6904 -0.720 -0.293 0.629 81 95 76
-150.8135 145.1984 -41.2949 -0.612 -0.767 0.191 72 80 65
-150.7144 146.0816 -41.5701 -0.657 -0.745 -0.119 61 69 54
-144.3963 144.4238 -41.6335 -0.494 -0.117 0.861 73 85 63
-143.8665 143.7922 -41.4903 -0.560 -0.130 0.818 83 92 73
-143.4692 143.6632 -41.4868 -0.602 -0.108 0.791 78 87 71
-142.1018 141.1401 -40.8478 -0.616 -0.108 0.780 69 76 60
-140.8108 138.8320 -40.2668 -0.612 -0.109 0.784 72 79 62
-134.1414 132.4991 -38.9516 -0.299 -0.237 0.924 42 60 40
-131.6733 133.8589 -39.5818 -0.372 -0.302 0.878 64 82 58
-126.4053 133.4411 -39.9255 -0.367 -0.705 0.607 50 69 41
-125.5793 130.3787 -39.0756 0.350 -0.683 0.641 49 69 41
-122.6907 129.1860 -38.9734 0.499 -0.385 0.776 45 65 37
-121.1387 125.0634 -37.8685 0.476 -0.666 0.574 48 64 35
-120.4529 124.8442 -37.8636 0.148 -0.546 0.825 44 63 33
-119.9544 123.4629 -37.4914 0.628 -0.750 0.206 41 60 30
-118.0400 120.8985 -36.8887 -0.398 -0.771 0.497 48 64 35
-112.1993 125.1422 -38.6894 -0.798 -0.480 0.365 58 75 43
-111.8001 124.0918 -38.4082 -0.693 -0.498 0.522 54 71 39
-25.4282 111.2634 -42.2407 0.464 -0.097 0.880 109 96 106
-21.3037 114.9673 -43.7255 -0.525 -0.433 0.733 121 109 113
-20.3246 115.3749 -43.9357 -0.469 -0.211 0.858 124 112 116
-19.9191 114.9035 -43.8297 -0.469 -0.211 0.858 127 114 119
-23.0532 108.5984 -41.6488 -0.179 -0.560 0.809 126 113 122
-23.3297 107.1770 -41.1954 0.493 -0.857 0.147 135 122 131
-17.3999 112.3371 -43.2804 0.193 -0.044 0.980 131 118 125
-16.3358 110.8559 -42.9285 0.083 -0.042 0.996 123 110 120
-12.9898 110.6496 -43.1647 0.313 -0.117 0.943 92 81 98
-13.0207 110.1351 -43.0068 0.356 -0.107 0.928 88 77 94
-12.0906 110.9165 -43.3253 0.209 -0.085 0.974 86 75 92
-11.5396 109.3228 -42.8938 0.231 -0.084 0.969 56 53 59
-205.2104 162.6597 -42.1354 -0.403 -0.914 0.044 51 72 41
-163.1961 149.2091 -41.8015 0.219 -0.727 0.651 61 73 51
-153.9335 142.3855 -40.5543 -0.280 -0.291 0.915 70 82 61
-151.3153 146.6964 -42.0997 -0.657 -0.745 -0.119 71 79 64
-150.8089 146.2345 -42.0046 -0.657 -0.745 -0.119 63 71 56
-144.0918 143.0920 -41.6494 -0.485 -0.124 0.866 74 87 62
-143.5559 142.4264 -41.4949 -0.560 -0.130 0.818 81 93 69
-142.3419 140.5053 -41.0191 -0.618 -0.115 0.778 78 89 67
-141.7422 139.5478 -40.7815 -0.630 -0.119 0.768 77 87 64
-141.1750 138.7030 -40.5752 -0.599 -0.115 0.793 80 90 67
-140.5110 137.4535 -40.2546 -0.599 -0.115 0.793 79 89 66
