ply
format ascii 1.0
element vertex 856
property float x
property float y
property float z
property float nx
property float ny
property float nz
property uchar diffuse_red
property uchar diffuse_green
property uchar diffuse_blue
end_header
331.3231 257.5618 10.5158 -0.321 -0.703 0.635 72 63 93
330.0656 255.4421 10.3109 -0.318 -0.684 0.656 66 61 82
324.8177 250.1736 9.9645 -0.345 -0.640 0.687 57 54 66
322.9500 247.6124 9.7436 -0.179 -0.745 0.642 57 54 62
387.0925 281.9637 9.7029 0.208 -0.927 -0.313 59 52 70
406.6313 284.0995 8.5056 -0.011 -0.903 0.430 72 64 87
404.1557 270.4556 6.7547 -0.572 -0.519 -0.635 62 58 81
396.4966 247.5540 4.0850 -0.101 -0.877 -0.469 65 63 77
384.6004 235.7837 3.3244 -0.387 -0.922 -0.004 107 104 123
366.3903 223.2670 2.9427 -0.676 -0.716 0.175 97 94 113
363.4811 219.5219 2.6334 -0.473 -0.879 0.056 76 73 90
328.5869 195.0974 1.8394 -0.192 -0.956 0.222 63 60 77
349.5941 207.1953 1.9466 0.011 -0.830 0.557 64 60 77
354.7074 209.4359 1.8725 -0.218 -0.809 0.546 74 70 87
410.5035 242.6322 2.3087 0.111 -0.633 0.766 77 73 90
360.4339 211.1117 1.6710 -0.776 -0.577 -0.255 81 77 94
352.2983 187.2999 -1.0916 0.075 -0.997 -0.017 116 112 135
354.9272 158.7729 -5.3521 0.414 -0.910 -0.040 90 86 111
425.5881 191.3321 -6.1486 -0.665 -0.590 0.457 89 85 110
390.0654 173.0468 -6.0209 -0.815 -0.555 0.168 90 86 111
222.6960 413.3512 39.9579 0.187 -0.975 -0.118 52 190 216
301.7956 412.5630 33.6767 -0.834 -0.462 -0.301 67 56 86
385.4220 389.9633 23.9802 -0.135 -0.742 0.657 79 79 82
367.0534 351.7044 20.0418 -0.828 0.062 0.557 48 48 51
366.4391 325.6691 16.4345 -0.464 -0.305 0.831 63 58 53
319.1172 243.5817 8.6016 -0.385 -0.589 0.710 57 53 66
371.5740 269.2502 8.1132 -0.391 -0.889 -0.237 68 61 79
359.4543 254.6586 7.0101 -0.235 -0.869 -0.435 76 68 91
389.9491 271.0107 6.9269 -0.529 -0.736 0.422 75 67 90
345.6838 235.2667 5.3618 -0.445 -0.805 -0.394 86 81 103
408.7485 273.6620 5.8326 -0.543 -0.552 -0.633 58 54 77
371.4545 240.6041 4.1008 0.414 -0.786 0.459 58 56 70
382.7422 243.9169 3.6853 -0.760 -0.385 -0.524 57 55 68
385.2163 244.4898 3.5727 -0.750 -0.396 -0.529 62 60 74
377.5203 234.3354 2.7475 -0.511 -0.848 -0.140 77 75 90
379.5414 232.6022 2.3465 -0.426 -0.902 -0.075 94 91 107
364.4515 222.0678 2.0447 -0.732 -0.659 -0.173 84 81 97
350.8208 207.0709 1.0026 -0.193 -0.791 0.581 113 106 124
391.0015 224.8258 0.3608 -0.373 -0.668 -0.644 118 111 129
363.4480 199.5172 -1.0429 0.181 -0.983 -0.021 89 81 104
367.1600 194.7181 -2.0063 0.436 -0.899 -0.032 92 88 111
367.9565 189.2613 -2.8345 0.451 -0.889 0.074 67 63 86
355.2174 161.7873 -5.6979 0.370 -0.908 0.198 104 99 121
371.6651 157.8857 -7.5287 -0.885 -0.462 -0.058 83 79 102
223.1945 414.6347 39.0278 0.209 -0.963 0.170 53 143 171
365.4335 384.9170 23.6469 -0.382 -0.647 0.660 79 70 66
361.6732 321.4502 15.1536 -0.519 -0.279 0.808 62 58 56
371.7877 327.7297 15.2224 -0.386 -0.269 0.883 62 58 56
407.0524 316.8612 10.9241 -0.645 -0.699 0.308 64 59 81
372.8351 265.6167 6.5358 -0.202 -0.853 -0.481 78 70 91
410.1207 283.0361 5.9958 -0.555 -0.738 -0.384 94 86 107
350.7492 239.9049 4.7233 0.076 -0.997 0.032 100 92 115
350.3748 237.5758 4.4304 -0.502 -0.792 -0.347 112 107 130
395.0818 246.7036 2.1542 -0.115 -0.945 -0.306 65 62 74
380.2654 236.1272 1.8626 -0.423 -0.903 -0.079 72 67 81
381.0295 235.5989 1.7288 -0.416 -0.906 -0.079 75 69 83
382.3276 230.3815 0.9034 -0.373 -0.909 0.184 72 66 80
383.2649 229.9704 0.7722 -0.373 -0.909 0.184 87 81 94
363.6977 200.5451 -1.7541 -0.025 -0.997 -0.067 84 76 99
325.1496 148.6613 -5.8881 -0.851 -0.460 0.252 97 92 114
379.5977 157.0884 -9.0327 0.375 -0.895 0.243 96 91 113
380.9319 156.2380 -9.2562 -0.043 -0.932 -0.360 84 79 101
29.9065 421.6443 54.4496 -0.189 -0.824 -0.535 49 44 64
31.1864 418.3076 53.8909 -0.202 -0.828 -0.523 31 31 43
318.4475 401.6122 28.5196 -0.037 -0.439 0.898 56 48 59
373.9384 392.3892 22.7990 -0.700 -0.616 -0.362 65 55 53
382.4517 310.5422 10.9313 -0.278 -0.942 -0.187 54 44 68
389.1733 313.3878 10.7799 -0.176 -0.966 -0.189 71 62 91
400.4677 293.4089 7.1422 0.172 -0.923 -0.345 83 76 94
492.4288 357.8795 8.5594 -0.930 -0.261 0.258 80 73 91
390.8861 281.3138 6.2597 -0.646 -0.757 -0.094 80 73 91
385.4182 269.0274 5.0204 -0.479 -0.801 0.358 76 68 91
394.4001 245.2354 1.0476 -0.736 -0.275 0.619 68 62 76
373.8434 228.0527 0.3521 -0.463 -0.883 -0.069 67 61 75
406.0053 232.8031 -1.5840 0.260 -0.765 0.590 87 80 98
359.4590 198.1214 -2.5814 0.018 -1.000 0.004 105 97 120
379.0598 179.5308 -6.6971 -0.169 -0.410 0.896 80 75 97
94.9059 432.0426 49.6917 -0.342 -0.913 0.220 155 168 203
351.9547 354.4100 18.2635 -0.884 -0.255 0.391 46 38 49
374.3958 339.1303 14.3740 -0.486 -0.769 0.414 56 51 57
392.3816 320.2625 10.3644 -0.097 -0.937 -0.337 69 60 81
407.3277 328.4225 10.2449 -0.151 -0.954 -0.260 87 78 107
384.2814 283.7487 6.1046 0.246 -0.880 0.406 65 58 74
385.0793 283.1270 5.9558 0.245 -0.883 0.401 73 66 82
381.2842 273.0914 4.9129 -0.612 -0.780 -0.130 80 73 91
371.7728 264.9425 4.5906 -0.640 -0.767 0.039 74 66 89
387.5958 272.9853 4.3838 0.526 -0.825 0.206 77 69 92
399.5756 280.4479 4.4123 0.323 -0.940 0.112 62 54 77
380.9863 264.7498 3.8132 -0.087 -0.796 0.599 74 66 89
398.2585 275.9098 3.9082 -0.489 -0.872 -0.027 84 76 99
353.6590 239.9578 2.7013 -0.607 -0.774 -0.181 74 69 91
352.3050 237.9767 2.5447 -0.564 -0.786 -0.254 63 58 80
346.7687 208.2370 -1.0113 -0.216 -0.492 0.843 66 60 74
350.5683 209.6951 -1.1247 -0.224 -0.467 0.855 84 78 92
348.6637 207.6064 -1.2508 -0.198 -0.437 0.877 103 97 111
349.2803 207.0854 -1.3713 -0.198 -0.437 0.877 114 107 123
348.0708 205.4439 -1.4939 -0.227 -0.431 0.873 114 107 125
319.7739 148.0383 -6.9216 -0.920 -0.331 -0.212 80 75 97
306.1167 126.0313 -8.7732 -0.957 -0.257 0.137 43 38 60
28.2671 446.9925 56.2379 -0.037 -0.949 -0.312 61 50 82
380.5530 405.2508 21.5379 -0.579 -0.411 0.704 56 47 46
383.1273 406.1791 21.4482 -0.668 -0.589 -0.455 55 47 45
316.4328 305.5173 13.5922 -0.087 -0.831 0.549 49 40 57
398.1385 370.8671 15.5139 -0.894 -0.080 0.441 62 56 70
424.1790 340.9104 9.3784 -0.469 -0.761 -0.447 93 84 113
394.8280 291.8029 5.2823 -0.793 -0.530 -0.301 65 58 76
394.5200 273.2967 2.8488 -0.466 -0.875 0.133 71 63 87
405.7978 280.1205 2.8222 -0.563 -0.759 -0.326 71 63 87
351.2466 240.3832 2.0565 0.042 -0.993 0.111 68 60 84
324.1906 213.7023 0.7503 -0.848 -0.362 -0.387 60 55 75
320.3609 210.1678 0.5976 -0.631 -0.561 -0.536 51 46 68
459.6682 281.1351 -1.5011 0.255 -0.966 0.031 55 49 63
340.4077 202.5167 -2.0780 -0.257 -0.570 0.781 102 96 110
414.0608 231.5318 -4.3178 -0.792 -0.445 -0.418 110 102 125
372.8754 195.3295 -5.7199 -0.533 -0.067 0.844 66 62 85
410.9614 201.5189 -8.0493 0.432 -0.875 0.221 64 56 80
378.5899 173.7755 -9.0567 -0.557 -0.655 -0.511 75 70 92
93.5299 436.2206 48.4434 -0.374 -0.859 0.349 158 165 190
392.9384 386.1508 16.7509 -0.769 -0.274 0.578 55 46 63
385.0218 275.9523 2.9806 -0.786 -0.613 -0.076 78 68 92
387.6232 268.4330 1.7773 -0.329 -0.942 -0.067 69 59 86
418.3837 256.2823 -2.3965 0.193 -0.968 -0.159 56 50 64
352.3615 205.4175 -3.5170 -0.276 -0.910 0.309 90 83 101
336.8514 188.4405 -4.4388 0.419 -0.892 0.167 109 101 124
354.4715 194.4380 -5.1323 -0.987 -0.139 0.082 72 64 87
268.6497 140.8272 -4.9505 0.086 -0.996 0.014 72 69 90
298.7549 155.4813 -5.5581 -0.748 -0.611 -0.258 70 67 88
327.2662 162.2613 -7.0634 0.346 -0.819 0.457 79 71 94
388.8315 190.1909 -8.5730 0.423 -0.865 0.271 77 69 92
92.3873 436.2924 47.5866 -0.474 -0.806 0.356 82 87 108
93.5632 437.3198 47.6191 -0.395 -0.837 0.379 140 140 168
365.0381 376.6558 16.6750 -0.861 -0.186 0.473 49 39 49
351.4380 349.5403 14.3322 -0.855 -0.237 0.462 50 44 54
357.6302 343.2648 12.9948 -0.218 -0.975 0.044 49 40 57
369.6401 333.5933 10.7237 -0.825 -0.352 0.442 71 62 87
370.8219 309.2113 7.4753 -0.435 -0.530 0.728 56 47 68
408.9982 307.9491 4.0622 -0.136 -0.295 0.946 72 62 95
386.2038 289.1209 3.5720 -0.939 -0.336 -0.072 62 53 84
394.1656 290.1689 3.0295 0.204 -0.489 0.848 83 73 98
390.5121 284.9350 2.6648 0.062 -0.420 0.905 76 66 91
388.7590 276.3609 1.7071 -0.738 -0.519 -0.431 99 89 116
362.5548 245.2515 -0.0782 0.255 -0.896 0.363 62 57 77
349.0219 233.7693 -0.4085 -0.905 -0.424 -0.004 106 101 121
376.8456 251.9364 -0.4319 -0.865 -0.493 0.096 115 110 130
373.1870 248.3381 -0.5849 -0.866 -0.489 0.102 103 99 117
356.4316 206.1009 -4.6114 -0.138 -0.990 -0.001 71 64 82
336.0227 192.9767 -4.5682 -0.224 -0.965 -0.138 70 63 81
337.2287 192.8534 -4.6868 -0.221 -0.965 -0.144 71 64 82
336.3970 165.5531 -8.1406 -0.914 -0.113 0.390 67 57 81
304.4949 126.4514 -10.4727 -0.983 -0.051 0.177 137 132 154
21.4714 623.0179 76.4996 -0.348 -0.912 0.218 60 56 81
23.6621 622.9844 76.3062 -0.545 -0.628 -0.555 60 56 81
31.2685 462.0770 55.1799 -0.646 -0.616 -0.451 96 90 117
91.9489 439.6118 47.0836 -0.421 -0.826 0.374 40 45 71
92.5853 438.1596 46.8439 -0.411 -0.833 0.370 29 33 56
91.1089 418.8464 44.5145 -0.337 -0.900 0.276 169 169 198
356.8456 388.9482 17.7705 0.228 -0.270 0.936 63 51 55
368.1702 380.0926 15.6663 -0.947 -0.093 0.309 46 35 48
387.3602 357.8412 11.1790 -0.860 -0.164 0.483 64 54 89
411.8803 364.4721 9.9057 -0.542 -0.764 -0.351 59 50 79
394.0643 346.8909 9.2072 -0.146 -0.716 0.683 45 36 66
381.9507 320.1862 6.8557 -0.249 -0.328 0.911 54 42 62
398.2995 329.8364 6.6720 -0.087 -0.379 0.921 56 44 66
401.4348 307.4662 3.5555 -0.095 -0.284 0.954 61 54 86
403.0775 307.4196 3.4078 -0.106 -0.277 0.955 60 53 84
400.2190 303.8687 3.2028 -0.099 -0.278 0.956 78 72 100
389.3269 291.5836 2.5803 -0.946 -0.229 -0.231 76 67 96
336.1430 241.1037 0.7498 -0.846 -0.497 0.193 66 56 83
386.7160 273.7361 0.5352 -0.763 -0.496 -0.415 75 65 92
390.0444 270.2555 -0.1949 -0.315 -0.827 -0.466 69 59 86
385.9983 263.9282 -0.6505 -0.381 -0.835 -0.397 61 53 76
365.5807 248.4792 -0.8532 -0.059 -0.942 0.331 61 56 76
362.5731 245.3059 -0.9973 -0.175 -0.938 0.300 72 67 87
367.0098 247.3294 -1.1229 -0.179 -0.942 0.284 91 86 106
373.7147 250.9022 -1.2472 -0.189 -0.943 0.274 100 95 115
364.5804 211.0216 -5.5320 -0.298 -0.759 -0.579 62 55 73
359.3914 206.9950 -5.5963 -0.299 -0.784 -0.544 72 65 83
374.2393 206.6806 -6.9181 -0.652 -0.408 -0.639 100 95 117
366.9455 201.6034 -6.9343 -0.638 -0.399 -0.659 99 94 116
365.2532 186.1897 -8.7491 -0.636 -0.196 0.747 97 89 112
363.5616 184.4701 -8.8218 -0.663 -0.185 0.725 101 91 115
31.2264 464.3896 54.5334 -0.554 -0.658 -0.509 98 92 121
31.7225 459.8363 53.9194 -0.629 -0.626 -0.462 104 100 125
29.7030 424.4567 49.6623 -0.126 -0.853 0.506 43 41 61
88.2597 419.2808 43.8886 -0.546 -0.701 0.459 17 16 44
88.9256 418.1587 43.6897 -0.386 -0.830 0.402 81 83 112
89.7795 417.8947 43.5819 -0.422 -0.846 0.326 171 176 205
387.7716 366.3984 11.0475 -0.843 -0.311 0.439 95 85 120
387.0787 357.6985 10.0179 -0.970 -0.172 0.169 118 108 144
409.9896 362.8828 8.6624 -0.544 -0.761 -0.353 71 62 92
388.0268 328.3449 6.2562 -0.527 -0.391 0.754 62 53 76
386.6139 324.2720 5.8694 0.031 -0.910 -0.413 67 55 75
386.2993 306.1315 3.6235 0.207 -0.417 0.885 81 72 99
349.2484 271.3039 2.5016 0.040 -0.985 0.168 83 77 103
353.1412 269.6640 1.9554 -0.843 -0.153 0.516 60 53 83
356.1670 270.8547 1.8398 -0.710 -0.228 0.667 76 70 96
388.6897 276.4180 -0.3095 -0.700 -0.686 -0.196 83 73 100
389.3964 275.7393 -0.4564 -0.700 -0.686 -0.196 74 64 91
378.6848 258.8260 -1.6385 -0.516 -0.238 0.823 80 72 95
363.4009 246.9940 -1.7837 -0.096 -0.942 0.323 91 86 106
370.6567 247.7511 -2.3238 -0.194 -0.815 0.547 75 70 92
367.2090 243.2565 -2.5854 -0.418 -0.652 0.633 84 79 101
333.0822 189.5779 -6.3257 -0.302 -0.841 -0.449 96 88 106
278.0801 144.7888 -7.1250 -0.147 -0.835 0.530 106 101 121
363.0209 185.8216 -9.4167 -0.678 -0.134 0.723 93 85 106
358.6768 181.0743 -9.6315 -0.707 -0.146 0.692 101 89 113
381.6484 184.8644 -11.1670 -0.928 -0.139 -0.345 97 89 112
358.5616 170.0798 -10.9993 -0.832 -0.550 0.077 54 51 72
358.9319 169.5045 -11.1038 -0.832 -0.550 0.077 63 60 81
352.3031 165.4658 -11.0298 -0.713 -0.656 -0.246 71 68 89
306.9121 141.7048 -10.0349 -0.892 -0.446 -0.077 63 58 80
20.8120 621.4023 73.8923 -0.294 -0.928 0.228 137 133 158
21.9804 623.1522 74.0046 -0.393 -0.911 0.125 128 124 149
28.4978 421.7399 48.5659 -0.069 -0.853 0.518 109 103 129
29.4263 423.5544 48.7075 -0.117 -0.856 0.504 64 60 82
89.8574 445.2520 46.0245 -0.098 -0.828 -0.552 24 25 47
378.1966 399.9056 14.8470 -0.151 -0.854 -0.498 43 30 56
385.3709 367.4816 10.2084 -0.899 0.025 0.436 78 67 98
387.5894 367.9888 10.0742 -0.839 -0.306 0.450 84 72 107
386.5394 365.3437 9.8409 -0.841 -0.326 0.432 86 75 109
410.3156 353.8435 6.3121 -0.646 -0.703 -0.297 83 77 105
381.3541 324.0935 5.2094 0.022 -0.873 -0.487 77 67 93
395.1106 321.6558 3.6881 -0.453 -0.395 0.799 108 98 123
380.8152 305.7340 2.9911 -0.313 -0.617 0.722 86 77 104
394.9257 315.9455 2.9996 0.010 -0.964 0.266 84 75 102
388.6087 309.4273 2.7555 -0.194 -0.915 0.353 109 100 127
378.2738 299.6995 2.4717 -0.330 -0.934 -0.141 102 92 119
390.3662 308.1639 2.4437 0.207 -0.442 0.873 87 78 105
356.4204 274.6845 1.3228 -0.366 -0.868 -0.336 65 59 88
357.1582 272.8787 1.0345 -0.712 -0.234 0.662 57 51 78
357.3613 271.8509 0.8896 -0.712 -0.234 0.662 77 71 97
338.8851 242.1737 -1.1343 -0.829 -0.461 0.316 124 114 141
375.0972 260.8256 -2.0447 0.199 -0.967 -0.157 89 79 106
372.1268 249.8856 -3.1315 0.096 -0.291 0.952 87 82 102
378.2696 250.8601 -3.5562 -0.444 -0.274 0.853 90 85 105
313.7126 182.0437 -6.3230 0.311 -0.639 0.703 100 91 108
378.4014 210.9346 -8.4959 0.321 -0.720 0.615 67 62 84
351.6860 184.5836 -9.3784 -0.867 -0.333 0.371 119 114 134
344.5769 163.0961 -11.3999 -0.906 -0.375 -0.196 52 47 69
274.5208 123.5097 -10.0710 -0.158 -0.740 0.654 65 60 82
-17.0914 449.4516 55.1707 -0.685 -0.577 -0.444 68 59 88
20.5082 621.1967 72.6632 -0.294 -0.928 0.228 156 152 177
21.7912 625.6356 73.0874 -0.397 -0.907 0.137 159 155 180
28.0951 419.1894 47.4300 -0.067 -0.853 0.517 113 107 133
29.6336 418.9676 47.2647 -0.067 -0.853 0.517 43 41 56
84.2507 419.4020 42.4067 -0.119 -0.860 -0.496 24 28 50
377.6872 387.0227 12.0880 -0.898 0.004 0.440 81 70 83
345.5233 336.4239 8.8304 -0.785 -0.620 -0.016 72 63 82
388.7655 369.2565 8.9327 -0.849 -0.329 0.413 93 82 110
384.7575 362.1428 8.4285 -0.954 -0.296 0.037 96 86 110
431.7502 371.1639 5.2997 -0.029 -0.930 0.367 76 70 98
395.8425 323.7615 2.7671 -0.333 -0.404 0.852 89 77 101
396.8895 323.2224 2.6075 -0.288 -0.607 0.740 82 72 97
389.6198 315.7919 2.3580 -0.589 -0.416 0.693 83 74 101
395.4784 316.4796 1.9149 0.019 -0.969 0.246 95 86 113
397.6174 299.4450 -0.3478 -0.638 -0.315 0.703 76 70 98
378.7972 277.5959 -1.3111 -0.068 -0.663 0.745 63 53 78
389.5494 280.7786 -1.8910 -0.747 -0.416 0.518 75 65 90
390.6335 277.9469 -2.3326 -0.702 -0.576 0.419 96 86 113
366.2127 257.8480 -2.5796 -0.037 -0.983 0.180 80 70 97
371.0533 252.4457 -3.6714 -0.485 -0.229 0.844 58 53 73
401.1505 255.2782 -6.0333 0.343 -0.893 0.292 59 56 65
364.6924 228.3540 -6.0275 -0.355 -0.828 0.434 120 112 125
371.6369 207.0267 -9.2440 0.329 -0.731 0.598 70 65 87
358.5645 197.7060 -9.2014 0.420 -0.800 0.428 85 80 102
371.4913 200.6932 -10.0006 0.070 -0.813 -0.579 101 96 116
372.7553 200.5234 -10.1349 0.087 -0.822 -0.563 97 92 112
368.1097 197.0501 -10.1393 0.371 -0.853 -0.367 84 79 99
373.5143 199.1924 -10.3649 0.233 -0.864 -0.445 79 74 94
368.9206 194.0590 -10.5758 -0.623 -0.632 0.461 123 118 138
351.3103 182.7619 -10.3654 -0.467 0.021 0.884 131 126 146
362.3204 171.9503 -12.6693 -0.788 -0.614 -0.046 59 54 76
-15.9134 329.9027 39.8995 -0.140 -0.974 0.178 67 58 87
-16.6105 451.0403 54.4558 -0.708 -0.555 -0.438 65 56 85
-15.1254 450.4749 54.2529 -0.717 -0.370 0.590 68 59 88
15.9074 622.3153 71.9843 -0.379 -0.915 0.141 103 96 127
16.9751 621.8490 71.8313 -0.379 -0.915 0.141 82 77 106
18.0434 621.3823 71.6781 -0.379 -0.915 0.141 97 93 120
20.2044 620.9911 71.4344 -0.294 -0.928 0.228 152 148 173
21.5216 626.2888 71.9482 -0.400 -0.898 0.182 161 157 182
32.6653 469.2919 52.1500 -0.168 -0.969 -0.179 102 96 121
32.5400 427.7233 47.1881 -0.420 -0.717 0.556 25 24 38
33.5321 429.8685 47.3544 -0.464 -0.855 0.231 18 17 31
382.5519 404.9192 12.5706 0.284 -0.401 0.871 69 57 81
368.0502 360.5063 8.5783 -0.865 0.087 0.494 70 60 83
392.2829 372.7874 7.8398 -0.898 -0.012 0.440 86 78 95
386.4721 365.5387 7.5020 -0.952 -0.293 0.086 75 67 83
427.7634 384.3031 5.9849 -0.505 -0.863 -0.023 91 86 108
388.7731 315.1744 1.2668 -0.589 -0.416 0.693 109 100 127
381.8724 306.7632 0.8892 -0.502 -0.671 0.545 94 85 112
391.9756 306.9352 -0.0107 0.027 -0.884 -0.466 96 87 114
391.1674 299.6976 -0.8030 -0.722 -0.186 0.666 89 84 114
366.3943 267.1551 -2.4393 0.016 -0.633 0.774 51 41 66
376.1587 269.7495 -3.0185 -0.729 -0.684 0.028 62 52 79
365.9203 257.6853 -3.5291 -0.037 -0.983 0.180 66 56 83
367.3771 250.9978 -4.4619 0.073 -0.170 0.983 61 56 78
396.4764 254.4371 -6.7016 -0.726 -0.378 0.574 54 48 60
388.2705 247.9296 -6.7325 -0.850 -0.359 0.385 54 48 60
386.7901 245.8862 -6.8421 -0.842 -0.357 0.405 62 56 68
380.0851 240.4399 -6.8828 -0.822 -0.303 0.483 77 71 83
361.6813 226.4313 -6.8820 -0.736 -0.675 -0.050 116 108 121
361.2999 225.2024 -6.9943 -0.727 -0.684 -0.057 125 114 128
362.7996 225.1892 -7.1325 -0.705 -0.709 -0.007 123 112 126
384.8283 234.2171 -8.0595 0.405 -0.758 0.512 90 79 93
382.1134 228.5017 -8.4959 -0.824 -0.404 0.398 97 86 102
362.9763 211.9730 -8.7298 -0.554 -0.815 -0.169 108 97 113
361.8464 209.4503 -8.9287 -0.722 -0.527 0.448 126 115 132
409.3687 226.9337 -11.1667 0.483 -0.874 -0.055 67 62 84
302.3405 155.3898 -9.9749 0.341 -0.661 0.669 128 123 143
300.1875 134.6509 -12.2599 0.298 -0.874 -0.385 95 90 112
-17.5836 451.9783 53.7905 -0.711 -0.555 -0.432 75 66 95
-16.1055 451.7689 53.6294 -0.715 -0.346 0.607 70 61 90
-15.3007 448.6053 53.1826 -0.712 -0.361 0.602 72 63 92
15.6099 622.2638 70.7759 -0.393 -0.909 0.137 104 97 130
16.6770 621.7793 70.6204 -0.393 -0.909 0.137 90 85 115
17.7699 621.9756 70.5426 -0.420 -0.891 0.170 92 88 116
18.8147 620.8524 70.3139 -0.379 -0.915 0.141 139 135 159
19.8820 620.3241 70.1532 -0.393 -0.909 0.137 148 144 169
21.2189 626.1749 70.7187 -0.400 -0.898 0.182 162 158 183
22.3646 627.1597 70.7289 -0.536 -0.817 0.212 151 147 174
33.9464 456.2025 49.5312 -0.231 -0.967 -0.108 42 41 55
32.4330 428.8658 46.4523 -0.460 -0.853 0.246 25 24 38
34.4863 443.0129 47.9284 -0.356 -0.856 0.375 17 16 30
353.9585 422.3971 16.0114 -0.935 -0.350 -0.051 84 80 56
340.5011 394.8574 14.0111 -0.119 -0.982 -0.143 98 91 99
368.0674 386.0005 10.4237 0.098 -0.374 0.922 61 49 73
388.9490 344.3556 3.5928 -0.509 -0.848 0.146 77 72 95
385.1031 320.5248 1.1420 -0.812 -0.237 0.533 96 84 106
396.6317 323.1820 0.3907 -0.784 -0.486 0.387 128 118 143
386.4646 313.3449 0.1710 -0.486 -0.706 0.516 115 106 133
380.5434 304.4183 -0.3335 -0.645 -0.762 0.057 74 65 92
379.8118 301.1774 -0.6475 -0.371 -0.907 -0.197 59 50 77
393.3623 301.4913 -1.8614 -0.724 -0.174 0.668 95 90 120
390.7455 298.1378 -2.0147 -0.656 -0.290 0.697 92 87 117
387.2730 286.5722 -3.0559 -0.765 -0.283 0.578 57 47 72
387.5454 285.5367 -3.2030 -0.765 -0.283 0.578 40 30 55
406.2276 289.4586 -4.4657 -0.425 -0.758 -0.494 56 46 73
413.2880 292.0849 -4.8082 -0.469 -0.824 -0.319 57 47 74
376.3725 263.0219 -4.8225 -0.730 -0.648 -0.218 53 43 70
395.1435 252.4948 -7.7947 -0.960 -0.175 0.220 59 53 67
379.3203 239.9721 -7.8085 -0.835 -0.296 0.464 81 75 89
363.7700 227.8149 -7.8045 -0.668 -0.656 -0.353 105 94 108
363.7698 225.8412 -8.0368 -0.661 -0.666 -0.347 109 97 109
352.3106 212.8295 -8.5111 -0.612 -0.773 0.165 89 77 89
321.7151 190.2666 -8.3434 -0.237 -0.919 -0.316 87 76 92
468.5222 272.4976 -12.2130 -0.258 -0.938 -0.234 109 98 114
369.8936 194.6081 -12.2795 -0.469 -0.548 0.693 83 78 98
330.7472 165.5639 -12.0857 0.258 -0.470 0.844 74 64 88
291.3657 131.0235 -12.5172 0.337 -0.879 0.337 96 88 108
-17.8078 452.3300 52.9850 -0.716 -0.549 -0.432 88 79 108
-15.4922 447.5669 52.2167 -0.718 -0.362 0.595 83 74 103
-14.7685 448.0584 52.2060 -0.671 -0.258 0.695 86 77 106
6.4060 606.0989 68.5333 -0.042 -0.791 -0.610 86 81 113
7.6607 530.2230 59.6266 -0.804 -0.533 -0.263 100 95 127
15.3121 622.2099 69.5668 -0.393 -0.909 0.137 96 91 123
16.3793 621.7253 69.4109 -0.393 -0.909 0.137 100 93 126
17.4706 621.8849 69.3274 -0.420 -0.891 0.170 90 83 113
18.5383 621.3510 69.1657 -0.420 -0.891 0.170 133 129 155
19.6038 620.7507 68.9965 -0.403 -0.868 0.292 143 139 164
20.9589 627.0885 69.6040 -0.411 -0.897 0.165 162 158 183
22.0608 627.0391 69.4952 -0.536 -0.817 0.212 152 148 173
23.0733 624.9625 69.1600 -0.517 -0.834 0.193 145 141 167
24.2398 626.2714 69.2025 -0.532 -0.822 0.206 88 84 110
25.4238 627.7988 69.2687 -0.444 -0.879 0.177 69 65 91
34.4998 445.5922 47.3133 -0.451 -0.857 0.248 11 10 24
349.0962 418.7101 14.7822 -0.851 -0.525 0.003 105 105 74
349.7927 417.5790 14.5861 -0.851 -0.525 0.003 113 114 83
347.1201 408.5376 13.7886 -0.756 -0.531 -0.384 104 100 72
370.9861 418.9978 12.7687 -0.670 -0.730 0.135 63 58 77
379.6586 389.5463 8.5461 -0.369 -0.793 -0.486 106 91 110
389.5807 392.7086 7.9846 -0.957 -0.062 0.284 81 68 86
389.3594 383.7397 6.9664 -0.905 0.089 0.415 73 63 86
397.5289 386.6781 6.5428 0.237 -0.414 0.879 81 72 93
395.4437 379.4868 5.9048 -0.883 -0.011 0.468 95 86 105
386.2175 351.2047 3.4913 -0.197 -0.980 -0.026 92 87 109
386.1446 349.5838 3.3104 -0.190 -0.977 -0.098 85 80 102
409.3679 350.3451 1.2270 0.286 -0.647 0.707 86 80 107
383.0534 311.9623 -0.7586 -0.461 -0.547 0.699 81 71 96
376.9218 297.6050 -1.8484 -0.397 -0.878 -0.267 74 65 94
393.7525 300.5586 -3.0801 -0.794 -0.263 0.548 106 100 128
396.0966 301.0795 -3.2389 -0.787 -0.254 0.562 59 53 81
381.6076 276.2652 -4.7586 -0.754 -0.432 0.494 92 82 107
370.1229 264.2553 -5.0759 -0.837 -0.405 0.369 78 69 96
378.6262 269.3284 -5.2834 -0.026 -0.742 0.670 70 61 88
408.9509 290.2482 -5.6956 -0.471 -0.823 -0.318 61 52 79
411.4862 289.5785 -6.0103 -0.715 -0.667 -0.211 55 46 73
402.4440 258.4594 -8.7695 -0.628 -0.220 0.746 67 60 76
374.1165 230.5106 -9.3583 0.375 -0.654 0.657 108 96 108
373.9858 229.4272 -9.4716 0.379 -0.665 0.644 89 77 89
375.7431 229.5430 -9.6225 0.437 -0.737 0.515 76 64 76
392.4818 219.1567 -12.3908 -0.212 -0.822 -0.529 98 93 115
364.3408 190.7206 -13.0535 -0.568 -0.680 0.464 79 74 94
415.1563 203.6612 -16.3061 0.041 -0.136 0.990 113 104 127
399.4435 194.7527 -15.8687 -0.997 0.070 -0.020 112 104 125
382.4259 184.4288 -15.4734 -0.953 -0.029 -0.300 111 103 124
367.5324 163.1372 -16.5471 -0.928 -0.345 0.140 75 66 83
-15.2502 327.7992 37.6856 -0.047 -0.980 0.191 104 95 124
2.3534 635.8361 71.1151 -0.433 -0.894 -0.117 73 64 93
16.1594 623.9387 68.4520 -0.520 -0.845 0.130 106 99 132
17.2581 624.2004 68.3778 -0.505 -0.849 0.155 92 85 117
18.3249 623.5327 68.2007 -0.505 -0.849 0.155 114 107 138
19.2974 620.4769 67.7604 -0.403 -0.868 0.292 148 141 170
20.7976 630.4172 68.7509 -0.432 -0.893 0.127 154 148 174
21.7950 627.8020 68.3585 -0.546 -0.817 0.186 155 150 173
22.7713 624.8654 67.9314 -0.517 -0.834 0.193 154 149 170
24.0081 627.7079 68.1381 -0.512 -0.834 0.206 94 89 111
25.1533 628.3937 68.1078 -0.511 -0.836 0.201 63 58 80
34.3261 455.8166 47.5762 -0.227 -0.960 -0.162 30 29 43
35.1030 454.9484 47.4037 -0.194 -0.973 -0.126 8 7 21
36.0596 456.1097 47.4454 -0.532 -0.836 -0.137 37 36 50
345.0143 410.0760 12.9399 -0.930 -0.361 0.074 105 103 86
343.2658 406.0541 12.6472 -0.687 -0.553 0.470 101 99 82
388.4217 411.7436 9.0188 0.380 -0.653 0.655 75 63 88
402.8381 410.1234 7.4689 0.031 -0.305 0.952 83 70 88
387.1617 385.1378 6.1068 0.032 -0.407 0.913 100 88 110
386.1515 382.3906 5.8895 0.034 -0.415 0.909 87 78 99
386.3826 377.4954 5.3098 0.248 -0.417 0.875 77 68 87
380.9518 363.8531 4.2698 -0.808 -0.347 0.476 101 92 111
385.5773 352.2893 2.5142 -0.864 -0.462 -0.202 76 71 93
388.7053 353.6265 2.3703 -0.215 -0.972 -0.098 100 95 117
380.6848 340.1097 1.5899 -0.995 -0.013 0.094 70 65 87
383.4061 341.0749 1.4421 -0.997 -0.035 0.076 59 54 77
373.1060 328.8112 1.0203 -0.131 -0.674 0.727 55 49 77
402.9130 344.8163 0.0209 -0.716 -0.182 0.674 66 60 87
403.4680 342.2809 -0.3205 0.097 -0.795 0.599 71 61 85
405.3465 342.4006 -0.4848 0.015 -0.778 0.628 70 58 80
380.9500 310.2947 -1.8323 -0.033 -0.330 0.943 75 65 90
401.4647 305.3297 -4.3409 -0.709 -0.315 0.631 65 56 83
382.8664 273.6689 -6.1868 -0.299 -0.299 0.906 73 64 91
426.1044 301.4941 -7.1115 -0.954 -0.226 0.198 62 53 80
379.7774 265.5700 -6.8170 -0.748 -0.663 -0.021 56 47 74
339.9695 222.8904 -7.9096 -0.464 -0.248 0.850 91 83 103
369.9116 234.9027 -9.3768 -0.668 -0.704 -0.243 81 74 90
371.1884 232.6854 -9.7503 -0.727 -0.686 -0.026 93 82 96
325.4267 190.9109 -10.1759 0.508 -0.844 0.175 69 58 74
367.7780 191.7593 -14.0903 -0.981 -0.186 -0.056 93 88 108
359.9244 183.3730 -14.3020 -0.690 -0.572 -0.443 113 104 125
-12.1395 213.6503 23.9637 0.175 -0.976 -0.131 106 97 126
2.0550 636.1353 69.9341 -0.433 -0.894 -0.117 80 71 100
6.8185 603.6506 65.8379 -0.470 -0.854 -0.223 91 86 118
7.7165 597.3409 65.0448 -0.369 -0.893 -0.257 98 93 125
17.1195 628.6549 67.6512 -0.430 -0.883 0.186 101 94 129
18.1744 627.4573 67.4158 -0.428 -0.884 0.189 98 88 126
20.4961 630.3883 67.5215 -0.432 -0.893 0.127 147 138 165
21.4871 627.5975 67.1138 -0.544 -0.815 0.200 153 146 165
22.4436 624.1891 66.6402 -0.524 -0.828 0.200 171 164 177
23.7035 627.5888 66.9003 -0.512 -0.834 0.206 91 85 96
24.8484 628.2820 66.8681 -0.511 -0.836 0.201 57 51 63
35.1086 457.5325 46.7547 -0.528 -0.839 -0.134 22 21 35
35.9227 457.0416 46.6216 -0.528 -0.839 -0.134 37 36 50
247.9319 466.3303 27.3282 -0.276 -0.943 -0.187 37 30 46
340.6935 408.9314 12.0009 -0.452 -0.526 0.720 94 90 91
342.5714 407.3426 11.6428 -0.613 -0.533 0.584 53 47 49
340.9025 403.4262 11.3641 -0.680 -0.539 0.497 46 40 42
347.2649 405.2875 10.9624 -0.505 -0.804 -0.313 70 62 84
339.8372 394.6538 10.4835 -0.724 -0.584 -0.367 85 75 106
336.7482 389.1907 10.1677 -0.757 -0.552 -0.351 93 83 117
369.4604 348.1103 2.4279 -0.283 -0.667 0.689 74 66 81
385.1181 351.9803 1.3598 -0.851 -0.475 -0.224 72 67 89
385.7210 350.9789 1.1897 -0.851 -0.475 -0.224 108 103 125
385.4257 349.1518 1.0134 -0.996 -0.058 0.070 121 116 138
380.3074 338.3736 0.2968 -0.996 -0.034 0.087 65 60 83
379.3395 333.0450 -0.2074 -0.012 -0.700 0.714 77 71 99
354.6552 294.8869 -2.1148 -0.281 -0.775 0.566 81 69 91
385.0817 316.5838 -2.6023 -0.377 -0.840 -0.391 77 65 89
387.8500 314.7462 -3.0737 -0.434 -0.470 0.768 92 83 110
362.8446 283.8723 -4.1342 0.312 -0.560 0.768 54 45 72
374.4310 289.3496 -4.6319 0.182 -0.580 0.794 99 91 117
385.7272 294.4218 -5.1470 0.303 -0.608 0.734 97 89 112
397.9582 302.6691 -5.3962 -0.731 -0.332 0.596 81 73 97
392.6023 293.3472 -5.9268 -0.457 -0.273 0.847 59 51 74
367.6100 267.1263 -6.4674 0.505 -0.818 0.276 70 65 88
374.2964 270.9398 -6.6814 0.479 -0.830 0.286 68 63 86
409.5934 289.5717 -7.9794 -0.934 -0.349 0.075 85 79 105
409.9522 288.5795 -8.1250 -0.934 -0.349 0.075 63 57 83
394.2579 272.4715 -8.4244 -0.745 -0.667 0.004 82 77 100
402.0641 259.4021 -10.6372 0.495 -0.774 0.395 66 59 75
377.0530 236.5197 -10.8020 -0.567 -0.034 0.823 90 79 91
361.1983 220.3931 -11.0880 0.448 -0.757 0.475 95 83 95
309.3164 154.2758 -13.5192 -0.649 -0.702 -0.293 90 81 100
291.0743 133.9047 -14.0518 0.159 -0.347 0.924 94 87 103
-12.2369 213.4014 23.5237 0.160 -0.972 -0.171 107 98 127
-11.8815 213.4413 23.4936 0.156 -0.973 -0.173 103 94 123
-11.5424 214.1423 23.5378 0.142 -0.979 -0.144 100 91 120
4.9551 633.4191 68.1085 0.078 -0.852 -0.518 74 69 101
17.8746 627.4340 66.1947 -0.248 -0.799 0.549 93 82 125
20.1444 629.1172 66.1597 -0.480 -0.854 0.202 151 143 170
21.1400 626.4563 65.7700 -0.559 -0.799 0.222 157 151 166
23.2944 625.1750 65.4197 -0.536 -0.817 0.212 87 83 86
24.4938 627.1180 65.5171 -0.492 -0.841 0.225 56 51 54
36.1889 462.5496 46.2583 -0.355 -0.872 -0.337 34 33 48
341.2576 421.6898 12.1320 -0.888 -0.348 0.302 114 101 97
338.6485 408.5879 10.9426 -0.516 -0.512 0.686 71 63 78
339.4066 407.5764 10.7576 -0.516 -0.512 0.686 56 48 64
340.3688 402.9886 10.1589 -0.680 -0.539 0.497 62 51 67
347.4114 405.6597 9.7691 -0.505 -0.804 -0.313 73 64 92
340.0595 395.1081 9.3211 -0.724 -0.584 -0.367 86 77 110
333.9032 384.2409 8.7222 -0.757 -0.590 -0.283 120 110 144
382.0106 394.2618 5.1538 -0.486 -0.721 -0.494 83 72 89
385.9804 354.4748 0.3868 -0.853 -0.495 -0.163 106 101 122
385.3010 352.2691 0.2098 -0.864 -0.460 -0.205 62 57 79
386.9788 352.2621 0.0461 -0.869 -0.459 -0.185 110 105 127
385.3426 349.1907 -0.1332 -0.996 -0.058 0.070 125 120 142
386.3464 348.5667 -0.2994 -0.996 -0.054 0.067 93 88 110
373.0017 328.9253 -1.1665 -0.708 -0.256 0.658 64 58 85
385.6296 315.7439 -3.8444 -0.397 -0.832 -0.387 66 54 78
392.7989 320.3373 -4.0348 -0.498 -0.320 0.806 58 48 73
375.6763 296.8239 -4.9614 -0.465 -0.502 0.730 60 52 75
375.7214 291.7137 -5.5285 -0.698 -0.266 0.665 89 79 103
371.5466 285.8824 -5.7652 0.173 -0.658 0.733 80 71 94
392.4924 293.3283 -6.9794 -0.733 -0.266 0.626 108 103 125
388.5306 289.0322 -7.0678 -0.341 -0.908 -0.244 101 96 118
406.7732 287.5805 -8.9993 -0.938 -0.302 0.168 89 83 109
386.4991 267.0058 -9.2961 -0.784 -0.620 0.038 83 78 101
345.6440 222.8865 -10.1871 -0.660 -0.477 0.580 64 57 75
380.7216 241.0174 -11.5970 -0.589 -0.036 0.807 62 55 70
376.7652 236.3636 -11.7253 -0.570 -0.038 0.821 83 73 84
368.5649 230.0395 -11.6254 -0.906 -0.288 0.310 110 98 108
340.2408 206.2513 -11.4944 -0.419 -0.853 -0.312 104 92 104
382.5251 197.1789 -16.5999 -0.363 -0.888 -0.281 89 81 102
325.8819 164.4749 -14.7005 -0.731 -0.653 -0.198 98 89 108
337.7625 167.7637 -15.4921 -0.757 -0.611 -0.229 73 64 83
-12.6885 213.1207 23.1158 0.134 -0.975 -0.175 110 101 132
-12.3431 213.4553 23.1181 0.160 -0.972 -0.171 107 98 127
5.7507 634.2429 66.8751 0.078 -0.852 -0.518 79 74 106
19.8396 628.9954 64.9220 -0.480 -0.854 0.202 153 144 172
20.8358 626.3265 64.5352 -0.559 -0.799 0.222 168 161 179
24.2585 628.4857 64.4324 -0.504 -0.842 0.191 50 45 49
36.3353 466.7540 45.7430 -0.426 -0.842 -0.332 41 42 59
36.9556 463.8976 45.3729 -0.200 -0.946 -0.256 17 16 34
241.6499 465.7731 25.4505 0.073 -0.854 0.515 44 36 51
243.3205 466.3257 25.3460 0.031 -0.860 0.510 44 36 51
315.7447 429.8482 14.2779 -0.175 -0.578 0.797 72 63 66
337.7007 399.9915 8.8882 -0.745 -0.515 0.425 87 79 98
347.6492 409.9821 8.9912 -0.749 -0.513 -0.419 88 79 97
370.0999 394.3623 5.0936 -0.215 -0.931 0.296 102 90 114
382.7077 391.5778 3.5527 -0.033 -0.397 0.917 77 66 83
375.6339 375.6205 2.5213 -0.060 -0.367 0.928 87 76 96
385.4416 352.5188 -0.9429 -0.864 -0.460 -0.205 52 46 68
392.4871 352.7587 -1.6097 -0.997 -0.043 0.072 68 60 83
387.3722 335.9683 -2.9238 -0.134 -0.785 0.605 64 56 80
402.5096 344.7722 -3.4594 -0.699 -0.568 -0.434 79 71 95
378.8629 300.7922 -5.8938 -0.183 -0.482 0.857 60 50 75
376.8915 297.8830 -6.0148 -0.441 -0.512 0.737 60 50 75
347.1981 272.6515 -5.8258 0.225 -0.596 0.771 59 49 73
374.9536 291.1741 -6.5503 -0.698 -0.266 0.665 98 89 110
391.7761 292.8447 -8.0234 -0.733 -0.266 0.626 103 98 121
388.3811 287.7263 -8.2435 -0.342 -0.905 -0.254 87 82 105
381.5890 276.4792 -8.7929 -0.175 -0.949 0.262 41 36 59
386.4433 267.0143 -10.2944 -0.784 -0.620 0.038 59 51 75
373.9525 255.8984 -10.2692 -0.778 -0.352 -0.520 58 50 74
385.0425 243.8766 -12.6605 -0.585 -0.039 0.810 62 56 71
379.4340 239.1645 -12.6190 -0.589 -0.036 0.807 63 55 69
369.9558 225.9867 -13.1132 -0.526 -0.763 -0.377 101 89 99
339.4244 179.4873 -15.1433 0.385 -0.709 0.591 83 76 94
366.7601 193.7769 -16.2846 0.385 -0.697 0.604 84 77 95
17.2661 627.1530 63.7270 -0.254 -0.766 0.591 104 93 133
19.5214 628.5374 63.6497 -0.469 -0.867 0.171 141 132 163
20.5330 626.2305 63.3038 -0.274 -0.957 -0.096 179 172 191
34.3786 466.9360 44.9920 -0.183 -0.932 -0.314 93 94 112
35.2399 466.8006 44.8919 -0.183 -0.932 -0.314 110 111 129
37.0524 457.8256 43.7574 -0.286 -0.853 -0.437 29 28 46
258.9355 488.3523 24.9196 -0.499 -0.858 0.124 57 48 65
260.4957 488.5321 24.7834 -0.489 -0.866 0.101 57 48 65
315.4459 423.3887 12.3894 -0.323 -0.291 0.901 69 58 62
350.5037 437.8719 10.4399 -0.730 -0.520 0.442 54 53 54
323.0055 397.4048 8.8748 -0.768 -0.349 0.536 41 39 43
340.0698 403.0344 7.7749 -0.613 -0.605 0.507 109 102 113
334.6753 387.3278 6.6421 -0.647 -0.761 -0.040 113 107 116
370.9579 395.4599 3.8955 -0.116 -0.972 0.203 102 90 114
385.3627 407.2863 3.7191 0.147 -0.848 0.509 68 55 81
384.1563 393.2412 2.3461 -0.052 -0.394 0.917 72 59 77
386.3218 353.4577 -2.0986 -0.862 -0.463 -0.205 57 48 68
389.4262 350.0710 -2.7676 -0.995 -0.054 0.085 74 62 84
380.0639 334.0082 -3.5434 0.385 -0.580 0.718 59 51 72
402.1439 344.5555 -4.6196 -0.707 -0.566 -0.424 77 69 89
398.0700 339.4976 -4.7519 -0.860 -0.507 0.053 73 60 84
369.8350 294.8204 -6.6912 -0.207 -0.521 0.828 59 49 74
390.2280 290.4553 -9.1848 -0.347 -0.903 -0.254 70 65 88
387.3993 287.0429 -9.2661 -0.350 -0.903 -0.251 59 54 77
377.1452 275.6201 -9.4598 0.301 -0.953 0.023 84 79 102
396.4705 276.5838 -11.2807 -0.740 -0.673 -0.017 147 141 167
389.9955 269.5883 -11.3800 -0.896 -0.444 -0.005 66 58 82
348.8097 229.0339 -11.5921 -0.731 -0.604 -0.316 62 55 73
364.1046 214.6677 -14.6415 0.503 -0.852 -0.142 85 74 91
489.8853 286.6845 -19.5041 -0.398 -0.749 -0.529 106 97 114
370.9330 188.4257 -18.1108 -0.562 -0.803 -0.196 97 88 107
16.9349 626.2512 62.4163 -0.254 -0.766 0.591 104 94 135
19.1512 626.7328 62.2433 -0.274 -0.957 -0.096 122 112 144
20.2422 626.4341 62.1023 -0.274 -0.957 -0.096 181 173 194
34.9447 465.9753 43.8706 -0.422 -0.696 0.581 104 105 125
35.8590 466.4507 43.8281 -0.411 -0.710 0.572 56 57 77
293.5829 431.1505 14.1818 -0.106 -0.014 0.994 64 59 61
382.0351 420.9661 4.2086 -0.866 -0.295 -0.404 113 109 133
382.5805 419.6315 4.0143 -0.866 -0.295 -0.404 108 104 128
399.3774 375.6606 -2.2679 -0.257 -0.765 0.590 84 71 88
391.3906 359.9002 -3.1086 -0.840 -0.538 0.070 67 54 74
390.3933 357.3715 -3.2722 -0.834 -0.552 0.012 65 52 70
391.5133 352.0974 -3.9355 -0.992 -0.033 0.121 70 56 75
381.8141 338.6718 -4.3600 -0.995 -0.017 0.100 85 73 91
376.2737 330.7150 -4.6326 0.426 -0.577 0.697 89 80 98
384.0172 336.1659 -4.8436 0.419 -0.580 0.698 93 84 101
390.1397 310.1166 -8.1796 -0.883 -0.371 0.287 61 51 76
348.5063 271.4489 -8.0224 -0.578 -0.630 -0.519 73 64 85
395.1779 296.8744 -10.0695 -0.205 -0.925 -0.319 105 97 120
396.8951 295.6096 -10.3745 -0.206 -0.921 -0.331 83 78 101
392.7047 271.5637 -12.4626 -0.912 -0.122 -0.393 80 72 96
389.7385 248.0920 -14.6141 -0.941 0.095 0.326 62 55 71
383.9057 242.1419 -14.6477 -0.957 0.079 0.278 77 66 82
383.7819 241.0095 -14.7534 -0.957 0.079 0.278 87 76 90
374.6725 228.0276 -15.1910 -0.291 -0.948 -0.131 104 92 106
385.1498 231.5830 -15.8753 0.484 -0.863 0.142 70 61 77
5.9752 636.7311 63.3584 0.048 -0.924 -0.379 53 48 80
16.6209 625.8247 61.1555 -0.514 -0.850 0.119 105 97 137
17.6931 625.1519 60.9772 -0.514 -0.850 0.119 91 83 121
18.8208 625.9241 60.9414 -0.239 -0.969 -0.064 100 91 123
34.6635 465.3083 42.8669 -0.422 -0.696 0.581 97 100 119
36.3672 464.8344 42.6447 -0.401 -0.715 0.573 32 33 53
235.0402 408.3421 16.6025 -0.079 -0.123 0.989 58 44 63
260.3791 447.6560 18.0482 -0.107 -0.070 0.992 59 42 62
255.3064 415.9189 15.3130 -0.021 -0.181 0.983 69 55 73
250.8375 406.4300 14.7961 0.073 -0.478 0.876 76 58 76
285.4120 434.6616 14.1646 -0.989 -0.130 0.071 82 72 79
280.1649 420.0742 13.2047 -0.090 -0.027 0.996 85 75 81
270.4591 401.2732 12.2674 -0.095 -0.029 0.995 76 72 69
320.1294 394.2421 6.4834 -0.828 -0.332 0.451 87 93 99
369.3108 327.4698 -5.3728 -0.913 -0.372 0.170 116 104 120
376.0607 329.1655 -5.8872 0.419 -0.580 0.698 108 99 116
373.6721 304.7291 -8.1478 -0.843 -0.301 0.447 76 63 89
348.0840 269.9899 -9.0993 -0.570 -0.634 -0.523 79 70 91
363.4420 280.9861 -9.5381 -0.904 -0.401 0.148 83 74 95
399.0511 299.9240 -11.2274 -0.201 -0.959 -0.199 94 86 109
400.6990 298.5797 -11.5332 -0.204 -0.962 -0.180 65 60 83
394.2669 292.3909 -11.5117 -0.210 -0.971 -0.111 56 51 74
380.7824 278.4683 -11.5638 0.478 -0.777 0.409 52 47 70
373.1550 266.8548 -11.9764 -0.694 -0.128 0.709 81 75 101
395.0436 273.2764 -13.5497 -0.910 -0.125 -0.396 73 65 89
386.5914 264.9490 -13.5414 -0.905 -0.410 -0.114 69 61 85
366.4379 245.3251 -13.4979 -0.656 -0.371 0.657 71 63 87
368.9702 244.9295 -13.7966 -0.456 -0.401 0.794 51 43 66
345.0949 224.6076 -13.4452 -0.745 -0.592 -0.307 48 41 57
368.4173 223.1324 -15.9739 -0.263 -0.936 -0.235 103 90 107
369.8439 223.0508 -16.1277 0.488 -0.869 0.084 102 90 107
389.5277 234.3337 -16.9781 0.489 -0.867 0.099 91 83 101
476.6423 278.7585 -21.3062 0.277 -0.480 0.832 70 64 84
349.2631 189.1054 -17.5083 0.453 -0.834 0.314 41 34 52
385.3125 206.7556 -19.3745 0.126 -0.247 0.961 52 45 63
7.8462 636.1444 61.8491 0.164 -0.957 -0.239 108 103 135
18.5275 626.0757 59.7348 -0.239 -0.969 -0.064 93 84 117
34.3416 464.1507 41.8203 -0.970 -0.186 0.155 88 91 110
252.4315 431.9228 16.0832 -0.107 -0.070 0.992 48 38 52
263.7790 421.1086 13.8252 0.028 -0.175 0.984 79 67 77
262.8079 388.0976 10.6058 -0.097 -0.027 0.995 85 82 78
304.4445 436.6154 11.1898 -0.230 -0.250 0.940 85 84 78
319.6520 393.8561 5.3213 -0.828 -0.332 0.451 66 74 77
309.5512 374.0335 4.3698 -0.836 -0.067 0.545 83 85 80
328.0777 361.0755 1.1557 -0.639 -0.403 -0.655 99 100 105
368.5738 326.9080 -6.4574 -0.895 -0.429 0.120 74 62 79
369.9382 292.5540 -10.0528 -0.978 -0.163 0.130 77 67 92
351.9212 274.3158 -10.0283 -0.756 -0.653 -0.053 87 78 99
349.6716 271.3211 -10.0974 -0.606 -0.716 -0.346 85 76 97
366.5967 283.5570 -10.6128 -0.958 -0.268 0.102 82 73 94
384.4312 292.5408 -11.5491 0.413 -0.909 0.045 71 62 83
402.2476 303.7756 -12.2571 0.349 -0.936 -0.043 82 74 97
405.7283 305.1348 -12.4795 0.327 -0.945 -0.023 82 74 97
397.8633 295.1903 -12.6682 -0.650 -0.228 0.725 70 65 88
391.7175 289.2517 -12.6314 -0.635 -0.227 0.738 62 57 80
375.5449 258.3263 -14.0730 -0.560 -0.783 -0.270 71 63 87
383.7859 263.0166 -14.4515 -0.539 -0.758 -0.367 79 71 95
373.2720 245.7640 -15.1019 -0.815 -0.400 -0.420 61 54 72
370.8875 243.0812 -15.1257 -0.832 -0.393 -0.392 47 40 56
342.3794 220.8686 -14.4187 -0.737 -0.618 -0.273 64 55 74
347.7527 221.5312 -14.9063 -0.618 -0.758 -0.208 65 56 73
375.7054 230.7379 -16.8639 -0.256 -0.460 0.851 99 88 102
380.4499 232.7363 -17.1523 -0.266 -0.461 0.847 99 88 104
380.5204 231.7669 -17.2571 -0.447 -0.894 -0.026 100 89 105
366.8157 222.1517 -16.8103 -0.270 -0.934 -0.233 102 91 107
368.5372 222.2582 -16.9772 0.477 -0.868 0.135 102 92 109
387.4148 233.0431 -17.8399 0.489 -0.867 0.099 104 99 116
484.5178 283.5267 -22.7796 0.208 -0.769 0.604 61 58 77
311.7359 169.3826 -16.4352 0.465 -0.880 0.096 62 58 75
358.9540 195.4614 -18.6834 0.476 -0.866 0.152 68 64 81
361.0777 193.2215 -19.1277 -0.907 -0.414 0.078 101 94 112
328.9215 173.6969 -17.7741 0.399 -0.755 0.520 121 114 132
275.0795 133.1720 -16.2954 -0.629 -0.618 0.472 65 56 75
18.3080 628.2046 58.7142 -0.230 -0.971 -0.064 84 77 111
19.3277 626.0167 58.3920 -0.245 -0.968 -0.052 132 123 150
21.4796 624.6408 58.0317 -0.387 -0.908 -0.159 65 59 68
22.6380 625.8101 58.0261 -0.528 -0.824 0.205 40 35 40
34.1411 464.4330 40.9073 -0.970 -0.186 0.155 88 89 109
35.6808 462.1135 40.5178 -0.421 -0.707 0.567 29 30 50
37.0760 458.3099 39.9970 -0.514 -0.807 0.290 27 28 48
245.3800 420.1346 14.4921 -0.107 -0.070 0.992 71 73 73
244.9851 417.1817 14.2421 -0.107 -0.070 0.992 82 83 83
260.1931 354.6023 6.4820 -0.835 0.002 0.550 85 88 83
260.9180 353.8348 6.3307 -0.835 0.006 0.551 77 80 77
260.5504 349.8377 5.9748 -0.710 -0.452 -0.539 92 95 92
258.1780 341.5068 5.4006 -0.711 -0.418 -0.565 79 80 75
274.1173 343.8532 3.9686 -0.695 -0.536 -0.479 77 80 84
296.7798 335.5640 0.7858 -0.740 -0.268 -0.617 113 120 88
380.3384 406.3031 -0.9569 0.033 -0.480 0.877 101 90 108
375.5990 333.3718 -7.6563 -0.946 -0.325 0.007 69 58 75
368.2446 303.0245 -9.8822 0.509 -0.651 0.563 92 79 105
388.3284 315.7378 -10.7242 -0.093 -0.728 0.679 80 70 95
391.2441 316.7667 -10.9270 -0.518 -0.602 0.607 80 70 95
388.9131 312.0848 -11.1455 -0.347 -0.762 0.548 104 94 119
381.7893 304.8967 -11.1111 -0.788 -0.086 0.609 89 79 104
381.8698 303.6268 -11.2448 -0.856 -0.258 0.448 82 72 97
373.4635 295.4856 -11.1705 -0.842 -0.153 0.518 89 79 104
379.7782 290.2466 -12.3463 0.377 -0.926 0.037 64 54 78
394.6213 299.2491 -13.0074 0.377 -0.926 0.007 73 63 87
403.7768 299.7537 -13.9131 -0.656 -0.221 0.722 111 106 129
397.5159 291.1575 -14.1076 -0.749 -0.180 0.638 112 107 130
378.8770 272.3574 -14.0169 -0.728 -0.144 0.670 109 101 125
417.8456 297.2455 -15.6288 -0.672 -0.607 -0.424 96 90 113
415.2349 294.0602 -15.6705 -0.693 -0.593 -0.410 114 108 131
404.2814 281.1682 -15.7991 -0.910 -0.335 -0.246 79 72 96
376.6530 253.5686 -15.6381 -0.880 -0.387 -0.276 83 75 99
368.4069 242.4960 -15.8697 -0.811 -0.455 -0.367 52 45 62
352.5556 225.7186 -15.8704 -0.502 -0.858 -0.113 72 63 80
392.8458 242.7202 -18.3981 -0.212 -0.940 -0.266 111 100 116
375.7813 229.8072 -17.8910 -0.457 -0.884 0.101 119 108 124
398.5485 243.1618 -18.9497 -0.225 -0.912 -0.342 122 111 127
375.4582 227.6039 -18.0746 -0.389 -0.920 -0.038 123 112 129
385.3220 231.7647 -18.6936 0.489 -0.867 0.099 106 101 118
353.0049 192.0917 -19.2343 0.476 -0.866 0.152 101 97 114
356.9005 192.5940 -19.5913 -0.796 -0.550 -0.254 113 106 124
355.5092 190.1184 -19.6903 -0.917 -0.397 -0.045 120 113 131
225.6219 103.6925 -14.6599 0.192 -0.328 0.925 92 85 101
5.0297 634.6562 59.4815 -0.880 -0.365 0.304 56 52 78
15.9436 632.3745 58.1086 -0.561 -0.811 0.166 111 105 139
18.0131 628.3540 57.5012 -0.230 -0.971 -0.064 85 78 111
19.1091 628.1032 57.3613 -0.230 -0.971 -0.064 116 107 136
21.2457 626.1818 56.9499 -0.478 -0.859 0.185 78 72 82
22.3621 626.3484 56.8481 -0.532 -0.817 0.224 44 39 44
36.2185 460.8886 39.3820 -0.894 -0.447 -0.009 19 20 38
233.6359 445.0199 17.0047 0.321 -0.904 0.281 50 47 56
253.5049 448.9766 15.2897 -0.698 -0.153 0.700 84 94 87
241.2880 422.5755 14.0260 -0.079 -0.216 0.973 83 93 87
237.1033 410.6828 13.3176 0.025 -0.184 0.983 133 142 136
238.6805 411.1719 13.1984 0.020 -0.183 0.983 170 179 173
239.5178 410.3759 13.0330 0.020 -0.183 0.983 158 166 160
240.3543 409.5806 12.8678 0.020 -0.183 0.983 117 123 118
240.2758 402.8446 12.2245 0.051 -0.962 -0.268 80 83 77
242.4887 404.3881 12.1402 -0.297 -0.247 0.922 105 108 102
241.0283 393.4076 11.2323 -0.028 -0.165 0.986 100 102 96
247.9798 398.4147 10.9827 0.014 -0.150 0.989 93 98 89
257.6476 403.2814 10.4327 -0.406 -0.606 -0.685 80 83 76
255.6447 391.8537 9.5389 -0.237 -0.971 -0.038 93 96 89
256.5655 391.2377 9.3821 -0.242 -0.970 -0.028 82 85 78
248.7058 371.3918 8.2924 -0.009 -0.132 0.991 80 80 78
257.6275 349.5341 5.2365 -0.838 0.009 0.546 82 89 82
254.0666 336.2000 4.3227 -0.906 -0.407 0.117 77 82 76
253.5970 332.2739 3.9926 -0.883 -0.420 0.211 79 81 76
253.8189 330.9343 3.8396 -0.878 -0.433 0.202 77 79 74
257.4475 327.5989 3.1339 -0.846 -0.499 0.190 73 74 71
277.6589 340.2240 2.2212 -0.453 -0.638 -0.623 77 81 82
274.7705 333.4123 1.8673 -0.525 -0.599 -0.604 55 60 56
306.2543 366.8628 1.7787 0.340 -0.704 0.624 59 64 60
309.2264 368.7094 1.6435 0.334 -0.705 0.625 73 78 74
379.6872 405.7736 -2.2106 0.050 -0.477 0.877 100 88 109
395.9968 367.9814 -7.5878 -0.351 -0.785 -0.511 77 60 79
395.2008 338.9972 -10.3071 -0.005 -0.647 0.762 119 110 129
339.3287 281.2409 -9.9945 -0.517 -0.693 0.501 111 97 123
383.3866 311.7148 -11.6985 -0.085 -0.771 0.631 80 70 95
393.5014 317.3234 -12.2239 -0.423 -0.679 0.600 76 66 91
387.0296 310.6207 -12.1889 -0.316 -0.765 0.561 96 86 111
364.3912 289.4784 -11.8438 0.534 -0.734 0.419 81 71 96
384.5772 296.6623 -13.2801 -0.825 -0.494 0.274 61 52 73
402.5096 302.7926 -14.5804 0.334 -0.943 -0.003 96 88 112
396.9180 297.1835 -14.5326 -0.412 -0.230 0.882 103 98 121
388.1868 278.0763 -15.4588 -0.742 -0.224 0.631 117 108 130
418.2383 297.5901 -16.7441 -0.672 -0.607 -0.424 117 108 129
417.4984 295.7617 -16.8429 -0.658 -0.606 -0.447 162 153 175
416.8804 294.0318 -16.9449 -0.616 -0.590 -0.522 128 119 140
421.5962 294.8712 -17.3616 -0.930 -0.366 0.030 81 72 94
377.2280 247.4479 -17.2642 -0.719 -0.461 -0.521 97 88 105
349.1217 223.4743 -16.6156 -0.638 -0.676 -0.368 95 86 103
441.1510 282.0298 -20.6682 -0.936 -0.293 -0.197 84 73 89
431.4280 274.4438 -20.3754 -0.935 -0.238 -0.264 76 65 81
410.9764 258.7926 -19.7299 -0.919 -0.180 -0.352 55 44 60
323.6549 195.0945 -16.6718 -0.180 -0.905 -0.385 128 117 134
328.7771 194.8448 -17.2367 -0.082 -0.859 -0.505 91 86 106
314.7549 174.9772 -17.6779 -0.226 -0.536 0.814 109 105 122
367.0385 197.4427 -21.0249 -0.277 -0.617 0.737 105 98 116
-47.2439 655.4570 65.7794 0.035 -0.618 0.785 105 101 128
5.7873 633.0865 57.9956 0.108 -0.942 -0.316 45 41 64
6.9649 637.6716 58.3045 0.143 -0.952 -0.270 84 80 105
15.6657 633.1169 56.9436 -0.544 -0.824 0.157 102 97 128
17.8064 630.9274 56.5074 -0.232 -0.971 -0.063 97 90 123
22.0561 626.2075 55.6062 -0.532 -0.817 0.224 45 40 48
33.7390 464.9988 39.0766 -0.970 -0.186 0.155 100 101 121
230.1443 438.7470 15.6139 0.213 -0.920 0.328 48 45 56
212.5798 396.0512 13.4422 -0.776 -0.562 -0.286 70 71 77
213.2966 395.1441 13.2797 -0.776 -0.562 -0.286 62 66 70
249.9594 445.4966 14.1377 -0.683 -0.136 0.718 99 105 105
233.3597 402.2850 11.8141 -0.014 -0.185 0.983 102 108 106
234.8582 402.6743 11.6910 0.020 -0.183 0.983 112 117 115
235.6818 401.8968 11.5293 0.020 -0.183 0.983 113 117 115
236.3711 400.8921 11.3605 -0.004 -0.198 0.980 94 96 92
239.1200 396.9032 10.6888 -0.291 -0.252 0.923 104 106 103
253.4303 392.7827 8.7700 -0.406 -0.842 -0.356 79 82 75
253.4446 390.7591 8.5766 -0.499 -0.744 -0.444 76 79 72
253.9634 389.5295 8.4047 -0.474 -0.765 -0.436 73 76 69
254.7501 386.7059 8.0530 -0.481 -0.810 -0.336 65 68 61
243.1383 365.1358 7.2482 -0.549 -0.299 0.780 77 80 73
243.5749 363.9116 7.0856 -0.549 -0.299 0.780 80 82 79
258.3570 378.3391 6.8747 -0.414 -0.703 -0.578 73 75 72
259.3539 377.8759 6.7243 -0.414 -0.703 -0.578 69 74 70
279.9539 391.9743 5.8609 -0.999 -0.018 0.052 68 73 69
251.9548 322.2682 2.2430 -0.235 -0.840 -0.489 56 61 57
278.3028 337.9369 0.9147 -0.914 -0.261 -0.312 72 74 73
303.7729 365.7809 0.8342 0.240 -0.725 0.646 72 77 71
299.4284 340.5270 -1.0958 -0.699 -0.291 -0.653 73 78 55
301.4486 339.6490 -1.3947 -0.484 -0.478 -0.733 74 79 55
393.1008 371.9782 -8.1176 -0.977 0.085 0.196 92 75 93
390.2801 346.8830 -10.1953 -0.938 -0.343 0.057 89 78 95
377.2282 320.5193 -11.3007 -0.491 -0.640 0.591 120 106 131
365.4522 308.9295 -11.1418 -0.874 -0.133 0.468 120 106 132
337.1870 275.8111 -11.2628 0.317 -0.892 0.321 97 84 110
405.2422 327.0887 -13.6695 -0.297 -0.736 0.608 67 57 82
358.0220 284.3680 -12.6766 0.534 -0.734 0.419 67 57 82
364.8562 284.8756 -13.3583 -0.825 -0.294 0.482 90 81 103
358.0260 278.1819 -13.2635 -0.858 -0.259 0.444 80 70 93
390.7617 289.9797 -15.6409 -0.736 -0.134 0.663 85 77 101
394.3212 280.1927 -16.9488 0.269 -0.889 0.370 77 65 85
389.7523 275.6533 -16.8912 0.025 -0.924 0.382 128 116 136
415.3558 292.9844 -17.9825 -0.667 -0.597 -0.445 114 102 122
364.9538 241.2768 -17.5018 -0.860 -0.431 -0.273 111 104 122
380.5702 249.7487 -18.3663 -0.802 -0.460 -0.381 104 95 112
357.4718 233.0887 -17.4790 -0.801 -0.474 -0.365 88 79 96
354.2520 229.9090 -17.4366 -0.804 -0.473 -0.361 71 62 79
348.4754 225.0421 -17.2810 -0.703 -0.636 -0.318 88 79 98
443.9929 282.7084 -22.0148 -0.921 -0.264 -0.286 84 73 89
414.6199 258.9293 -21.1322 -0.932 -0.214 -0.294 86 75 91
407.1574 253.0191 -20.8956 -0.431 -0.870 0.240 94 83 99
346.5056 211.3187 -18.3716 -0.392 -0.912 0.125 108 97 113
322.9464 192.9603 -17.5960 -0.241 -0.877 -0.415 96 91 108
424.9272 250.9594 -22.9884 -0.188 -0.664 0.723 109 104 124
313.1783 174.0710 -18.3435 -0.212 -0.546 0.810 96 92 109
328.4993 159.3009 -21.3798 0.403 -0.759 0.512 96 87 102
317.0483 148.6373 -21.1678 -0.401 -0.667 0.628 122 108 125
4.4036 633.3848 56.9173 -0.173 -0.853 -0.493 70 66 91
5.4875 633.2406 56.7868 -0.173 -0.853 -0.493 43 39 62
6.6489 637.0802 57.0180 0.142 -0.953 -0.267 77 73 98
17.5098 631.0779 55.2875 -0.232 -0.971 -0.063 108 103 132
18.5155 628.3079 54.9216 -0.427 -0.812 -0.398 101 97 124
33.5375 465.2825 38.1589 -0.970 -0.186 0.155 93 94 114
37.1654 457.0845 37.0057 -0.394 -0.849 0.352 23 24 45
186.3457 431.1182 18.4820 -0.413 0.045 0.910 47 40 48
105.6796 238.8660 9.3397 -0.890 -0.451 0.063 53 47 50
218.5852 426.7724 14.5963 0.111 -0.930 0.349 41 37 48
225.0623 429.4228 14.1429 0.322 -0.910 0.261 51 48 57
229.4680 395.8616 10.5502 -0.014 -0.185 0.983 68 74 70
230.3627 395.2439 10.3962 0.020 -0.183 0.983 94 100 96
231.1738 394.4833 10.2380 0.020 -0.183 0.983 107 112 108
