ply
format ascii 1.0
element vertex 870
property float x
property float y
property float z
property float nx
property float ny
property float nz
property uchar diffuse_red
property uchar diffuse_green
property uchar diffuse_blue
end_header
112.8554 82.8716 -45.3784 -0.972 -0.170 0.160 89 110 102
105.2993 78.2671 -43.2273 -0.716 -0.555 0.425 89 102 86
108.5277 79.2598 -44.0430 -0.706 -0.233 0.668 84 93 75
108.6367 78.9538 -44.0345 -0.706 -0.233 0.668 76 85 66
108.6651 78.6155 -44.0049 -0.707 -0.231 0.668 78 87 68
108.6667 77.9200 -43.9315 -0.708 -0.254 0.659 93 102 83
-11.8478 310.0677 -42.7597 -0.161 -0.544 0.824 54 49 55
-14.4670 275.1085 -38.3981 -0.664 0.159 0.731 56 51 58
-3.5704 280.0500 -41.3457 -0.763 -0.166 -0.624 124 107 125
10.7349 282.4721 -44.7756 -0.588 0.134 0.798 78 63 82
20.8501 252.9972 -43.8272 -0.408 0.127 0.904 79 96 60
65.4287 151.6820 -42.7396 0.320 -0.409 0.855 80 95 72
83.9679 98.7669 -41.1211 -0.882 -0.374 -0.288 88 93 70
41.2134 70.1341 -28.5558 0.220 -0.331 0.917 95 100 81
83.9360 93.4156 -40.5352 0.104 -0.534 0.839 97 99 86
81.4529 90.4375 -39.6632 0.283 -0.760 0.585 94 95 90
74.0202 82.6631 -37.1762 -0.852 -0.523 0.040 80 80 70
74.1192 82.3643 -37.1658 -0.838 -0.530 0.129 97 97 87
74.2329 82.0743 -37.1596 -0.826 -0.546 0.139 107 107 97
93.3312 90.6669 -42.3185 -0.955 -0.162 0.248 84 85 79
95.9877 88.9357 -42.7194 -0.668 -0.330 -0.667 76 79 71
95.5799 86.4601 -42.3613 -0.313 -0.471 -0.825 64 72 54
88.5039 81.9231 -40.3036 -0.807 -0.136 0.574 75 90 69
98.8216 82.8546 -42.6892 0.445 -0.807 0.387 77 90 70
115.6180 89.7835 -47.1583 0.432 -0.816 0.384 80 93 73
107.7649 82.5040 -44.6318 -0.522 -0.349 0.778 101 121 110
107.0297 81.8232 -44.3953 -0.518 -0.287 0.806 110 127 119
107.1866 81.5308 -44.3985 -0.518 -0.287 0.806 102 119 111
107.9269 81.4891 -44.5579 -0.514 -0.289 0.808 98 115 105
107.4101 79.1390 -44.1892 -0.670 -0.728 0.143 92 104 89
109.8769 79.8114 -44.8082 -0.912 -0.314 0.265 90 99 82
109.4467 79.2801 -44.6555 -0.912 -0.315 0.264 86 95 76
109.4369 78.5741 -44.5769 -0.784 -0.261 0.563 85 94 76
109.2495 78.1487 -44.4894 -0.785 -0.295 0.545 89 98 80
109.3667 77.8487 -44.4829 -0.785 -0.295 0.545 93 102 83
-15.0391 272.9445 -38.6813 -0.574 0.157 0.803 58 53 58
-15.2568 269.0951 -38.2082 -0.660 0.147 0.737 52 46 60
-1.0168 285.7624 -43.2197 -0.980 0.131 0.151 128 111 129
9.8121 273.0771 -44.2339 -0.695 0.029 0.718 64 49 67
29.1124 204.2598 -40.9453 0.528 -0.846 0.070 73 94 53
33.5732 207.0533 -42.2475 -0.780 -0.196 0.594 79 100 59
76.1558 157.4173 -46.2627 -0.805 -0.545 0.236 65 80 51
87.7851 167.9493 -50.0158 -0.886 -0.297 0.356 65 80 51
89.5740 101.3067 -43.0647 -0.970 -0.196 -0.146 79 86 68
90.0986 101.1881 -43.1685 -0.967 -0.195 -0.163 73 80 62
82.0599 92.3478 -40.4021 0.256 -0.681 0.686 91 93 80
73.7453 82.8706 -37.5040 -0.832 -0.536 0.139 100 100 90
73.9124 82.6077 -37.5123 -0.838 -0.530 0.129 89 89 79
74.0775 82.3443 -37.5200 -0.838 -0.530 0.129 86 86 76
75.2585 81.9196 -37.7364 -0.134 -0.567 0.812 80 81 73
92.2610 90.1091 -42.4285 -0.907 -0.241 0.345 79 80 74
95.3610 88.2381 -42.9130 -0.669 -0.336 -0.663 76 77 67
95.3920 87.8733 -42.8797 -0.674 -0.335 -0.659 67 70 56
97.4161 86.9816 -43.2324 -0.547 -0.374 -0.749 74 86 66
97.6006 86.6952 -43.2419 -0.540 -0.376 -0.753 76 89 69
96.9231 85.9926 -43.0135 -0.907 -0.305 0.289 76 89 69
108.3940 83.8721 -45.3359 -0.419 -0.797 0.435 84 99 92
107.3130 82.6649 -44.9618 -0.600 -0.103 0.793 91 107 99
106.7738 82.0672 -44.7757 -0.537 -0.243 0.808 104 120 110
109.5695 79.3229 -45.0961 0.262 -0.723 0.639 95 103 88
110.4203 79.3202 -45.2854 0.186 -0.698 0.692 89 97 81
109.2528 78.1417 -44.8952 -0.762 -0.255 0.596 86 94 78
-15.9258 266.4725 -38.3996 -0.546 0.153 0.824 59 53 64
4.7921 274.0701 -43.8995 -0.661 0.093 0.744 113 96 114
8.1676 276.8010 -44.9634 -0.394 0.026 0.919 113 96 114
12.6451 282.9405 -46.6576 -0.703 0.177 0.688 69 55 70
6.3353 194.8085 -35.3364 0.119 -0.786 0.607 86 96 63
6.9262 193.7146 -35.3459 0.050 -0.826 0.561 86 94 69
8.5818 195.1920 -35.8832 0.128 -0.906 0.404 83 90 67
9.1172 195.2133 -36.0057 0.128 -0.906 0.404 82 89 72
26.4526 187.9431 -39.0759 -0.805 0.210 0.555 81 100 54
72.3988 148.7545 -44.9742 -0.328 -0.300 0.896 71 84 56
90.6892 101.5502 -43.7699 -0.989 -0.036 0.146 74 81 63
88.7607 99.9668 -43.1595 -0.969 0.078 0.234 77 83 69
73.7226 80.4212 -37.5903 -0.355 -0.331 0.874 72 73 67
93.3526 89.1322 -42.9714 0.127 -0.545 0.829 77 78 72
92.2420 87.0480 -42.4880 -0.317 -0.659 0.682 77 78 71
92.8075 86.9569 -42.6046 -0.324 -0.649 0.689 73 77 66
93.2681 86.8123 -42.6916 -0.324 -0.655 0.683 58 64 49
95.0053 87.3016 -43.1362 -0.362 -0.837 0.411 51 60 41
88.5780 83.7448 -41.2951 -0.088 -0.571 0.817 49 58 39
89.3567 83.7677 -41.4723 -0.154 -0.577 0.802 55 64 45
89.5609 83.5068 -41.4888 -0.163 -0.579 0.799 67 78 59
97.9605 87.2458 -43.7926 -0.803 -0.483 0.350 78 90 70
106.3052 85.9094 -45.5137 0.377 -0.925 -0.043 91 104 84
108.1951 83.7789 -45.6980 -0.419 -0.797 0.435 86 99 92
109.3142 78.8579 -45.3958 0.186 -0.704 0.685 92 100 87
-4.1503 301.3680 -45.6833 -0.732 -0.037 -0.680 85 79 92
10.9860 275.6078 -46.1487 -0.692 0.170 0.701 96 83 94
10.4853 238.9424 -41.8368 -0.087 0.010 0.996 81 85 76
6.3762 197.7149 -36.1882 -0.019 -0.713 0.701 91 102 70
6.7019 195.9255 -36.0568 0.162 -0.853 0.497 97 103 73
8.9371 194.9880 -36.4538 0.128 -0.906 0.404 81 84 71
31.3451 203.0740 -42.4360 -0.794 -0.353 0.495 74 95 54
30.2089 199.7095 -41.7943 -0.807 -0.035 0.589 73 94 52
26.2136 186.5814 -39.3894 -0.813 0.191 0.551 69 88 42
68.3341 148.7261 -44.5585 -0.035 -0.834 0.551 74 89 60
68.8952 148.6266 -44.6737 -0.035 -0.834 0.551 74 89 60
71.3087 149.0600 -45.2679 -0.392 -0.264 0.881 80 93 65
65.5532 140.0107 -42.9329 -0.282 -0.711 0.644 77 90 62
88.7455 100.8260 -43.6787 -0.398 -0.880 -0.261 87 94 76
70.9196 84.5315 -37.7903 -0.680 -0.270 0.681 58 59 54
70.5893 83.9875 -37.6535 -0.674 -0.273 0.686 67 66 62
70.5281 83.5965 -37.5949 -0.666 -0.269 0.696 79 78 73
92.1537 87.7576 -42.9511 0.118 -0.559 0.821 78 79 73
90.6624 86.6248 -42.4849 0.162 -0.563 0.811 77 76 72
90.3804 86.1099 -42.3623 0.227 -0.541 0.810 71 73 65
91.2376 86.1692 -42.5625 0.227 -0.541 0.810 65 71 59
92.1005 86.2288 -42.7641 0.227 -0.541 0.810 60 71 54
93.2599 86.4334 -43.0491 0.186 -0.488 0.853 61 73 53
88.3709 83.6415 -41.6262 -0.170 -0.577 0.799 64 77 57
88.9588 83.5707 -41.7507 -0.159 -0.578 0.800 69 82 62
89.3203 83.3877 -41.8114 -0.159 -0.578 0.800 74 86 66
89.0751 82.9083 -41.7011 -0.166 -0.566 0.807 76 88 68
105.9060 85.7226 -45.8212 0.318 -0.913 -0.255 86 99 79
107.9965 83.6857 -46.0597 -0.419 -0.797 0.435 96 105 100
105.9766 80.2781 -45.2136 -0.762 -0.094 0.640 108 118 113
107.9952 78.3082 -45.4435 0.159 -0.714 0.682 97 104 95
108.0223 77.6245 -45.3714 0.363 -0.743 0.562 86 93 85
108.2603 77.3752 -45.3965 -0.744 -0.271 0.611 84 91 82
107.0182 75.8491 -44.9415 -0.336 -0.445 0.830 97 104 95
-15.2901 282.3396 -41.6561 -0.505 0.075 0.860 54 49 53
-16.9275 260.1084 -38.6913 -0.151 -0.934 0.323 58 53 60
-4.9352 257.1942 -41.0742 0.016 -0.867 -0.498 121 107 122
10.2864 269.3870 -45.9524 -0.749 0.113 0.653 102 89 97
11.8571 234.6317 -42.2551 -0.244 0.018 0.970 84 102 69
12.4986 229.8573 -41.8439 -0.338 0.124 0.933 81 101 64
5.7124 196.2701 -36.3855 -0.001 -0.998 -0.064 93 102 73
7.9011 196.5081 -36.9102 0.022 -0.790 0.612 65 64 48
24.8340 183.1018 -39.1910 -0.530 -0.840 -0.111 71 90 44
75.1310 153.6949 -47.1807 -0.367 -0.421 0.830 82 95 67
70.8272 148.6255 -45.6123 -0.392 -0.264 0.881 82 95 67
69.5942 145.3791 -44.9536 -0.472 -0.278 0.837 79 92 64
67.8897 140.4623 -43.9931 -0.660 -0.416 0.626 78 94 65
67.7665 138.4601 -43.7316 -0.432 -0.899 0.078 78 94 65
67.5657 137.6469 -43.5912 -0.404 -0.912 0.066 78 94 65
63.5177 131.9765 -42.0107 -0.459 -0.845 0.275 79 96 64
90.1311 101.2332 -44.4673 -0.294 -0.954 -0.058 86 93 75
78.4991 91.1019 -40.6446 -0.969 -0.058 -0.240 88 91 74
76.6073 88.8640 -39.9540 0.198 -0.916 0.349 97 98 90
76.2734 88.2960 -39.8120 0.219 -0.726 0.652 86 87 82
77.0338 87.9727 -39.9469 -0.874 0.110 0.474 78 79 74
75.4373 85.6010 -39.3078 -0.820 -0.343 0.458 81 81 71
88.6200 85.9608 -42.3428 0.070 -0.526 0.847 73 74 68
89.5012 86.0371 -42.5518 0.145 -0.545 0.826 72 71 67
87.4387 83.1795 -41.7502 -0.177 -0.562 0.808 65 81 60
87.7582 82.9785 -41.7993 -0.179 -0.553 0.814 70 85 64
107.1564 77.9558 -45.6177 0.159 -0.714 0.682 95 102 96
106.9778 76.8477 -45.4479 0.153 -0.642 0.751 81 88 81
105.7409 75.3306 -44.9901 -0.381 -0.358 0.853 93 100 94
108.6478 71.8125 -45.2398 -0.594 -0.803 0.052 86 98 86
108.9965 71.6165 -45.2961 -0.586 -0.809 0.050 86 98 88
103.0148 68.4585 -43.5696 -0.865 -0.499 0.045 88 99 93
9.4894 260.9674 -45.4450 -0.601 0.119 0.790 71 59 71
6.9354 248.9316 -43.4321 -0.679 0.178 0.712 49 38 55
9.0278 231.9603 -41.8946 -0.087 0.010 0.996 90 84 85
9.9247 193.9839 -37.5893 0.004 -0.816 0.578 86 99 65
24.2703 182.1966 -39.4667 -0.711 -0.688 -0.142 71 90 44
26.4514 185.2177 -40.3237 -0.688 -0.708 -0.158 75 94 48
69.0087 139.7050 -44.6407 -0.278 -0.961 -0.009 80 96 67
70.6649 140.6691 -45.1335 -0.362 -0.932 0.015 78 94 65
75.3089 142.5457 -46.4173 -0.320 -0.257 0.912 79 96 62
78.1120 90.1110 -40.8304 -0.999 -0.052 0.010 84 86 73
76.7042 88.5455 -40.3229 0.041 -0.958 0.283 98 99 94
76.9481 88.3058 -40.3501 -0.906 0.105 0.411 85 86 81
76.9264 87.9170 -40.2990 -0.906 0.105 0.411 75 76 71
76.4779 87.2912 -40.1222 -0.911 0.102 0.401 71 70 66
75.2854 85.5209 -39.6395 -0.820 -0.343 0.458 74 74 64
87.1689 85.2232 -42.3189 -0.409 -0.416 0.812 65 66 60
89.8015 84.7132 -42.8598 -0.418 -0.447 0.791 62 81 59
86.0684 81.4384 -41.6180 -0.536 -0.441 0.720 81 93 73
105.2922 82.1204 -46.0907 -0.638 -0.737 -0.222 96 98 97
104.9311 81.6015 -45.9466 -0.643 -0.730 -0.231 100 102 99
102.5473 78.1084 -44.9871 -0.806 -0.025 0.591 104 106 103
105.5451 77.6313 -45.6153 0.264 -0.721 0.640 98 104 102
106.4624 77.6630 -45.8286 0.161 -0.716 0.679 92 98 96
106.4465 76.6242 -45.7016 -0.762 -0.207 0.614 78 84 82
102.0210 69.6458 -43.8619 0.301 -0.773 0.558 86 98 84
105.8294 70.4306 -44.8251 0.282 -0.797 0.534 86 98 88
-3.3278 269.0175 -44.1285 0.048 -0.146 0.988 123 109 119
1.1456 262.7387 -44.3977 -0.539 0.028 0.842 119 102 119
8.7674 259.0306 -45.7013 -0.601 0.119 0.790 88 76 87
9.2221 224.6561 -41.6504 -0.337 0.100 0.936 92 107 74
7.8423 214.7778 -40.1390 -0.553 0.110 0.826 89 107 72
6.8520 194.3671 -37.4440 -0.310 -0.948 0.068 30 25 14
7.9295 194.4475 -37.7014 -0.121 -0.983 0.139 45 39 33
24.0145 181.8654 -39.8776 -0.711 -0.695 -0.107 71 90 44
24.6606 181.0131 -39.9230 -0.741 -0.666 -0.089 77 97 51
72.4014 142.3842 -46.2267 -0.445 -0.210 0.871 78 94 65
74.2033 141.5491 -46.5399 -0.356 -0.246 0.901 79 96 62
89.2841 100.7431 -45.0733 -0.325 -0.945 -0.023 84 91 74
86.0316 98.3727 -44.0392 0.155 -0.979 -0.132 83 89 75
83.7246 96.5828 -43.2925 -0.767 -0.385 0.513 80 86 76
84.4588 96.1909 -43.4139 -0.770 -0.362 0.525 77 83 72
70.8296 85.9479 -39.0430 -0.953 -0.267 -0.141 65 67 55
76.4637 87.6616 -40.5451 -0.902 0.108 0.419 70 71 66
75.6646 85.0039 -40.0402 -0.753 -0.469 0.461 60 59 49
86.9966 85.1359 -42.6608 -0.415 -0.420 0.807 59 59 54
105.3831 82.1545 -46.5266 -0.655 -0.723 -0.219 95 97 95
104.6481 79.6916 -46.0599 -0.774 -0.194 0.603 107 109 105
95.7676 68.5171 -42.6678 -0.566 -0.316 0.761 90 103 82
96.3941 68.4476 -42.8034 -0.224 -0.555 0.801 90 102 84
96.8816 68.3243 -42.9006 -0.174 -0.571 0.802 90 102 85
96.4743 67.8636 -42.7513 -0.223 -0.552 0.804 90 102 86
100.7715 67.3095 -43.6720 -0.829 -0.053 0.557 119 128 125
7.8968 471.9098 -72.3389 -0.990 0.127 -0.061 74 63 70
6.0036 455.0160 -69.8229 -0.963 0.083 -0.255 67 55 62
-20.6569 234.2176 -36.4962 0.184 -0.584 0.791 73 72 69
-19.1387 231.8483 -36.5559 -0.070 -0.311 0.948 58 56 58
-18.4853 232.4653 -36.7829 -0.059 -0.312 0.948 60 59 63
0.1836 264.1421 -44.9969 -0.568 0.019 0.823 121 106 114
0.7343 251.0445 -43.5131 -0.330 0.087 0.940 109 93 102
7.6556 257.8461 -45.9504 -0.558 0.024 0.829 104 88 98
5.4843 234.1550 -42.5339 -0.716 0.174 0.676 47 36 46
5.6169 232.8134 -42.3995 -0.642 0.124 0.757 48 37 49
9.0843 192.4092 -38.2311 0.223 -0.673 0.705 88 94 84
10.9600 195.5645 -39.0530 -0.106 -0.522 0.846 90 98 84
26.5082 184.5733 -41.2966 -0.765 -0.321 0.558 62 84 36
66.1776 137.0654 -44.6263 -0.199 -0.656 0.728 91 107 80
69.1466 139.3038 -45.5883 -0.300 -0.532 0.792 89 105 78
67.4812 137.0859 -44.9303 -0.320 -0.436 0.841 90 106 79
82.8080 98.1258 -43.6821 -0.844 -0.490 -0.218 82 91 73
81.6829 95.7880 -43.1343 0.163 -0.974 -0.155 81 87 74
81.6444 95.3558 -43.0723 -0.715 -0.386 0.583 79 87 74
71.0377 86.4404 -39.5227 -0.753 -0.648 -0.116 70 70 63
70.9057 85.9968 -39.4376 -0.954 -0.263 -0.145 65 65 58
70.9904 85.6790 -39.4181 -0.954 -0.263 -0.145 55 54 49
71.0098 85.3252 -39.3790 -0.957 -0.256 -0.133 50 49 45
76.2982 87.5732 -40.8786 -0.902 0.108 0.419 53 52 48
77.4539 86.7256 -41.0416 -0.403 -0.915 0.007 79 75 69
82.1932 88.1998 -42.3189 -0.232 -0.891 0.389 57 52 46
87.8606 86.3173 -43.3979 -0.940 -0.290 0.178 78 74 72
90.9916 84.9350 -43.9520 -0.540 -0.733 0.413 79 91 74
81.0339 78.2996 -40.8329 -0.436 -0.350 0.829 79 87 66
105.7665 82.3169 -47.0467 -0.333 -0.936 0.115 94 99 90
104.2559 79.5177 -46.3530 -0.704 -0.137 0.697 106 109 101
103.5098 78.8497 -46.0983 -0.770 -0.199 0.607 100 105 99
101.6204 77.3594 -45.4781 -0.847 -0.028 0.531 97 101 98
105.8021 77.3760 -46.4472 0.137 -0.883 -0.450 88 91 86
105.8699 76.7160 -46.3816 -0.779 -0.549 -0.302 79 82 77
105.9514 76.4070 -46.3625 -0.574 -0.625 -0.529 76 79 74
94.6664 67.4768 -42.6542 -0.698 -0.205 0.686 91 99 87
-27.8764 231.1661 -34.9930 0.204 -0.781 0.591 69 67 72
-25.6578 229.9796 -35.3607 -0.353 0.004 0.936 60 58 63
-24.0435 235.5321 -36.4312 -0.182 0.005 0.983 57 55 60
-18.6259 239.2196 -38.1531 -0.452 0.105 0.886 61 60 56
-0.4012 262.4325 -45.2983 -0.567 0.015 0.823 130 115 122
3.1041 266.1380 -46.5776 -0.793 0.265 0.548 119 104 111
0.6558 255.3351 -44.6560 -0.783 0.266 0.562 116 101 108
-3.6584 236.2631 -41.2655 -0.808 0.260 0.528 113 98 105
-1.1447 240.9887 -42.4418 -0.333 -0.020 0.943 113 97 107
7.6168 258.0940 -46.6209 -0.560 0.025 0.828 106 90 100
7.2387 216.6692 -41.3489 -0.319 0.115 0.941 96 97 82
5.1842 198.4527 -38.5912 -0.889 0.157 0.430 71 90 60
4.1850 193.2979 -37.7136 -0.723 -0.636 -0.269 68 81 57
14.1485 192.0340 -39.8736 0.386 -0.611 0.691 74 96 57
14.7322 192.1311 -40.0216 0.404 -0.606 0.685 73 95 56
24.4821 179.9533 -40.7661 -0.866 -0.178 0.467 62 85 40
75.2773 87.0039 -40.9523 -0.775 -0.068 0.628 48 44 41
77.3887 86.6935 -41.4047 -0.349 -0.931 -0.106 75 70 64
87.5469 86.1570 -43.7010 -0.985 -0.167 -0.050 67 60 60
89.0522 83.6118 -43.7328 -0.501 -0.699 0.510 85 93 78
110.9452 85.7103 -49.0891 -0.765 -0.510 -0.394 94 104 77
111.6286 85.2576 -49.1915 -0.633 -0.588 -0.503 96 103 83
103.9644 79.3868 -46.6736 -0.704 -0.137 0.697 99 105 95
103.4863 78.8329 -46.4930 -0.753 -0.186 0.631 96 101 94
107.5122 78.0697 -47.3342 0.137 -0.882 -0.450 81 84 75
106.9232 75.4274 -46.8665 -0.650 -0.588 -0.482 86 89 80
105.8457 74.6639 -46.5203 -0.729 -0.646 -0.226 92 95 86
106.4551 74.5686 -46.6501 0.248 -0.559 0.792 93 96 88
98.6776 70.2387 -44.2987 -0.580 -0.254 0.774 92 95 88
94.1181 68.1741 -42.9795 -0.592 -0.298 0.749 88 90 84
-24.0105 233.7298 -36.7665 -0.324 0.080 0.943 52 50 54
-22.1999 240.0767 -37.9981 -0.454 0.143 0.879 48 46 46
-21.2893 218.9755 -35.5256 0.346 -0.621 0.703 46 50 53
-13.7574 242.2663 -40.2529 0.342 -0.522 0.781 71 61 69
-10.3322 254.1733 -42.5701 0.101 -0.008 0.995 80 67 76
-7.8050 255.0782 -43.2768 0.048 0.019 0.999 125 107 121
-1.9310 238.6809 -42.5649 -0.332 -0.023 0.943 116 100 110
0.1585 238.0309 -42.9712 -0.668 0.024 0.744 116 100 110
6.9244 256.2253 -46.8706 -0.458 -0.053 0.887 110 94 104
4.3734 228.0095 -42.6823 -0.620 0.046 0.783 49 39 50
4.2003 222.5285 -41.9442 -0.160 -0.002 0.987 59 48 62
6.5932 213.6757 -41.3776 -0.335 0.125 0.934 96 94 82
6.4199 195.2194 -38.9880 -0.485 -0.180 0.856 54 61 45
8.1874 194.4249 -39.3006 -0.163 -0.985 0.057 38 42 41
56.7940 141.5741 -43.9516 -0.989 -0.109 -0.098 80 100 65
82.6678 98.0586 -44.4696 -0.845 -0.499 -0.195 83 91 80
82.0037 97.2376 -44.2096 -0.898 -0.440 0.006 80 91 77
87.3143 99.5888 -45.7519 -0.040 -0.654 0.756 66 72 62
80.1484 91.2993 -43.0195 -0.886 -0.121 -0.447 65 61 60
77.7722 89.1719 -42.1926 -0.989 -0.043 -0.140 50 46 45
77.3771 88.5676 -42.0232 -0.986 -0.042 -0.159 48 44 43
77.1652 88.0700 -41.9102 -0.987 -0.043 -0.157 50 46 43
76.1494 87.1251 -41.5522 -0.654 -0.386 0.650 56 52 49
76.2366 86.8015 -41.5314 -0.417 -0.905 -0.086 69 64 61
67.6627 76.6050 -38.2268 -0.261 -0.763 0.591 68 59 62
87.1162 84.8306 -43.8272 -0.604 -0.322 -0.729 82 71 75
90.9185 84.5299 -44.6790 0.455 -0.738 0.498 74 82 67
95.8708 86.2162 -46.0528 -0.803 -0.537 -0.259 72 79 60
96.2277 85.6420 -46.0632 -0.277 -0.249 0.928 73 81 58
98.2736 85.5059 -46.5248 -0.417 -0.185 0.890 81 90 63
119.6967 89.9936 -52.1105 -0.788 -0.471 -0.397 88 102 67
112.3310 85.5612 -49.8223 -0.766 -0.523 -0.374 90 100 74
92.5839 66.9711 -42.8340 -0.518 -0.383 0.765 109 108 107
-25.0034 229.3622 -36.5213 -0.336 0.082 0.938 49 47 52
-21.5340 233.9765 -37.9354 -0.439 0.101 0.893 49 47 48
-19.0929 228.9457 -37.8592 -0.066 -0.318 0.946 48 52 55
-10.2040 250.4977 -42.7413 0.082 0.003 0.997 79 63 74
-7.9176 250.5313 -43.2841 0.069 -0.034 0.997 133 115 129
-7.4614 250.0770 -43.3327 0.077 -0.041 0.996 140 122 136
-6.7204 248.5222 -43.3060 0.074 -0.039 0.996 141 123 137
8.3405 257.1349 -47.9671 -0.535 0.027 0.844 103 90 100
4.3864 215.4324 -41.6394 -0.207 0.041 0.977 111 106 110
5.3832 196.7521 -39.4568 -0.560 0.140 0.817 71 79 64
7.8231 193.7547 -39.6434 -0.217 -0.971 0.102 34 38 37
10.1426 195.5054 -40.4162 -0.323 -0.943 0.081 51 54 48
13.8871 189.4729 -40.5173 0.400 -0.615 0.679 68 90 51
45.2638 132.2808 -40.5049 -0.963 -0.231 -0.135 82 104 66
81.9267 97.6176 -44.6527 -0.804 -0.570 -0.171 76 84 73
81.2231 96.7744 -44.3779 -0.896 -0.442 0.040 70 80 69
86.8244 99.3037 -46.0242 -0.040 -0.654 0.756 57 63 53
78.6461 89.6729 -42.8521 -0.909 -0.070 -0.410 53 49 48
77.7683 88.7936 -42.5315 -0.907 -0.087 -0.411 53 49 48
77.7840 88.4227 -42.4872 -0.907 -0.087 -0.411 53 49 46
76.7458 87.4634 -42.1186 -0.982 -0.108 -0.155 54 49 46
77.5401 87.1576 -42.2661 -0.019 -0.752 -0.659 84 76 73
80.9892 87.5541 -43.1296 -0.074 -0.641 -0.764 69 61 58
67.2964 76.7440 -38.5063 -0.288 -0.776 0.561 58 49 52
67.6198 76.5838 -38.5617 -0.288 -0.776 0.561 63 54 57
96.7004 86.2434 -46.6597 -0.850 -0.502 -0.157 80 88 65
96.6602 85.8493 -46.5992 -0.485 -0.192 0.853 82 90 66
95.5191 83.8239 -46.0684 -0.394 -0.491 0.777 85 96 67
109.2132 84.1822 -49.3395 -0.822 -0.447 -0.352 84 94 69
107.2059 76.5452 -47.8785 -0.717 -0.632 -0.294 82 84 71
106.6445 75.2986 -47.5850 -0.674 -0.080 0.735 85 86 73
88.8875 64.9701 -42.0670 -0.982 -0.086 0.170 142 140 143
-28.6999 228.4323 -36.0669 0.157 -0.698 0.698 63 61 66
-24.2974 228.4968 -37.1183 0.110 -0.611 0.784 39 37 42
-23.0271 225.1953 -36.9849 -0.167 -0.721 0.672 47 45 50
-12.3913 246.5784 -42.3173 0.059 -0.019 0.998 84 71 80
-9.8246 247.9245 -43.1024 0.026 -0.000 1.000 80 62 76
-8.9458 249.1697 -43.4743 0.067 -0.022 0.998 92 74 88
-8.5026 248.6778 -43.5146 0.067 -0.022 0.998 116 98 112
2.7285 214.0977 -41.6264 -0.202 0.026 0.979 49 41 51
4.8851 202.4447 -40.6044 -0.425 0.028 0.905 78 86 67
5.7071 193.8826 -39.6729 -0.485 -0.180 0.856 90 97 81
7.2799 193.9127 -40.0494 0.047 -0.995 0.091 37 42 37
10.3885 195.0325 -40.9332 -0.269 -0.963 0.034 41 46 39
9.5229 191.7710 -40.2991 0.152 -0.783 0.603 40 46 36
9.0140 189.3741 -39.8632 0.021 -0.585 0.810 43 49 37
12.7471 189.4926 -40.7632 -0.601 -0.382 0.702 59 81 42
24.3619 166.7149 -40.5184 -0.469 -0.103 0.877 75 93 53
58.5822 119.8850 -42.4648 0.030 -0.969 -0.244 81 97 60
65.8397 123.5757 -44.6695 -0.267 -0.206 0.942 93 111 71
64.0010 121.4411 -43.9532 -0.379 -0.035 0.925 90 108 68
81.9462 97.6384 -45.0732 -0.797 -0.564 -0.213 67 75 62
86.4373 98.6554 -46.2709 -0.043 -0.651 0.758 52 58 46
83.9122 95.4948 -45.2569 -0.905 -0.004 -0.425 55 56 50
82.2597 92.9178 -44.5265 -0.876 -0.155 -0.456 57 53 54
82.3057 92.5460 -44.4885 -0.876 -0.155 -0.456 56 52 53
80.6894 91.2282 -43.9322 -0.936 -0.098 -0.337 52 48 49
79.6949 90.2732 -43.5710 -0.915 -0.068 -0.397 53 49 48
79.0062 89.4978 -43.3059 -0.914 -0.072 -0.399 55 51 50
78.8083 89.0034 -43.1940 -0.915 -0.073 -0.397 54 50 47
77.3323 87.7962 -42.6855 -0.986 -0.093 -0.137 54 49 46
76.9823 87.2255 -42.5275 -0.986 -0.094 -0.140 69 64 60
78.4348 87.6580 -42.9285 -0.018 -0.747 -0.665 84 76 73
82.4964 88.7591 -44.0355 -0.062 -0.637 -0.769 66 58 55
67.6987 76.6257 -38.9340 -0.299 -0.717 0.630 58 49 52
96.7714 85.5277 -46.9921 -0.527 -0.207 0.824 88 97 70
96.1696 84.8673 -46.7627 -0.452 -0.188 0.872 88 97 70
96.3087 84.5643 -46.7558 -0.452 -0.188 0.872 86 97 67
134.2123 96.8960 -57.3570 -0.631 -0.732 0.258 82 96 64
107.9456 82.8813 -49.2911 -0.698 -0.609 -0.377 76 85 63
104.2771 77.0617 -47.6565 0.231 -0.356 0.906 93 94 86
103.6102 76.4449 -47.4174 0.223 -0.347 0.911 92 93 85
107.3592 76.2553 -48.2805 -0.677 -0.004 0.736 83 84 76
106.1924 75.4485 -47.8980 -0.780 -0.024 0.625 82 83 75
-24.2900 224.3329 -37.1067 0.179 -0.760 0.624 37 34 43
-23.3722 224.0631 -37.2894 -0.125 -0.747 0.653 44 41 50
-16.5569 234.0854 -40.2533 0.389 -0.570 0.723 53 48 54
1.2793 231.6419 -44.1771 -0.135 -0.016 0.991 104 91 101
1.7888 222.8604 -43.1246 -0.611 0.001 0.792 68 58 69
1.5104 217.1357 -42.2930 -0.490 0.010 0.872 51 41 52
2.5100 218.4641 -42.7088 -0.535 0.120 0.836 50 40 51
2.4647 215.1698 -42.2576 -0.566 0.045 0.823 48 38 49
12.4824 193.8836 -41.7994 -0.535 0.074 0.842 52 60 45
10.6155 188.4515 -40.6283 0.299 -0.511 0.806 53 65 44
11.5930 188.2884 -40.8394 -0.609 -0.449 0.653 55 77 38
12.4786 187.9133 -41.0003 0.395 -0.608 0.689 61 83 44
63.0616 120.1309 -43.9933 -0.384 -0.027 0.923 84 102 62
84.3157 99.9418 -46.3594 -0.935 -0.154 0.321 71 79 63
83.9642 99.2988 -46.1897 -0.935 -0.149 0.321 66 74 61
83.4295 94.4045 -45.4080 -0.860 -0.093 -0.501 52 48 47
83.4433 94.0077 -45.3583 -0.860 -0.093 -0.501 52 48 49
84.6033 94.2720 -45.6700 -0.837 -0.535 -0.116 57 53 52
83.7518 93.3799 -45.3478 -0.894 -0.075 -0.443 61 57 56
79.4979 89.7805 -43.8530 -0.913 -0.072 -0.402 50 46 45
79.3434 89.3091 -43.7531 -0.914 -0.069 -0.400 54 50 47
79.0727 88.3947 -43.5663 -0.055 -0.665 -0.744 67 62 59
83.0903 89.4717 -44.6678 -0.046 -0.628 -0.777 64 56 53
68.9554 78.6140 -39.8479 -0.288 -0.388 -0.875 79 70 71
66.6758 77.0807 -39.0996 -0.601 -0.416 0.682 75 66 69
67.4436 76.4945 -39.2043 -0.299 -0.717 0.630 59 50 53
96.8673 85.9458 -47.4795 -0.733 -0.599 -0.322 92 100 76
95.1231 84.7326 -46.9017 -0.776 -0.495 -0.391 92 100 76
108.1863 83.7186 -49.8792 -0.865 -0.454 -0.213 74 84 57
106.2131 79.6070 -48.8593 -0.724 -0.061 0.688 95 103 92
-30.6856 223.9427 -36.0556 -0.691 -0.403 0.600 72 73 78
-26.1619 225.1536 -37.3045 0.015 -0.495 0.869 62 59 65
-24.4976 223.8253 -37.5230 0.182 -0.777 0.603 39 36 47
-23.5500 223.7039 -37.7337 -0.125 -0.747 0.653 46 43 56
-20.2234 227.5514 -39.0538 0.157 -0.530 0.834 62 63 68
-19.7823 227.2780 -39.1223 0.146 -0.518 0.843 60 64 67
-15.8805 235.1689 -41.1294 0.052 -0.050 0.997 59 49 58
-6.9684 246.6760 -44.8288 0.034 -0.059 0.998 130 112 126
-0.0856 229.4300 -44.1363 0.069 -0.134 0.989 112 100 112
2.2420 207.2277 -41.6788 -0.209 0.024 0.978 61 55 65
3.7943 202.8288 -41.4534 -0.229 0.022 0.973 132 133 128
3.7549 201.3312 -41.2406 -0.430 0.030 0.902 85 85 80
3.9675 192.5375 -40.0972 -0.449 0.050 0.892 66 68 60
6.8787 192.0949 -40.7349 -0.358 -0.108 0.927 50 55 51
7.8908 193.2755 -41.1379 -0.488 0.026 0.873 41 45 44
11.6103 188.5117 -41.3825 -0.564 -0.405 0.720 55 77 38
11.7810 187.7197 -41.3158 -0.568 -0.412 0.712 58 80 41
66.1558 122.2891 -45.4637 -0.661 -0.743 0.099 81 99 59
61.6117 117.8719 -43.7745 -0.823 -0.430 0.371 80 98 58
82.5069 100.1254 -46.3731 -0.684 -0.418 0.598 72 88 61
85.5633 99.4250 -47.0107 -0.806 -0.105 0.582 54 65 51
83.5379 97.7790 -46.3016 -0.642 -0.691 0.332 53 61 48
83.7616 97.4937 -46.3165 -0.635 -0.699 0.329 47 53 41
83.1230 96.6946 -46.0549 -0.306 -0.947 0.095 47 53 41
84.5339 93.8337 -46.0045 -0.723 -0.662 -0.198 74 70 69
80.7565 89.3374 -44.4883 -0.030 -0.671 -0.741 62 57 54
65.8530 76.3226 -39.1479 -0.531 -0.249 0.810 73 64 67
90.6680 84.0365 -46.1443 0.427 -0.896 0.123 87 94 78
105.9593 76.3595 -48.7672 -0.677 0.013 0.736 98 98 97
103.6404 74.4137 -47.9471 -0.798 -0.300 0.523 94 94 94
87.4904 64.1261 -42.6783 -0.118 -0.664 -0.738 149 147 148
-30.5914 225.0114 -36.7514 -0.672 -0.661 0.335 60 60 65
-26.8682 224.5398 -37.5842 0.036 -0.795 0.605 48 46 51
-24.7628 223.0420 -37.8852 0.181 -0.765 0.618 50 46 60
-24.0832 223.9598 -38.1757 -0.105 -0.763 0.637 52 47 62
-23.7272 223.3459 -38.1769 -0.125 -0.747 0.653 65 59 74
-23.1651 223.6887 -38.3597 0.263 -0.815 0.517 69 64 79
-11.9159 238.6854 -43.1413 0.274 -0.293 0.916 90 73 86
-8.5339 236.9746 -43.7208 0.245 -0.319 0.916 134 119 127
1.3117 218.7348 -43.5785 -0.703 0.107 0.703 69 58 71
3.1121 199.8688 -41.4098 -0.408 0.058 0.911 104 101 101
6.4259 191.2059 -41.0137 -0.358 -0.108 0.927 60 65 60
12.2636 191.3505 -42.4414 -0.706 -0.364 0.607 52 73 36
38.2975 138.4498 -41.4207 -0.228 -0.623 0.748 72 89 55
64.9978 122.9465 -45.7202 -0.389 -0.103 0.915 71 89 49
81.6761 103.9985 -47.1278 -0.464 -0.847 -0.260 81 97 68
81.6945 100.0602 -46.5889 -0.666 -0.426 0.613 76 92 65
82.2545 99.1228 -46.5946 -0.892 -0.184 0.412 70 82 62
82.4244 97.1172 -46.3589 -0.255 -0.962 0.101 53 61 49
82.4035 96.6881 -46.2946 -0.298 -0.951 0.077 47 53 42
82.7705 96.4923 -46.3561 -0.301 -0.949 0.097 47 54 41
85.3728 95.1355 -46.7964 -0.827 -0.544 -0.146 55 51 50
84.6869 93.9272 -46.4643 -0.727 -0.659 -0.193 75 71 70
80.7384 89.3317 -44.8782 -0.716 -0.575 -0.396 56 51 48
82.0962 89.7016 -45.2567 -0.040 -0.741 -0.670 62 54 51
84.3134 90.1517 -45.8534 -0.004 -0.738 -0.675 60 52 49
71.9697 75.8451 -40.9031 0.388 -0.903 0.186 64 71 59
82.9576 79.9086 -44.1133 -0.360 -0.447 0.819 87 94 76
70.1730 70.2492 -39.6978 -0.774 -0.561 -0.293 93 108 73
70.1771 69.0425 -39.5323 -0.908 -0.320 0.271 83 96 70
81.8343 62.2806 -41.4104 -0.792 -0.431 0.433 148 146 147
88.4503 63.3182 -43.1489 0.305 -0.873 0.379 145 141 142
93.5082 64.8774 -44.5837 -0.113 -0.732 -0.672 145 141 142
-30.9706 220.9217 -36.6151 -0.728 -0.209 0.652 48 44 50
-24.3572 223.1420 -38.5303 -0.125 -0.747 0.653 62 53 66
-23.9040 222.9887 -38.6188 -0.125 -0.747 0.653 73 64 78
-23.4504 222.8353 -38.7073 -0.125 -0.747 0.653 72 62 76
-22.6683 224.1798 -39.0853 0.205 -0.777 0.595 66 56 70
-22.2431 223.8775 -39.1461 0.146 -0.826 0.544 56 47 59
-18.9513 231.8212 -41.0575 0.011 0.007 1.000 42 42 51
-9.2582 243.0608 -44.9834 0.035 -0.059 0.998 97 83 100
1.9349 208.3682 -42.8376 -0.412 0.125 0.903 39 37 50
2.5196 197.1750 -41.4112 -0.431 0.066 0.900 73 67 69
5.1822 187.1770 -40.6562 -0.442 -0.064 0.895 55 60 52
11.9461 196.9679 -43.6686 -0.771 0.215 0.600 49 58 42
12.3154 191.6568 -43.0140 -0.702 -0.359 0.615 66 85 47
10.8821 187.2545 -42.0496 -0.610 -0.421 0.672 65 86 45
10.7096 185.7062 -41.7908 -0.423 -0.852 0.309 66 87 46
80.6880 103.8152 -47.2907 -0.725 -0.676 0.131 84 100 71
80.6289 103.3306 -47.2084 -0.684 -0.722 0.109 80 96 67
81.2118 99.7694 -46.8509 -0.654 -0.443 0.613 75 91 64
83.3461 99.3764 -47.3135 -0.582 -0.039 0.812 68 80 64
85.4182 95.1682 -47.2265 -0.870 -0.459 -0.182 53 48 47
84.8021 94.4047 -46.9701 -0.764 -0.604 -0.228 58 54 51
84.7596 93.9748 -46.8995 -0.727 -0.659 -0.193 65 61 60
84.4200 93.3773 -46.7335 -0.882 -0.457 -0.120 75 71 70
84.5801 93.0670 -46.7288 -0.882 -0.457 -0.120 77 73 74
83.3417 90.3968 -46.0543 -0.933 -0.305 -0.191 56 49 46
80.8029 87.8466 -45.0812 0.446 -0.872 0.201 57 50 47
68.3166 74.9909 -40.2514 -0.220 -0.438 0.871 75 67 70
69.1558 75.0899 -40.4689 0.184 -0.801 0.570 74 69 68
71.3532 75.5381 -41.0647 0.385 -0.904 0.186 54 59 48
75.1868 76.4458 -42.1217 -0.071 -0.563 0.823 79 85 70
76.3337 76.6755 -42.4320 -0.330 -0.466 0.821 85 92 74
70.0044 70.7790 -40.0707 -0.901 -0.282 -0.330 66 82 45
70.6182 69.5412 -40.0462 -0.929 -0.267 -0.258 80 93 66
87.7570 74.7068 -44.9270 0.388 -0.746 0.541 72 82 57
90.3749 75.5260 -45.6767 0.388 -0.746 0.541 68 78 53
104.6932 78.5933 -49.5794 -0.135 -0.204 0.970 52 59 51
104.9256 78.3406 -49.6004 -0.135 -0.204 0.970 50 56 51
85.3752 65.9303 -43.1196 -0.013 -0.658 -0.753 153 153 157
85.2390 64.4155 -42.8743 -0.187 -0.930 -0.317 148 147 146
84.7357 62.2271 -42.4456 0.332 -0.813 0.479 137 135 136
-26.6357 221.9243 -38.3352 0.076 -0.786 0.614 50 39 50
-22.6197 227.1416 -40.0572 0.335 -0.678 0.655 53 41 55
-22.2442 226.5831 -40.0694 0.182 -0.557 0.810 56 43 56
-20.5836 231.8557 -41.2246 0.280 -0.663 0.694 57 46 58
-20.4526 230.1520 -41.0142 -0.002 0.013 1.000 51 43 56
-17.3206 228.2554 -41.5085 0.017 -0.003 1.000 72 52 70
-9.9478 238.6744 -44.7894 0.011 -0.067 0.998 109 96 116
-2.7990 213.3843 -42.9359 -0.728 0.106 0.677 138 121 131
0.7382 214.4106 -43.9448 -0.578 0.146 0.803 87 69 91
11.1245 156.3698 -38.2222 -0.777 -0.627 -0.054 71 87 51
12.4760 157.0911 -38.6545 -0.398 -0.916 0.042 71 87 51
81.2256 103.2858 -47.7734 0.011 -0.995 -0.096 76 93 61
73.1039 97.1891 -44.9247 -0.219 -0.946 -0.238 72 89 57
73.4809 97.0134 -44.9916 -0.242 -0.941 -0.238 73 90 59
82.9235 99.1268 -47.5960 -0.580 -0.042 0.813 68 84 65
83.2306 98.0408 -47.5165 -0.585 -0.038 0.810 60 74 57
85.2623 98.8431 -48.1262 -0.426 -0.878 -0.218 58 72 53
85.9232 98.8144 -48.2834 -0.464 -0.857 -0.223 49 63 45
84.7941 95.6342 -47.5555 -0.907 -0.416 0.064 55 53 46
85.3239 95.5308 -47.6701 -0.884 -0.463 -0.062 54 49 44
85.4858 95.2137 -47.6645 -0.870 -0.459 -0.182 53 48 45
84.7621 94.3879 -47.3704 -0.768 -0.599 -0.227 53 50 46
84.1432 93.2252 -47.0540 -0.871 -0.447 -0.203 63 59 58
84.3014 92.9143 -47.0484 -0.871 -0.447 -0.203 59 55 56
84.0148 92.3528 -46.8986 -0.872 -0.456 -0.178 55 51 52
92.8126 93.2052 -49.1663 -0.351 -0.653 -0.672 69 66 64
67.4057 74.8531 -40.3570 -0.212 -0.431 0.877 65 54 62
67.7516 74.7062 -40.4206 -0.210 -0.452 0.867 70 61 68
68.6329 74.8274 -40.6528 0.191 -0.803 0.564 71 66 67
71.2032 75.4630 -41.3703 0.374 -0.910 0.177 53 56 49
73.2026 76.1273 -41.9526 0.377 -0.909 0.178 74 77 70
73.8057 76.0960 -42.0953 0.164 -0.853 0.496 83 86 77
78.4094 77.0162 -43.3494 0.440 -0.594 0.673 93 98 79
69.9753 72.6247 -40.6670 0.088 -0.523 0.847 95 100 80
70.3875 70.3428 -40.4429 -0.774 -0.561 -0.293 59 72 43
70.6336 70.1517 -40.4758 -0.881 -0.364 -0.301 59 72 46
70.8064 69.9271 -40.4860 -0.885 -0.359 -0.297 64 77 53
72.5890 70.1328 -40.9502 -0.902 -0.430 0.035 78 90 70
88.9219 74.8840 -45.6108 0.384 -0.750 0.538 69 78 56
91.7495 75.7879 -46.4292 0.385 -0.751 0.537 64 73 52
84.1874 67.8368 -43.4532 0.291 -0.312 0.904 110 109 114
86.2526 66.2647 -43.7334 0.009 -0.707 -0.707 150 148 153
84.0225 64.8100 -42.9824 0.105 -0.899 -0.425 153 151 154
88.1671 62.9076 -43.7229 0.357 -0.842 0.406 132 130 131
91.8922 63.9744 -44.7835 0.357 -0.842 0.406 132 131 129
-23.5077 225.7844 -40.1890 0.176 -0.557 0.812 48 34 47
-22.9797 225.9458 -40.3419 0.182 -0.557 0.810 50 35 48
-17.0304 225.6420 -41.7579 0.038 0.022 0.999 83 68 79
-16.6729 225.0209 -41.7559 0.038 0.022 0.999 93 81 90
-15.6952 224.8487 -41.9710 0.050 0.001 0.999 43 33 42
1.7212 212.8512 -44.5124 -0.219 -0.103 0.970 71 56 72
0.8428 207.3059 -43.4960 -0.235 -0.119 0.965 53 48 63
-0.6210 200.2725 -42.1212 -0.525 0.033 0.850 39 35 49
2.4880 181.0869 -40.1136 -0.514 0.142 0.846 61 68 51
5.7586 185.3229 -41.5279 -0.668 0.220 0.711 55 67 43
13.2004 163.1010 -40.1451 -0.894 -0.424 -0.145 70 90 55
12.2037 160.3044 -39.4967 -0.849 -0.491 -0.194 70 90 55
13.4992 159.9887 -39.7690 0.119 -0.992 -0.042 67 82 50
14.0042 159.1174 -39.7671 -0.340 -0.886 0.316 67 82 50
14.9759 159.9873 -40.1312 -0.349 -0.878 0.328 64 79 46
15.3740 159.8120 -40.2035 -0.356 -0.872 0.337 67 82 49
26.7908 150.3040 -41.6321 -0.673 -0.712 0.198 71 85 59
20.6621 139.7228 -38.6002 -0.645 -0.524 0.556 76 90 55
56.3662 117.5972 -44.1667 0.175 -0.762 -0.623 65 81 45
83.6643 99.5908 -48.2652 -0.900 -0.273 0.340 67 86 62
84.4329 99.6318 -48.4597 -0.841 -0.138 0.522 65 84 63
84.1840 99.0522 -48.3150 -0.860 -0.176 0.479 63 81 61
84.7757 98.9843 -48.4504 -0.870 -0.177 0.459 59 78 57
89.8899 100.7650 -49.9625 -0.486 -0.834 -0.261 50 69 47
84.7152 94.7746 -47.8276 -0.867 -0.496 0.040 56 52 44
84.8470 94.4429 -47.8121 -0.832 -0.541 -0.125 57 52 47
84.3824 93.7705 -47.6010 -0.757 -0.626 -0.186 59 54 51
84.1188 93.2169 -47.4563 -0.866 -0.463 -0.188 63 59 58
83.4885 92.4582 -47.1921 -0.861 -0.489 -0.136 54 50 51
80.9472 86.8027 -45.7518 -0.918 -0.318 -0.239 66 66 66
65.6546 74.2853 -40.1916 0.015 -0.522 0.853 63 51 61
68.6171 74.8193 -40.9957 0.271 -0.937 0.221 64 57 65
69.4718 74.9244 -41.2206 0.312 -0.943 0.112 56 54 57
71.1844 75.4531 -41.7172 0.324 -0.939 0.117 60 61 59
72.7162 75.8859 -42.1556 0.331 -0.936 0.121 68 70 67
72.8469 74.9719 -42.0557 0.026 -0.529 0.848 73 76 66
73.9718 73.5824 -42.1311 0.392 -0.831 0.395 93 97 74
74.9624 73.4120 -42.3495 -0.008 -0.716 0.698 84 93 71
73.2596 71.9835 -41.7254 -0.818 -0.404 -0.410 60 71 52
70.6188 70.4471 -40.8555 -0.854 -0.508 -0.117 53 62 43
70.8613 70.2537 -40.8871 -0.884 -0.361 -0.299 53 62 43
70.9625 69.9955 -40.8746 -0.884 -0.361 -0.299 60 69 51
90.1429 75.0818 -46.3158 0.175 -0.654 0.736 67 79 59
77.5894 67.4967 -42.1400 0.320 -0.556 0.767 58 69 54
80.5745 66.6579 -42.7514 0.346 -0.506 0.790 124 122 127
78.8786 65.3830 -42.1511 0.233 -0.457 0.859 147 145 150
82.8097 64.6212 -43.0058 -0.020 -0.952 -0.304 148 146 151
81.5448 61.3086 -42.2170 -0.424 0.012 0.906 128 123 127
84.4432 61.8188 -43.0019 0.326 -0.844 0.426 133 129 130
89.7871 62.9122 -44.4712 0.348 -0.827 0.441 131 127 126
88.6067 62.2014 -44.0789 0.271 -0.767 0.582 124 122 125
-34.0069 223.8219 -37.8521 -0.855 0.209 0.474 49 49 51
-22.3169 227.1860 -41.2304 0.365 -0.747 0.555 44 29 42
-16.6987 221.2301 -41.7441 0.039 0.022 0.999 65 55 66
-0.7126 210.7062 -44.1474 -0.532 0.112 0.840 116 102 116
1.0637 199.4991 -42.9433 -0.416 0.012 0.909 39 31 43
8.8565 187.9551 -43.1749 -0.615 0.242 0.750 70 82 56
13.7546 177.2295 -42.8119 -0.770 0.283 0.571 61 79 52
11.8632 159.7955 -39.7900 -0.829 -0.509 -0.232 70 90 55
12.1230 159.3737 -39.7923 -0.829 -0.509 -0.232 69 89 55
11.3479 157.0345 -39.2582 -0.666 -0.612 -0.426 65 80 50
14.2239 159.6428 -40.3503 -0.550 -0.737 0.393 65 80 51
15.2868 159.7789 -40.6326 -0.339 -0.880 0.334 60 74 46
54.3700 115.3484 -43.7673 0.297 -0.951 -0.080 73 89 53
73.2375 96.8806 -45.7175 -0.102 -0.991 -0.088 67 87 52
74.1566 97.0495 -45.9691 -0.262 -0.904 -0.337 62 82 47
83.5770 98.6925 -48.5349 -0.824 -0.214 0.525 60 82 57
87.2730 100.5041 -49.7127 -0.246 -0.666 -0.704 57 80 54
86.4502 96.6141 -48.9395 -0.970 -0.178 0.166 60 61 47
87.6169 96.8758 -49.2658 -0.982 -0.177 0.062 62 61 48
86.9905 96.0964 -48.9970 -0.990 -0.130 0.058 63 60 49
87.0490 95.7163 -48.9557 -0.987 -0.162 0.015 62 58 51
86.7672 95.1426 -48.8021 -0.988 -0.151 0.017 62 59 54
86.2024 94.4109 -48.5554 -0.970 -0.240 0.026 62 59 56
89.1542 92.8288 -49.0521 -0.928 -0.268 -0.260 51 51 51
67.7235 79.3252 -41.7837 -0.873 -0.456 -0.175 68 68 68
64.3108 73.6022 -40.1027 -0.008 -0.490 0.872 73 61 73
68.0637 74.5415 -41.1666 0.274 -0.932 0.238 63 55 64
68.8420 74.6095 -41.3687 0.236 -0.943 0.235 59 56 61
70.0250 74.8764 -41.6997 0.259 -0.940 0.220 63 63 62
73.4972 75.9424 -42.7130 0.161 -0.814 0.558 74 75 71
68.4229 72.4984 -40.9558 -0.740 -0.083 0.668 74 76 64
74.5050 74.4769 -42.7469 0.198 -0.732 0.652 84 88 70
73.1314 71.9210 -42.0333 -0.833 -0.445 -0.328 57 65 53
71.4413 70.5182 -41.4106 -0.857 -0.436 0.274 60 68 54
71.5687 70.2707 -41.4058 -0.857 -0.436 0.274 65 73 59
71.9185 70.1254 -41.4708 -0.807 -0.553 0.206 73 81 68
90.2062 75.4362 -46.7628 0.133 -0.572 0.809 69 80 63
89.3310 74.7223 -46.4422 0.175 -0.654 0.736 69 80 63
81.0404 65.6619 -43.0681 -0.256 -0.563 -0.786 158 153 157
81.2134 65.4387 -43.0780 -0.332 -0.540 -0.774 155 150 154
84.5514 65.2898 -43.8801 -0.150 -0.253 0.956 144 139 146
84.4402 64.9544 -43.8035 -0.410 -0.480 0.776 146 140 151
82.0281 63.1645 -42.9458 0.017 -0.884 -0.467 132 126 138
85.4118 61.8821 -43.5930 0.333 -0.749 0.574 138 134 133
87.9641 62.5276 -44.3176 0.351 -0.821 0.450 137 133 130
88.1839 62.3226 -44.3418 0.351 -0.830 0.433 135 131 130
-19.6276 219.8346 -41.3521 0.002 0.010 1.000 56 42 59
-18.6717 219.6983 -41.5691 0.055 -0.001 0.998 71 58 74
-17.5859 218.0661 -41.5959 0.053 -0.000 0.999 104 93 107
-11.0722 225.4702 -44.3139 -0.010 -0.030 1.000 126 114 118
-1.1473 203.6511 -43.5329 -0.221 -0.139 0.965 78 64 78
0.4141 195.2284 -42.6680 -0.561 0.173 0.810 37 30 35
1.3615 181.1138 -40.8042 -0.385 0.096 0.918 71 76 54
9.0646 165.8255 -40.4429 -0.895 0.182 0.408 62 80 54
11.7233 161.4996 -40.4595 -0.856 -0.401 -0.326 68 88 53
11.2469 156.9728 -39.6681 -0.630 -0.609 -0.482 54 68 42
13.2715 159.8235 -40.5946 0.182 -0.983 -0.034 52 66 41
13.8829 160.0452 -40.7794 0.148 -0.989 -0.024 52 66 40
22.1125 138.4658 -39.6132 -0.090 -0.643 0.760 78 92 57
53.7695 117.4282 -44.3431 -0.914 -0.160 -0.374 81 97 61
56.2448 118.6059 -45.1327 -0.837 -0.355 -0.416 78 94 58
61.1767 99.7246 -43.5492 -0.970 -0.168 0.176 75 96 55
79.4565 97.8686 -47.8109 -0.771 -0.012 0.636 70 90 56
91.2023 102.8907 -51.4734 -0.662 -0.529 -0.531 59 79 52
86.5060 96.2373 -49.3182 -0.986 -0.155 0.068 65 67 50
85.8963 94.6497 -48.9308 -0.927 -0.325 0.188 64 65 55
84.8011 91.2238 -48.1495 0.477 -0.505 0.720 43 43 41
89.7449 93.1576 -49.6643 -0.937 -0.259 -0.232 51 52 48
87.5385 91.5476 -48.8771 -0.982 -0.179 0.060 55 56 52
65.8336 78.3120 -41.5209 -0.926 -0.281 -0.251 71 72 69
63.4320 73.4706 -40.2048 -0.051 -0.458 0.887 81 70 79
64.1932 73.2272 -40.3576 -0.052 -0.459 0.887 81 67 84
66.1193 73.8835 -40.9333 0.211 -0.811 0.546 70 59 73
68.5871 74.4819 -41.6349 0.322 -0.832 0.451 63 60 64
69.7967 74.7624 -41.9769 0.370 -0.826 0.426 65 65 64
72.7948 74.6201 -42.6999 -0.677 -0.605 -0.419 69 71 60
73.3785 74.5796 -42.8388 -0.906 -0.277 -0.319 70 72 58
72.7988 72.7050 -42.4161 0.191 -0.812 0.552 90 94 77
73.6260 72.4630 -42.5855 0.007 -0.704 0.711 57 65 53
72.9287 71.8237 -42.3173 -0.831 -0.411 -0.374 49 57 46
70.7377 70.4964 -41.5761 -0.847 -0.510 -0.148 58 66 54
71.3177 70.4581 -41.7143 -0.864 -0.410 -0.293 69 77 64
73.9645 71.3675 -42.5066 -0.852 -0.458 0.253 73 81 68
80.2171 70.4325 -43.9197 -0.915 -0.386 -0.117 72 83 66
72.1611 64.3391 -41.0137 0.315 -0.451 0.835 125 128 122
74.5841 64.7714 -41.6795 0.301 -0.474 0.827 146 141 145
74.2871 64.3637 -41.5452 0.328 -0.813 0.481 153 148 152
74.8083 64.2919 -41.6639 0.327 -0.733 0.597 156 151 155
74.7046 63.9655 -41.5896 0.346 -0.656 0.671 155 150 154
76.0177 64.2129 -41.9523 0.333 -0.654 0.679 152 147 151
81.4789 66.1239 -43.5922 -0.254 -0.582 -0.772 155 150 154
81.4983 65.5444 -43.5108 -0.298 -0.271 0.915 159 154 158
79.4947 63.0331 -42.6400 0.110 -0.975 -0.195 137 131 143
80.2422 63.0387 -42.8264 0.123 -0.971 -0.207 133 126 142
81.2420 63.1393 -43.0895 0.148 -0.977 -0.152 128 121 138
83.2611 63.6256 -43.6631 -0.152 -0.881 -0.448 121 115 129
82.3349 62.9883 -43.3384 -0.434 -0.645 -0.629 113 107 121
85.0328 61.4536 -43.7799 0.312 -0.749 0.585 137 133 130
-18.3244 215.4885 -41.5577 0.053 -0.000 0.999 145 134 150
-0.8941 218.7787 -46.4057 -0.020 -0.900 0.435 140 123 132
-1.6408 210.0778 -44.9066 -0.630 0.164 0.759 130 115 122
-1.6836 206.8650 -44.4112 -0.496 0.053 0.867 123 107 115
-0.0863 194.1200 -42.8872 -0.491 0.146 0.859 37 28 32
0.8162 183.5902 -41.5240 -0.457 0.139 0.879 109 113 95
0.7119 180.9097 -41.0935 -0.387 0.097 0.917 111 116 94
0.7346 179.7750 -40.9280 -0.385 0.096 0.918 107 112 88
11.4095 160.1153 -40.6272 -0.694 -0.559 -0.453 54 74 39
13.2039 159.8262 -41.0316 0.182 -0.983 -0.034 41 55 33
14.3125 160.0560 -41.3430 -0.103 -0.993 0.054 45 59 36
15.0588 159.6158 -41.4629 -0.111 -0.993 -0.040 69 83 60
21.8341 138.1472 -39.9156 -0.090 -0.643 0.760 75 89 54
58.8506 120.9754 -46.5665 -0.906 -0.182 -0.381 84 100 64
54.7322 116.7659 -44.9032 -0.914 -0.271 -0.301 84 100 64
57.2608 116.9273 -45.5589 -0.882 -0.252 -0.399 85 101 65
57.4753 116.0831 -45.4851 -0.881 -0.254 -0.398 86 102 66
61.9080 98.9783 -44.0112 -0.952 -0.156 0.265 84 102 64
62.6243 98.2078 -44.0738 -0.902 -0.404 0.149 81 96 63
73.3340 105.2450 -47.8093 -0.855 -0.518 -0.013 82 97 64
71.1670 101.5204 -46.7064 -0.781 -0.341 0.523 79 94 61
70.8440 100.8645 -46.5268 -0.862 -0.285 0.419 81 96 63
68.7944 99.0476 -45.7409 -0.867 -0.236 0.439 84 99 66
71.7657 95.1410 -45.8934 -0.257 -0.793 0.552 62 81 49
92.8592 100.8029 -52.0138 -0.769 -0.611 0.191 65 79 54
87.4496 96.7922 -50.0582 -0.988 -0.146 0.054 68 74 54
88.2220 91.9254 -49.5168 -0.978 -0.209 0.014 55 56 49
65.6121 78.5317 -41.8513 -0.960 -0.202 0.192 74 75 68
64.9409 77.8346 -41.5786 -0.986 -0.145 -0.087 73 74 67
58.5877 70.6920 -38.9149 0.354 -0.916 0.187 92 80 92
64.9721 73.3053 -40.9031 0.395 -0.881 0.258 73 62 75
70.0238 74.8747 -42.4010 0.313 -0.823 0.473 68 68 67
71.8929 75.4764 -42.9585 0.299 -0.801 0.519 72 73 68
72.2230 75.3131 -43.0162 -0.694 -0.575 -0.434 73 74 69
73.4195 74.9221 -43.2560 -0.665 -0.616 -0.423 65 67 55
72.6951 72.6537 -42.7329 0.040 -0.752 0.658 87 91 74
73.1246 72.5405 -42.8230 0.006 -0.720 0.694 78 84 70
73.1765 72.2500 -42.7922 0.007 -0.704 0.711 48 56 43
73.0741 71.8886 -42.7121 -0.831 -0.411 -0.374 41 49 38
70.7663 70.5067 -41.9274 -0.853 -0.504 -0.140 62 68 56
73.6493 71.2195 -42.7547 -0.870 -0.442 0.219 80 88 75
73.7929 70.9752 -42.7537 -0.931 -0.321 0.172 74 82 69
82.2909 71.6421 -44.9760 -0.931 -0.304 -0.204 77 84 72
78.9244 69.8663 -43.8676 -0.905 -0.407 -0.122 78 83 70
70.5258 65.0696 -41.0471 -0.869 -0.282 -0.406 84 90 78
70.1213 64.6128 -40.8772 -0.984 -0.160 0.074 88 94 82
70.7350 63.7401 -40.8988 0.269 -0.828 0.492 137 138 133
71.8486 63.9202 -41.2040 0.269 -0.828 0.492 142 139 139
72.9757 64.1026 -41.5129 0.269 -0.828 0.492 144 139 143
73.9473 64.2178 -41.7728 0.270 -0.820 0.504 148 143 147
74.8315 63.7267 -41.9195 0.335 -0.651 0.681 151 146 150
81.9559 64.8429 -43.8666 -0.443 0.017 0.896 141 136 140
80.5762 61.4749 -43.0140 -0.485 -0.026 0.874 97 92 99
80.9213 60.7735 -42.9943 0.178 -0.439 0.881 105 100 103
84.4286 60.9460 -43.8960 0.304 -0.748 0.590 133 129 126
-22.8430 215.1926 -40.9068 -0.998 -0.017 -0.065 54 36 55
-20.7716 215.8334 -41.5249 0.003 0.005 1.000 53 46 60
-18.0141 213.2150 -41.8166 -0.060 0.055 0.997 151 140 154
-16.9080 211.8280 -41.8821 -0.025 0.028 0.999 85 74 80
-16.5991 211.1443 -41.8550 -0.025 0.028 0.999 109 98 103
-1.4891 185.3925 -41.7083 -0.590 0.198 0.783 32 27 25
-0.5975 182.6890 -41.5185 -0.336 0.021 0.942 44 45 35
9.2500 170.5153 -42.1282 -0.754 0.266 0.600 75 92 56
9.2963 169.5911 -41.9984 -0.782 0.317 0.536 76 93 60
12.3952 165.8959 -42.2111 -0.984 0.177 0.007 52 72 37
11.8010 160.0690 -41.1702 -0.694 -0.559 -0.453 43 63 28
14.3141 160.1853 -41.8190 -0.338 -0.710 0.617 45 58 40
14.6601 159.9150 -41.8646 -0.414 -0.631 0.656 56 69 50
14.9676 159.5756 -41.8898 -0.410 -0.634 0.656 65 78 60
15.3252 158.4404 -41.8059 -0.390 -0.603 0.696 64 78 57
22.3692 137.6000 -40.3855 -0.112 -0.663 0.740 62 79 40
40.8718 128.6357 -43.6595 -0.776 -0.432 -0.460 79 96 64
40.8838 128.0512 -43.5731 -0.787 -0.408 -0.462 78 95 63
61.4588 98.6765 -44.2442 -0.950 -0.150 0.272 86 104 66
67.0760 100.9025 -45.9952 -0.869 -0.476 0.134 84 99 66
71.1251 101.5071 -47.1044 -0.783 -0.189 0.592 87 102 69
70.6976 100.7801 -46.8858 -0.862 -0.285 0.419 87 102 69
89.4505 93.4073 -50.4662 -0.272 -0.362 0.892 50 52 41
58.2348 70.5128 -39.1250 0.354 -0.916 0.187 101 89 101
65.8755 73.4433 -41.4919 0.380 -0.921 0.079 83 75 84
69.3700 74.5492 -42.5385 -0.251 -0.802 -0.542 59 59 58
70.5186 74.7959 -42.8647 -0.318 -0.808 -0.496 59 59 57
70.1841 73.6679 -42.6081 -0.893 -0.170 -0.416 73 74 65
69.7167 73.1226 -42.4073 -0.878 -0.330 -0.348 69 71 59
72.5630 72.9052 -43.0887 -0.899 -0.372 -0.231 88 91 72
72.6364 72.6236 -43.0640 -0.218 -0.767 0.604 88 92 75
72.8121 72.3911 -43.0726 0.007 -0.721 0.693 73 79 65
73.1321 72.2265 -43.1277 0.006 -0.743 0.669 48 56 43
73.6563 70.9093 -43.0578 -0.032 -0.916 -0.399 74 82 69
77.1514 70.3171 -43.8447 -0.965 0.037 0.260 82 85 76
77.9554 70.3628 -44.0536 -0.976 -0.030 0.216 81 84 75
75.9809 69.1894 -43.3783 -0.981 -0.065 0.184 81 84 76
70.3597 64.9935 -41.3248 -0.981 -0.195 0.011 103 105 97
78.5436 63.7806 -43.1940 0.141 -0.371 0.918 135 130 134
79.8854 63.1674 -43.4371 0.026 -0.974 -0.225 147 141 152
80.6165 63.1657 -43.6204 0.089 -0.976 -0.197 144 137 153
81.1220 63.0759 -43.7336 0.002 -0.980 -0.198 139 132 149
83.6633 60.9365 -44.0443 0.286 -0.815 0.504 112 108 105
-22.9216 215.2732 -41.4218 -0.997 0.071 0.034 74 57 74
-16.9578 208.2975 -41.8453 0.071 -0.011 0.997 127 115 119
-2.4656 196.3495 -43.6506 -0.670 0.175 0.721 94 76 91
-0.4371 195.0023 -43.9538 -0.398 0.053 0.916 61 49 57
-1.3181 179.8514 -41.3802 -0.330 0.022 0.944 27 31 18
6.1737 183.6940 -43.8682 -0.612 0.174 0.772 82 93 56
1.1575 167.7077 -40.1208 -0.446 0.045 0.894 70 90 49
11.8092 161.1355 -41.7906 -0.795 -0.473 -0.380 54 74 40
11.8835 160.3550 -41.6882 -0.810 -0.576 -0.109 47 67 33
13.0214 159.7443 -41.8808 0.166 -0.986 -0.017 40 53 33
14.0367 159.8047 -42.1465 -0.386 -0.719 0.578 53 66 46
15.0988 154.6875 -41.6206 -0.337 -0.911 0.237 65 82 47
15.1302 153.8923 -41.5052 -0.822 -0.434 0.368 63 80 45
15.2791 153.3064 -41.4518 -0.278 -0.336 0.900 63 80 45
15.8990 151.8662 -41.3849 -0.425 0.038 0.905 69 85 49
13.6565 146.4619 -39.9799 -0.309 -0.340 0.888 69 85 49
23.1694 136.7385 -40.8732 -0.257 -0.594 0.762 74 92 52
25.0827 123.9131 -39.3660 -0.761 -0.169 0.626 63 80 44
44.3630 109.0226 -41.9238 -0.590 -0.141 0.795 91 107 70
46.1514 108.6950 -42.3246 -0.381 -0.546 0.746 90 106 70
61.3884 99.4990 -44.7450 -0.973 -0.207 0.107 88 109 68
61.3575 99.0481 -44.6673 -0.924 -0.351 0.155 88 109 70
62.0701 99.1271 -44.8595 -0.947 -0.188 0.262 90 107 71
62.2087 97.9490 -44.7117 -0.903 -0.403 0.150 87 102 69
62.5381 97.7570 -44.7650 -0.232 -0.871 -0.433 87 102 69
65.5483 98.5702 -45.6513 -0.623 -0.514 0.590 94 109 76
70.3080 100.9657 -47.2250 -0.716 -0.212 0.665 95 110 77
70.0052 96.5077 -46.4567 -0.311 -0.332 0.891 85 102 66
78.9603 99.2899 -49.1498 -0.896 -0.062 0.441 81 101 66
79.0625 98.5007 -49.0531 -0.896 -0.062 0.441 85 105 70
81.8202 93.1326 -48.9164 -0.984 -0.022 0.175 72 85 59
89.1597 94.0623 -50.9140 -0.333 -0.387 0.860 52 59 47
58.6850 70.7421 -39.5998 0.362 -0.917 0.169 107 95 108
65.6257 73.3178 -41.7521 0.380 -0.921 0.079 111 103 112
69.7717 74.7483 -43.0211 -0.370 -0.756 -0.541 52 52 51
70.6929 74.8814 -43.2743 -0.313 -0.809 -0.498 50 50 48
70.2766 73.7118 -42.9877 -0.874 -0.334 -0.352 81 82 74
73.4973 74.9570 -43.9942 -0.899 -0.291 -0.326 75 77 65
72.5310 72.8878 -43.4291 -0.894 -0.379 -0.238 78 81 62
72.6677 72.6361 -43.4246 -0.230 -0.763 0.604 81 85 68
73.4415 72.6844 -43.6275 -0.845 -0.401 -0.353 62 69 54
73.9667 71.3586 -43.5543 0.065 -0.967 0.248 74 82 69
71.6282 67.5737 -42.3765 -0.820 -0.451 -0.353 79 79 75
69.4618 66.0394 -41.5913 -0.964 -0.093 -0.251 85 84 80
73.2384 64.4826 -42.3034 -0.801 -0.263 -0.539 119 114 119
73.6944 64.3856 -42.4035 -0.801 -0.258 -0.541 117 112 116
73.8465 63.5966 -42.3194 0.190 -0.367 0.911 119 114 118
74.1470 63.4362 -42.3704 0.209 -0.387 0.898 123 118 122
77.1027 64.3427 -43.2575 0.287 -0.375 0.882 126 121 125
77.3756 64.1658 -43.2989 0.292 -0.387 0.874 123 118 122
77.7291 64.0210 -43.3657 0.258 -0.342 0.903 124 119 123
81.1633 63.6530 -44.1758 -0.082 -0.959 -0.271 148 142 152
-30.2508 207.3123 -38.8310 0.117 -0.663 0.739 60 47 57
-18.1296 206.0115 -41.7045 -0.033 -0.067 0.997 114 106 111
-2.0343 179.4480 -41.6121 -0.339 0.022 0.940 32 34 28
-1.4374 176.1878 -41.2507 -0.384 0.080 0.920 67 63 53
0.7758 172.4127 -41.2187 -0.481 0.129 0.867 91 96 60
0.5657 168.6548 -40.5741 -0.375 0.107 0.921 88 95 61
7.0978 156.8000 -40.3676 -0.944 0.145 0.298 58 75 43
12.5810 159.9637 -42.2578 -0.876 -0.424 -0.231 66 82 52
13.3857 159.6395 -42.4111 0.156 -0.988 -0.023 61 78 48
19.4986 142.1368 -41.2094 -0.571 -0.821 0.028 71 93 53
20.0177 142.1874 -41.3492 -0.688 -0.725 0.001 71 93 53
20.3167 141.9037 -41.3805 -0.688 -0.725 0.001 71 93 53
20.6599 141.6869 -41.4336 -0.686 -0.728 -0.013 71 93 53
45.1889 112.2764 -43.0349 -0.563 -0.149 0.813 90 106 70
