ply
format ascii 1.0
element vertex 852
property float x
property float y
property float z
property float nx
property float ny
property float nz
property uchar diffuse_red
property uchar diffuse_green
property uchar diffuse_blue
end_header
390.6129 268.1411 -7.3198 -0.731 -0.382 0.565 64 49 68
389.1801 260.6169 -7.6568 -0.869 -0.462 0.177 68 56 68
389.9095 260.2469 -7.7213 -0.865 -0.473 0.169 61 49 63
390.1133 258.4019 -7.8372 -0.917 -0.377 0.132 51 39 51
392.3720 259.3742 -7.9178 -0.565 -0.664 -0.490 47 35 47
391.3144 256.4440 -8.0191 -0.566 -0.659 -0.495 47 35 45
388.4525 251.9974 -8.0976 -0.919 -0.286 0.273 49 38 46
384.6619 246.8213 -8.1615 -0.519 -0.828 -0.212 61 50 58
386.4612 245.4996 -8.3436 -0.513 -0.805 0.298 65 53 63
387.0851 245.0798 -8.4045 -0.513 -0.805 0.298 54 42 52
387.7088 244.6601 -8.4654 -0.513 -0.805 0.298 84 71 80
388.1779 244.1120 -8.5243 -0.491 -0.818 0.301 114 101 110
388.5631 243.4957 -8.5820 -0.010 -0.999 0.048 113 100 109
389.6762 243.4809 -8.6495 -0.010 -0.999 0.048 109 96 105
387.6810 236.3593 -8.9303 -0.986 -0.067 0.151 89 72 80
387.2642 235.1285 -8.9745 -0.973 -0.218 0.069 83 66 73
387.2966 234.2625 -9.0251 -0.953 -0.229 -0.197 110 91 97
387.3056 233.3820 -9.0751 -0.946 -0.187 -0.263 105 86 92
385.2102 230.8451 -9.0922 -0.980 -0.162 0.114 107 88 94
383.1748 228.3739 -9.1092 -0.078 -0.413 0.907 113 94 100
383.9254 228.0999 -9.1695 -0.078 -0.413 0.907 104 87 95
385.1280 228.1770 -9.2372 -0.075 -0.415 0.907 96 79 87
387.5525 227.4751 -9.4218 -0.149 -0.392 0.908 96 79 87
389.0378 227.7569 -9.4949 -0.290 -0.386 0.875 98 81 89
389.5191 227.2677 -9.5513 -0.290 -0.386 0.875 116 99 107
379.8513 217.4417 -9.5245 -0.812 -0.238 -0.534 122 102 111
378.4692 213.1983 -9.6802 -0.886 -0.461 -0.056 127 113 126
378.7691 212.6276 -9.7303 -0.886 -0.461 -0.056 116 102 118
379.9108 211.8874 -9.8402 -0.877 -0.477 -0.064 90 76 91
378.6223 203.2917 -10.2461 -0.898 -0.083 -0.432 114 103 117
378.4140 202.3999 -10.2838 -0.880 -0.097 -0.464 106 95 109
374.0696 192.2176 -10.5958 -0.998 0.031 0.057 122 108 121
373.9970 190.0840 -10.7114 -0.998 0.031 0.057 103 89 102
376.8107 187.1239 -11.0462 -0.607 -0.458 0.649 86 67 87
374.6563 183.7425 -11.1072 -0.578 -0.547 0.605 82 63 83
378.7289 185.6435 -11.2443 -0.467 -0.678 0.568 87 68 88
377.4359 182.1809 -11.3614 -0.616 -0.540 -0.573 111 100 117
376.8864 181.1872 -11.3844 -0.602 -0.495 -0.627 105 96 113
378.1493 181.3108 -11.4531 -0.288 -0.830 -0.477 93 82 99
374.1748 161.8758 -12.3073 -0.328 -0.682 0.654 80 67 85
345.7656 144.3953 -11.5884 0.351 -0.798 -0.491 163 152 168
349.1210 145.6851 -11.7169 0.362 -0.842 -0.400 149 138 154
349.4358 145.3481 -11.7547 0.319 -0.841 -0.438 135 124 140
380.3239 150.1606 -13.3338 0.401 -0.913 0.081 102 89 107
368.0422 138.7766 -13.2382 -0.486 -0.767 -0.418 94 80 103
363.5026 135.2628 -13.1638 -0.930 -0.046 0.365 89 76 98
358.0983 131.8837 -13.0301 -0.945 -0.110 -0.309 70 58 78
384.5944 127.1669 -14.8818 0.235 -0.948 -0.214 64 60 77
103.0367 394.1123 16.2898 -0.778 -0.593 -0.210 46 45 50
170.9604 474.5904 16.5023 -0.790 -0.313 0.527 100 93 101
237.5519 448.2736 11.0048 -0.555 -0.026 0.831 53 55 52
243.9570 390.8169 7.4974 -0.329 -0.449 0.831 53 58 37
260.0447 395.4318 6.7643 -0.375 -0.783 -0.496 60 63 56
264.4823 375.3613 5.4047 -0.255 -0.208 0.944 68 69 61
281.7781 363.7638 3.7186 -0.986 -0.165 -0.029 54 56 51
282.0779 362.3712 3.6247 -0.998 0.060 -0.030 55 57 54
282.0414 360.2644 3.5127 -0.998 0.056 -0.034 70 72 71
282.7225 359.7156 3.4413 -0.964 -0.266 -0.015 75 77 76
285.0575 354.7613 3.0299 -0.093 -0.471 0.877 75 77 74
294.8739 340.7839 1.6719 -0.353 -0.307 0.884 80 85 52
305.5953 357.1472 1.9039 -0.194 -0.299 0.934 81 86 52
306.2184 356.4554 1.8283 -0.198 -0.300 0.933 95 100 66
306.8593 355.7986 1.7535 -0.198 -0.300 0.933 100 106 72
307.4995 355.1425 1.6788 -0.198 -0.300 0.933 100 106 72
310.3350 345.9817 1.0087 0.176 -0.974 0.139 100 104 78
311.7301 346.6742 0.9610 0.188 -0.937 0.295 101 103 80
401.9949 379.7790 -2.7612 0.344 -0.835 0.429 87 65 78
401.1271 367.1064 -3.3953 -0.747 -0.665 -0.011 76 57 71
400.8769 365.1876 -3.4841 -0.751 -0.660 0.026 78 62 75
400.7588 348.0043 -4.4087 -0.770 0.063 0.635 92 74 96
395.0476 329.8554 -5.0438 -0.796 0.070 0.602 65 48 67
394.6434 285.1701 -7.4424 -0.151 -0.681 0.716 69 52 70
395.2679 284.6281 -7.5099 -0.154 -0.682 0.715 83 66 84
396.6188 283.6437 -7.6459 -0.555 -0.718 0.419 108 94 111
395.3123 275.7304 -7.9952 -0.790 -0.267 0.553 66 53 71
390.0329 267.6438 -8.1110 -0.759 -0.433 0.486 97 84 102
391.3589 259.5254 -8.6323 -0.589 -0.650 -0.481 77 65 77
392.6929 259.6829 -8.7053 -0.565 -0.664 -0.490 82 70 80
393.1414 258.0563 -8.8209 -0.909 -0.392 0.139 107 95 105
385.9711 247.9618 -8.9301 -0.605 -0.794 -0.070 87 75 85
397.3161 256.6418 -9.1528 -0.517 -0.773 -0.368 76 64 74
386.1906 245.2940 -9.0882 -0.484 -0.827 0.288 89 78 86
386.3098 244.4518 -9.1411 -0.476 -0.825 0.305 68 57 65
387.5069 244.5130 -9.2110 -0.513 -0.805 0.298 78 65 74
388.1304 244.0935 -9.2718 -0.513 -0.805 0.298 108 95 104
390.4572 244.1445 -9.4113 -0.048 -0.999 0.020 121 108 117
387.1121 235.0236 -9.7015 -0.968 -0.249 -0.031 76 59 67
387.4201 234.3770 -9.7553 -0.953 -0.229 -0.197 104 87 95
387.4781 233.5345 -9.8046 -0.946 -0.187 -0.263 110 90 99
387.6418 232.7791 -9.8555 -0.946 -0.187 -0.263 115 98 106
386.1558 226.4138 -10.1099 -0.149 -0.392 0.908 86 69 77
387.6462 221.6506 -10.4593 -0.840 -0.190 -0.509 116 101 108
380.1290 212.8445 -10.4774 -0.905 -0.361 -0.224 97 83 98
380.8368 212.5717 -10.5354 -0.901 -0.371 -0.226 90 76 91
379.4649 204.6387 -10.8818 -0.898 -0.088 -0.430 115 104 118
378.5317 201.0025 -11.0219 -0.885 -0.063 -0.461 105 94 108
374.0330 192.1940 -11.2246 -0.998 0.031 0.057 126 112 125
373.8476 186.5708 -11.5182 -0.645 -0.422 0.637 84 65 85
376.3705 186.8403 -11.6578 -0.607 -0.458 0.649 85 66 86
346.7842 126.3194 -13.1314 0.180 -0.514 0.839 76 63 83
374.8747 123.8139 -14.9843 0.143 -0.934 -0.328 67 63 80
102.2791 395.1990 15.7030 -0.955 -0.217 -0.200 34 33 38
170.8783 475.2143 15.6062 -0.665 -0.745 -0.053 93 86 94
236.1118 454.4256 10.4513 -0.615 -0.015 0.789 34 36 35
235.9549 446.3094 10.0369 -0.604 -0.044 0.796 50 52 51
235.9669 442.6910 9.8471 -0.604 -0.044 0.796 56 61 56
236.1746 439.8710 9.6867 -0.605 -0.047 0.794 75 80 73
235.9615 415.2266 8.4121 -0.869 -0.452 0.202 98 103 96
237.5064 414.2900 8.2668 -0.598 -0.693 0.402 68 73 66
243.9696 411.4696 7.7163 -0.167 -0.240 0.956 55 61 51
243.2426 403.1252 7.3256 -0.331 -0.120 0.936 52 55 46
244.3477 400.8742 7.1390 -0.553 -0.550 0.627 41 44 35
253.9253 399.4783 6.4687 -0.266 -0.602 0.753 43 46 33
260.3666 396.6344 5.9184 -0.392 -0.781 -0.487 51 53 48
254.6003 378.1116 5.3100 0.100 -0.539 0.836 50 53 47
263.7286 378.3763 4.7545 -0.055 -0.863 0.503 47 50 43
267.5463 374.1189 4.2939 -0.125 -0.481 0.868 74 75 69
282.0335 362.4839 2.7824 -0.999 0.028 -0.023 48 50 47
282.0865 360.5681 2.6789 -0.998 0.056 -0.034 51 53 52
286.9874 357.0075 2.1872 -0.649 -0.396 0.650 67 67 65
287.4785 356.0716 2.1077 -0.649 -0.396 0.650 71 72 67
287.7467 354.6855 2.0185 -0.211 -0.642 0.737 76 77 72
289.2679 355.8567 1.9848 -0.203 -0.642 0.739 81 82 76
290.3513 356.1242 1.9312 -0.177 -0.652 0.737 68 69 64
304.2917 354.8996 0.9978 -0.248 -0.329 0.911 68 72 49
305.4892 351.6423 0.7529 -0.631 -0.231 0.741 88 91 68
302.6697 341.2444 0.3853 -0.704 -0.318 0.635 92 97 68
310.5926 350.0857 0.3532 0.423 -0.906 -0.009 81 86 56
310.6428 346.6693 0.1716 0.159 -0.974 0.159 82 87 57
398.2000 313.1783 -7.0395 -0.998 0.005 0.062 72 59 79
397.7119 285.8677 -8.4363 -0.990 -0.123 -0.067 99 84 103
396.0006 277.5048 -8.7666 -0.993 0.078 -0.093 59 46 66
390.7744 261.0726 -9.2994 -0.587 -0.632 -0.506 68 58 69
390.1590 259.5097 -9.3427 -0.595 -0.628 -0.502 73 63 72
393.0149 259.9926 -9.4955 -0.565 -0.664 -0.490 84 72 82
393.3533 258.2669 -9.6068 -0.912 -0.383 0.145 110 98 108
397.5471 256.8624 -9.9418 -0.517 -0.773 -0.368 79 69 78
385.1686 243.5168 -9.8672 -0.511 -0.755 0.411 65 54 62
386.6195 243.7936 -9.9432 -0.502 -0.758 0.415 68 54 61
387.3658 243.4790 -10.0062 -0.488 -0.818 0.304 86 71 78
388.5448 243.5216 -10.0775 -0.498 -0.818 0.289 97 82 89
389.2726 243.1886 -10.1403 -0.480 -0.825 0.299 102 87 94
389.8582 242.7383 -10.2004 0.065 -0.992 0.110 101 86 93
386.4848 238.1424 -10.2302 -0.993 -0.025 0.118 97 82 89
387.0136 237.6632 -10.2882 -0.994 -0.022 0.111 96 81 88
387.4187 236.1830 -10.3908 -0.987 -0.068 0.144 60 43 51
388.0343 233.1043 -10.5901 -0.947 -0.184 -0.264 98 81 89
387.9775 232.1771 -10.6350 -0.946 -0.187 -0.263 93 76 84
383.8966 228.1060 -10.5932 -0.992 -0.010 -0.128 84 67 75
386.1232 224.7025 -10.9100 -0.366 -0.330 0.870 96 79 87
381.0083 218.3335 -10.9238 -0.716 -0.200 -0.669 117 100 108
382.2416 218.4426 -10.9950 -0.799 -0.224 -0.558 112 95 101
380.1474 205.8817 -11.5208 -0.906 -0.081 -0.416 116 105 119
379.9224 204.2104 -11.5941 -0.900 -0.085 -0.428 120 108 122
379.7448 203.3355 -11.6288 -0.888 -0.070 -0.454 89 77 91
380.0378 202.7915 -11.6755 -0.895 -0.063 -0.442 73 61 75
375.2372 195.1243 -11.7768 -0.953 -0.009 -0.303 132 118 131
374.9220 194.2005 -11.8054 -0.948 0.008 -0.317 139 125 138
374.1655 192.2835 -11.8584 -1.000 -0.014 -0.015 120 106 119
374.1759 191.5912 -11.8952 -1.000 -0.014 -0.015 126 112 125
373.1523 188.1557 -12.0109 -0.650 -0.436 0.622 89 72 88
373.5873 183.7238 -12.2697 -0.594 -0.527 0.608 74 55 75
373.9348 183.2811 -12.3145 -0.594 -0.527 0.608 78 59 79
377.9554 185.1508 -12.4675 -0.467 -0.678 0.568 82 63 83
396.2284 193.0937 -13.1921 -0.142 -0.652 0.744 96 87 104
379.5524 180.8535 -12.7917 -0.562 -0.742 0.365 47 36 53
380.0120 180.4815 -12.8398 -0.562 -0.742 0.365 48 37 54
368.5604 158.7983 -13.2587 -0.379 -0.402 0.833 95 80 98
370.7108 159.4043 -13.3612 -0.361 -0.423 0.831 85 71 88
363.0983 151.5094 -13.2990 0.185 -0.717 -0.672 113 102 116
366.8018 152.9192 -13.4563 0.205 -0.713 -0.671 106 95 109
377.3340 149.2047 -14.3073 0.373 -0.924 0.080 75 64 81
361.1991 130.9654 -14.2542 -0.126 -0.975 -0.182 84 71 91
170.7528 475.3913 14.6873 -0.665 -0.745 -0.053 69 62 70
234.9970 446.7960 9.1625 -0.487 -0.067 0.871 47 49 48
235.0770 443.4090 8.9871 -0.504 -0.063 0.861 66 68 66
235.8114 415.1158 7.5176 -0.869 -0.452 0.202 67 72 65
237.2918 413.9519 7.3649 -0.598 -0.693 0.402 81 86 80
238.3258 414.4003 7.3217 -0.616 -0.668 -0.417 73 78 72
244.6814 399.4277 6.1644 -0.553 -0.550 0.627 34 36 32
244.5635 390.6386 5.7299 -0.693 -0.459 0.555 31 33 29
253.5185 398.6096 5.5611 -0.257 -0.605 0.753 42 44 40
257.9966 380.3277 4.3569 0.005 -0.880 0.476 47 49 45
259.3200 381.4537 4.3293 -0.016 -0.887 0.461 47 49 46
260.0652 378.5956 4.1382 -0.048 -0.866 0.498 48 50 47
260.9897 378.6406 4.0816 -0.074 -0.947 0.311 44 46 43
261.8661 378.5528 4.0215 -0.074 -0.947 0.311 41 43 40
262.6378 378.1879 3.9540 -0.050 -0.866 0.498 41 43 40
263.5183 378.1024 3.8937 -0.050 -0.866 0.498 41 43 40
275.3451 366.5331 2.5596 0.522 -0.740 0.426 48 50 45
282.2957 363.2627 1.9530 -0.999 0.023 -0.028 45 45 46
287.6887 354.7570 1.1822 -0.147 -0.696 0.703 71 73 70
288.8433 355.1827 1.1301 -0.182 -0.634 0.752 82 84 81
289.6742 354.9438 1.0652 -0.202 -0.638 0.743 65 67 64
301.7415 352.1570 0.1575 0.106 -0.424 0.900 53 55 40
304.1056 352.8937 0.0441 -0.213 -0.298 0.931 74 76 61
301.5146 341.0553 -0.3864 -0.701 -0.319 0.637 78 81 62
303.8180 339.9973 -0.5861 0.508 -0.859 -0.056 57 63 34
307.3669 342.8193 -0.6700 0.499 -0.848 -0.180 69 75 47
397.3767 339.7944 -6.5479 -0.885 0.138 0.444 93 75 92
396.2689 313.7882 -7.7852 -0.584 -0.570 -0.578 58 44 61
397.7580 285.9527 -9.2798 -0.990 -0.123 -0.067 67 54 72
391.9951 263.2148 -10.0566 -0.925 -0.279 0.260 61 51 62
390.6420 260.9843 -10.0827 -0.922 -0.329 0.205 63 53 62
393.2539 258.2073 -10.3885 -0.912 -0.383 0.145 79 67 77
393.5563 257.4652 -10.4451 -0.912 -0.383 0.145 79 69 78
391.3572 254.5728 -10.4506 -0.968 -0.196 0.154 79 69 78
384.7457 243.1840 -10.6028 -0.504 -0.836 0.216 74 63 71
386.3342 243.5768 -10.6841 -0.502 -0.758 0.415 69 54 61
387.5160 243.6248 -10.7568 -0.476 -0.828 0.297 63 48 55
388.7939 243.7484 -10.8319 -0.511 -0.812 0.282 68 53 60
389.2351 243.1778 -10.8887 -0.483 -0.824 0.295 81 66 73
386.4161 237.1973 -11.0101 -0.993 -0.025 0.118 73 58 65
385.2008 230.0100 -11.2942 -0.999 -0.020 -0.033 68 51 59
383.9878 228.1917 -11.3085 -0.992 -0.010 -0.128 73 56 64
382.3829 226.0803 -11.3126 -0.886 -0.206 0.416 80 63 71
383.8020 226.3295 -11.3903 -0.842 -0.244 0.482 83 66 74
383.3699 225.1435 -11.4225 -0.369 -0.365 0.855 70 53 61
383.9830 224.7682 -11.4803 -0.273 -0.362 0.891 66 49 57
384.4508 224.2816 -11.5346 -0.273 -0.362 0.891 72 55 63
385.6209 224.3315 -11.6065 -0.360 -0.332 0.872 89 72 80
381.8431 218.1541 -11.6768 -0.769 -0.257 -0.586 108 91 99
383.1482 216.6874 -11.8336 -0.803 -0.248 -0.542 119 105 118
380.4200 206.0793 -12.1935 -0.968 -0.077 -0.239 95 84 98
379.9132 203.4569 -12.2932 -0.989 0.124 0.081 71 60 74
379.8073 202.6353 -12.3277 -0.989 0.124 0.081 65 54 68
379.3996 201.6091 -12.3534 -0.989 0.122 0.087 75 64 78
378.3270 200.1311 -12.3595 -0.892 -0.058 -0.449 84 73 87
375.4599 195.9923 -12.3853 -0.980 -0.002 -0.201 108 94 107
375.3709 195.2166 -12.4186 -0.959 -0.063 -0.275 122 108 121
375.7927 194.7886 -12.4670 -0.949 0.005 -0.316 125 111 124
375.8013 194.0841 -12.5029 -0.949 0.005 -0.316 121 107 120
374.7957 186.5028 -12.8202 0.324 -0.729 0.604 68 46 67
373.8284 183.8744 -12.8909 -0.626 -0.554 0.548 67 48 68
377.5699 184.9052 -13.0770 -0.467 -0.678 0.568 77 58 78
376.1014 180.0410 -13.2282 -0.853 -0.519 -0.049 76 65 82
378.4438 180.8247 -13.3378 -0.547 -0.741 0.390 67 56 73
379.3370 180.7175 -13.4000 -0.562 -0.742 0.365 51 40 57
367.5800 138.9974 -14.7502 -0.526 -0.850 -0.022 80 66 91
361.5063 131.0838 -14.7618 -0.153 -0.973 -0.176 87 74 94
361.1805 129.5870 -14.8163 0.038 -0.870 -0.491 79 66 86
370.6464 120.8558 -15.8575 -0.724 -0.657 -0.208 67 63 80
112.7055 263.9897 7.3016 0.261 -0.905 0.337 38 38 40
169.5605 473.2356 13.7238 -0.103 -0.882 0.459 55 45 54
170.4762 473.9895 13.7008 -0.474 -0.872 0.125 54 46 55
211.1012 378.4984 6.4522 -0.427 -0.377 0.822 55 48 56
212.5574 381.3073 6.4935 -0.456 -0.535 0.711 57 51 58
233.5368 445.3000 8.2246 -0.622 -0.032 0.782 37 39 38
234.0156 439.7905 7.9274 -0.498 -0.066 0.865 84 86 85
235.5754 414.6966 6.6138 -0.860 -0.483 0.162 43 48 42
237.0775 413.6143 6.4641 -0.598 -0.693 0.402 64 69 64
237.8752 413.2379 6.3942 -0.606 -0.671 -0.427 60 65 59
248.9732 396.2763 4.8549 0.340 -0.891 0.301 25 27 24
258.9164 380.6519 3.4550 -0.057 -0.868 0.494 42 44 43
260.7843 378.3749 3.2239 -0.074 -0.947 0.311 39 40 41
261.6600 378.2867 3.1628 -0.074 -0.947 0.311 36 37 38
264.0034 374.9283 2.8486 -0.551 -0.291 0.782 42 44 39
269.0659 360.6703 1.8313 0.524 -0.720 0.454 45 47 45
279.3385 359.0654 1.0875 0.249 -0.754 0.608 44 44 45
282.1632 359.1294 0.9074 -0.989 -0.145 -0.024 41 41 41
288.3828 354.4351 0.2772 -0.202 -0.638 0.743 67 69 68
289.1686 354.1087 0.2105 -0.202 -0.638 0.743 59 60 61
289.8413 353.5537 0.1400 -0.203 -0.642 0.739 48 49 51
291.4770 353.0240 0.0083 -0.196 -0.652 0.733 67 69 64
292.5019 353.1647 -0.0513 -0.049 -0.710 0.702 72 75 67
293.2240 352.7039 -0.1204 -0.024 -0.741 0.671 66 68 61
301.8571 345.3402 -1.0361 -0.259 -0.205 0.944 70 72 58
301.3452 342.6482 -1.1330 -0.561 -0.418 0.715 76 78 64
302.3187 340.9228 -1.2795 -0.572 -0.413 0.709 75 81 57
308.8849 343.9025 -1.5614 0.499 -0.848 -0.180 54 60 36
345.6374 380.5558 -2.1743 0.463 -0.863 -0.201 136 122 138
397.1475 356.1478 -6.6944 -0.862 -0.132 0.489 85 64 79
398.2130 354.3433 -6.8507 0.271 -0.940 -0.209 76 53 69
403.3111 325.4011 -8.5797 -0.997 0.035 -0.070 71 57 74
402.1905 322.8387 -8.6309 -0.997 0.032 -0.073 66 52 69
397.5923 285.8351 -10.1205 -0.983 0.029 -0.180 87 74 92
389.9472 260.3969 -10.8537 -0.780 -0.313 0.542 57 47 56
392.7825 259.8446 -11.0642 -0.782 -0.622 0.041 72 62 71
393.4608 258.4137 -11.1774 -0.736 -0.650 0.187 68 58 67
394.2916 257.1241 -11.2936 -0.815 -0.580 -0.004 82 72 81
385.7043 244.0096 -11.3702 -0.578 -0.533 0.618 86 75 83
386.1587 243.4517 -11.4267 -0.578 -0.533 0.618 79 64 71
387.5421 243.6675 -11.5060 -0.586 -0.510 0.629 80 65 72
388.3189 243.3758 -11.5704 -0.243 -0.543 0.804 104 89 96
388.9813 242.9888 -11.6321 -0.243 -0.543 0.804 119 104 111
384.8695 234.1703 -11.7915 -0.990 -0.136 -0.022 121 104 112
385.2242 230.0433 -12.0139 -0.999 -0.020 -0.033 72 55 63
384.5923 228.6791 -12.0388 -0.995 -0.034 -0.089 75 60 67
381.9722 225.7741 -12.0092 -0.890 -0.224 0.397 79 62 70
382.8652 225.6163 -12.0748 -0.832 -0.220 0.510 77 60 68
383.1306 224.1253 -12.1640 -0.829 -0.212 0.518 71 54 62
383.9730 223.9279 -12.2282 -0.895 -0.205 0.396 76 59 67
385.1809 224.0078 -12.3027 -0.892 0.067 0.447 81 64 72
382.2945 218.5026 -12.3814 -0.751 -0.227 -0.620 100 83 91
382.1246 215.9390 -12.4943 -0.780 -0.265 -0.566 108 94 107
380.1984 204.4125 -12.9263 -0.972 -0.033 -0.234 83 72 86
380.2322 203.6833 -12.9637 -0.972 -0.033 -0.234 72 61 75
378.6459 200.3536 -13.0217 -0.892 -0.058 -0.449 67 56 70
375.9672 196.3391 -13.0419 -0.980 -0.001 -0.200 72 58 71
375.9749 195.6270 -13.0768 -0.980 -0.001 -0.200 79 65 78
376.5472 195.2984 -13.1298 -0.953 -0.062 -0.297 91 77 90
376.6575 192.5392 -13.2703 -0.824 -0.199 -0.530 83 69 82
374.3850 184.2252 -13.5246 -0.597 -0.501 0.626 76 57 77
373.8354 183.2130 -13.5378 -0.633 -0.551 0.543 81 62 82
377.1853 184.6602 -13.6852 -0.467 -0.678 0.568 87 68 88
367.4197 153.7589 -14.5448 0.216 -0.717 -0.663 99 89 100
378.3780 149.6819 -15.4525 -0.918 -0.042 0.394 61 49 69
402.3158 159.0343 -16.5532 0.372 -0.879 0.298 79 65 90
366.0271 135.8731 -15.3186 -0.913 -0.361 0.189 83 70 90
361.3915 129.6613 -15.3181 0.218 -0.844 -0.490 84 69 90
363.6682 129.7512 -15.4614 0.213 -0.844 -0.493 77 64 82
372.2284 121.4405 -16.4182 -0.811 -0.580 0.081 67 63 80
131.8978 410.3829 12.3692 0.169 -0.982 0.088 52 46 58
210.2200 378.5367 5.7158 -0.585 -0.150 0.797 60 50 61
235.4401 414.6385 5.7216 -0.860 -0.483 0.162 31 36 29
236.8635 413.2771 5.5644 -0.598 -0.693 0.402 30 35 28
237.2436 411.4389 5.4541 -0.472 -0.365 0.802 30 35 28
240.8772 414.5851 5.3597 -0.130 -0.403 0.906 35 40 34
243.7601 408.9182 4.9065 -0.390 -0.497 0.775 24 29 23
245.5145 411.6565 4.9174 -0.416 -0.474 0.776 28 33 27
261.5691 380.7218 2.4226 -0.028 -0.905 0.424 32 34 32
262.4878 380.7300 2.3622 -0.113 -0.931 0.347 29 31 30
264.0353 379.9777 2.2251 -0.006 -0.915 0.403 30 32 31
262.7834 363.0490 1.5233 -0.243 -0.321 0.915 37 39 34
268.4131 359.3605 0.9803 0.512 -0.728 0.455 37 39 36
282.0957 371.6027 0.6431 0.351 -0.432 0.831 38 38 38
288.6652 353.2775 -0.6404 -0.202 -0.638 0.743 47 49 48
289.3414 352.7337 -0.7103 -0.203 -0.642 0.739 38 40 39
290.0204 352.1964 -0.7801 -0.199 -0.657 0.727 53 55 54
290.9792 352.2168 -0.8425 -0.196 -0.652 0.733 61 63 60
292.7484 351.9489 -0.9719 -0.024 -0.741 0.671 51 53 48
293.5972 351.7397 -1.0377 -0.017 -0.740 0.673 49 51 46
299.8026 343.5082 -1.8294 -0.272 -0.199 0.941 54 56 43
300.2445 342.5561 -1.9027 -0.272 -0.199 0.941 60 62 49
300.9173 342.0289 -1.9716 -0.724 -0.351 0.594 66 68 54
302.0760 342.3798 -2.0320 0.088 -0.922 -0.377 74 76 61
303.1136 342.5045 -2.0948 0.088 -0.922 -0.377 78 83 61
313.7549 337.1505 -3.0463 0.523 -0.848 0.086 139 130 132
397.4621 327.2844 -9.0371 -0.481 -0.719 -0.502 81 64 82
402.3452 327.1516 -9.3660 -0.717 -0.576 -0.393 80 66 83
397.6103 285.8932 -10.9650 -0.996 0.062 -0.066 116 103 120
396.8678 284.0410 -11.0017 -0.997 0.058 -0.059 109 96 114
396.9755 283.0076 -11.0567 -0.992 0.020 -0.121 103 90 108
397.0694 281.9661 -11.1112 -0.992 0.024 -0.126 64 52 72
396.8954 280.6781 -11.1594 -0.991 0.021 -0.130 88 76 96
392.6468 257.7335 -11.9418 -0.728 -0.658 0.193 75 65 74
392.9693 257.0101 -11.9966 -0.750 -0.595 0.288 79 72 80
390.4827 253.8709 -11.9777 -0.936 -0.329 0.122 85 78 86
387.4579 242.6836 -12.2962 -0.131 -0.568 0.813 113 98 105
387.9310 242.1432 -12.3525 -0.136 -0.571 0.809 125 110 117
388.7203 241.8636 -12.4177 -0.136 -0.571 0.809 112 97 104
382.3193 221.8374 -12.9225 -0.818 -0.250 -0.518 77 60 68
382.5492 221.1797 -12.9682 -0.818 -0.250 -0.518 86 69 77
382.8354 220.5670 -13.0155 -0.788 -0.235 -0.569 98 81 89
383.0126 219.8741 -13.0594 -0.788 -0.237 -0.568 96 80 85
382.6104 218.7497 -13.0849 -0.772 -0.256 -0.581 91 74 81
381.9601 215.8264 -13.1774 -0.800 -0.250 -0.545 106 90 104
376.1453 196.4623 -13.6903 -0.976 -0.002 -0.218 82 68 81
375.8593 195.5506 -13.7136 -0.957 -0.065 -0.283 85 71 84
363.9814 181.5013 -13.5795 0.285 -0.744 0.605 105 88 106
375.6605 184.3636 -14.2189 0.199 -0.825 0.529 93 77 91
366.2553 155.3064 -14.9437 -0.895 -0.372 -0.246 95 85 96
377.6766 148.7994 -16.0003 0.214 -0.731 0.648 72 58 78
372.2023 121.4085 -16.9077 -0.811 -0.580 0.081 69 62 80
170.2495 474.5981 11.8736 -0.303 -0.868 0.393 59 49 60
210.1669 375.4750 4.7875 -0.488 -0.331 0.808 62 55 63
234.9957 416.7277 4.9453 -0.801 -0.486 0.349 34 39 33
235.4638 415.1526 4.8439 -0.829 -0.476 0.294 32 37 30
236.0611 414.0568 4.7550 -0.829 -0.476 0.294 32 37 30
236.9109 413.8649 4.6893 -0.596 -0.702 0.390 33 38 31
237.5147 412.8045 4.6016 -0.868 -0.457 0.197 34 39 32
238.0934 411.6662 4.5121 -0.868 -0.457 0.197 34 39 33
258.2964 377.1252 1.6189 0.331 -0.925 0.188 32 34 33
260.9941 379.4813 1.5418 -0.032 -0.991 0.128 28 30 29
262.2699 380.4344 1.4981 -0.113 -0.931 0.347 25 27 26
262.8791 379.6317 1.4215 -0.006 -0.915 0.403 25 27 26
263.7840 379.5984 1.3591 -0.006 -0.915 0.403 25 27 26
281.4024 370.2788 -0.2411 0.349 -0.433 0.831 32 32 32
286.9427 351.8798 -1.4305 -0.123 -0.709 0.694 35 37 36
288.7673 351.7634 -1.5585 -0.147 -0.696 0.703 28 30 29
289.5349 351.4086 -1.6260 -0.199 -0.657 0.727 60 62 61
290.4836 351.4131 -1.6897 -0.196 -0.652 0.733 55 57 54
291.2213 350.9948 -1.7579 -0.207 -0.640 0.740 30 32 29
297.6998 345.1118 -2.4553 -0.018 -0.320 0.947 43 45 34
297.6393 343.2159 -2.5353 -0.268 -0.195 0.944 38 40 29
298.0800 342.2620 -2.6073 -0.268 -0.195 0.944 38 40 29
298.4981 341.2723 -2.6794 -0.272 -0.199 0.941 41 43 32
303.2224 342.8552 -2.9274 0.088 -0.922 -0.377 63 68 47
307.7288 343.9079 -3.1842 0.176 -0.895 -0.411 71 76 53
313.8435 337.4356 -3.8832 0.523 -0.848 0.082 128 122 122
337.5916 371.4349 -3.9743 0.443 -0.891 -0.100 122 110 122
342.5905 377.7649 -4.0302 0.258 -0.941 -0.218 122 108 123
393.8296 346.2010 -8.8817 -0.798 -0.036 0.602 77 56 71
390.5836 323.7849 -9.6575 -0.943 -0.302 -0.140 87 70 88
401.9150 328.1238 -10.2282 -0.633 -0.189 0.751 86 72 89
401.9080 326.7402 -10.2892 -0.511 -0.121 0.851 86 72 89
402.3357 323.1202 -10.4786 -0.997 0.032 -0.073 101 87 104
402.2803 321.7144 -10.5372 -0.997 0.030 -0.073 96 82 99
399.7221 308.5743 -10.9478 -0.906 -0.057 -0.420 64 49 68
398.5794 302.3885 -11.1453 -0.832 -0.047 -0.553 94 77 95
396.3489 277.9760 -12.0781 -0.993 0.078 -0.093 152 140 162
389.6881 259.2081 -12.4621 -0.958 -0.257 0.126 63 53 62
389.9022 258.3844 -12.5131 -0.958 -0.257 0.126 56 46 55
392.5172 257.6477 -12.7219 -0.728 -0.658 0.193 72 62 71
382.4389 240.3880 -12.8088 -0.141 -0.572 0.808 64 49 56
386.9549 241.3587 -13.0699 -0.136 -0.571 0.809 94 79 86
387.7411 241.0795 -13.1352 -0.136 -0.571 0.809 107 92 99
385.1979 231.8060 -13.3754 -0.976 -0.127 -0.178 88 71 79
385.5468 231.2025 -13.4256 -0.999 -0.015 -0.037 90 73 81
384.1886 224.9644 -13.6109 -0.807 -0.285 -0.517 77 60 68
382.1929 222.5891 -13.5819 -0.757 -0.290 -0.586 84 67 75
382.4690 221.9634 -13.6282 -0.757 -0.290 -0.586 89 72 80
382.7443 221.3393 -13.6745 -0.757 -0.290 -0.586 100 85 92
383.2532 220.8939 -13.7285 -0.788 -0.235 -0.569 109 93 102
383.4282 220.1977 -13.7712 -0.788 -0.237 -0.568 106 89 95
381.8517 218.1911 -13.7540 -0.872 -0.271 0.408 97 82 89
381.0575 216.7826 -13.7630 -0.864 -0.275 0.422 90 74 84
381.6523 215.6076 -13.8552 -0.870 -0.258 0.420 80 64 77
381.7080 214.0445 -13.9283 -0.942 -0.225 -0.248 76 62 77
381.8796 213.3731 -13.9696 -0.942 -0.225 -0.248 74 60 75
382.2513 212.8501 -14.0179 -0.944 -0.225 -0.240 78 64 79
379.2794 203.0274 -14.2535 -0.983 0.127 0.133 63 52 66
376.5172 197.4398 -14.3153 -0.946 -0.066 -0.316 74 62 74
376.2703 196.5493 -14.3382 -0.935 -0.057 -0.351 80 66 79
376.2543 195.8197 -14.3695 -0.792 -0.205 -0.575 80 66 79
374.7105 183.7606 -14.8005 0.199 -0.825 0.529 112 96 109
397.7122 156.2381 -17.5708 0.382 -0.901 0.206 87 73 98
360.7047 129.7748 -16.2522 -0.120 -0.667 -0.735 87 74 94
372.1516 121.3672 -17.3962 -0.821 -0.563 0.096 45 38 56
209.0057 374.2868 4.0261 -0.585 -0.150 0.797 58 48 57
232.8112 419.1111 4.2929 -0.793 -0.496 0.355 51 56 49
233.4309 418.0583 4.2058 -0.793 -0.496 0.355 44 49 42
234.0488 417.0085 4.1189 -0.793 -0.496 0.355 39 44 37
235.2484 414.8068 3.9433 -0.834 -0.468 0.293 38 43 36
235.8769 413.8240 3.8585 -0.829 -0.476 0.294 38 43 36
236.7013 413.5433 3.7901 -0.596 -0.702 0.390 42 47 40
238.0045 411.7677 3.6254 -0.606 -0.693 0.390 34 39 33
260.6265 378.7873 0.6755 -0.050 -0.991 0.123 26 28 27
262.6292 379.2534 0.5579 -0.006 -0.915 0.403 22 24 23
266.0663 367.2156 -0.1881 -0.270 -0.926 0.265 29 31 26
288.7038 400.5515 -0.3281 -0.281 -0.827 0.487 28 30 27
282.5128 348.6991 -2.1013 -0.349 -0.534 0.770 30 32 31
281.2596 344.2107 -2.2055 -0.382 -0.537 0.753 32 34 33
288.4163 351.2415 -2.3985 -0.215 -0.651 0.728 23 25 24
289.0514 350.6241 -2.4682 -0.199 -0.657 0.727 57 59 58
289.9902 350.6130 -2.5331 -0.196 -0.652 0.733 48 50 47
290.5828 349.9117 -2.6035 -0.268 -0.535 0.801 20 22 19
298.3293 342.8838 -3.4328 -0.685 -0.429 0.589 28 29 21
299.0027 342.3590 -3.5013 -0.651 -0.459 0.604 33 34 26
299.5311 341.5699 -3.5709 -0.731 -0.350 0.586 38 40 29
308.0952 344.7036 -4.0256 0.473 -0.876 -0.098 71 76 54
309.0950 344.7211 -4.0935 0.128 -0.909 -0.396 56 61 39
405.3798 395.3094 -8.5546 -0.681 -0.588 0.437 59 39 51
396.0506 328.6190 -10.7414 -0.751 -0.377 -0.543 119 102 120
402.1015 321.5846 -11.4547 -0.714 -0.071 0.696 94 80 97
399.9164 301.3208 -12.1637 -0.999 -0.001 -0.053 90 73 91
399.6641 297.4087 -12.3122 -0.969 0.004 -0.246 77 60 78
393.8444 269.1952 -13.1088 -0.941 -0.144 -0.305 84 73 87
396.3209 267.1925 -13.3636 -0.978 0.019 -0.206 72 62 71
392.3877 257.5620 -13.5020 -0.728 -0.658 0.193 66 56 65
385.8166 243.2302 -13.6587 -0.887 -0.371 -0.273 61 46 53
386.0100 242.4565 -13.7047 -0.589 -0.698 0.406 57 42 49
385.9117 231.5059 -14.1621 -1.000 0.008 -0.012 71 54 64
385.9048 230.6230 -14.1991 -1.000 0.008 -0.012 73 56 66
385.6317 229.5358 -14.2264 -1.000 -0.013 -0.023 79 62 72
384.8821 226.3642 -14.3094 -0.896 -0.226 -0.382 91 75 85
382.7169 223.0026 -14.3034 -0.874 -0.243 0.420 103 87 97
382.8923 222.2981 -14.3453 -0.874 -0.243 0.420 108 92 102
383.3481 221.8093 -14.3973 -0.869 -0.249 0.427 124 108 118
384.5889 221.9150 -14.4779 -0.970 -0.090 -0.226 132 116 126
382.3185 218.5513 -14.4647 -0.870 -0.258 0.420 111 95 105
381.6602 217.2422 -14.4751 -0.882 -0.262 0.392 102 86 97
381.8430 216.5664 -14.5163 -0.882 -0.262 0.392 83 70 80
382.0705 215.9262 -14.5590 -0.867 -0.373 0.331 78 64 77
381.6058 213.9778 -14.6097 -0.851 -0.219 0.478 90 76 89
381.9134 213.4058 -14.6550 -0.856 -0.216 0.469 92 78 91
382.0643 212.7216 -14.6944 -0.856 -0.216 0.469 102 88 101
382.9306 212.5583 -14.7608 -0.877 -0.365 0.312 102 88 101
383.0694 211.8685 -14.7995 -0.875 -0.368 0.315 104 90 103
381.8754 210.2242 -14.7873 -0.873 -0.371 0.316 114 100 113
380.0175 206.5789 -14.8144 -0.982 0.118 0.150 92 80 94
378.5196 203.2505 -14.8527 -0.981 0.067 0.180 67 54 71
376.5083 197.4362 -14.9611 -0.940 -0.069 -0.334 99 85 99
424.3005 208.8102 -17.7577 0.385 -0.681 0.622 123 110 120
375.9619 148.4602 -16.9996 -0.978 -0.177 0.106 64 52 72
371.9355 145.9874 -16.8282 0.191 -0.729 0.658 81 67 90
375.6660 147.2743 -17.0295 0.077 -0.753 0.654 87 73 98
170.5486 471.8546 9.8674 -0.418 -0.799 0.432 47 36 50
231.8113 429.6108 3.8811 -0.774 -0.603 0.190 76 81 77
232.2951 427.9413 3.7798 -0.451 -0.881 0.139 46 51 45
232.7154 426.0508 3.6741 -0.932 -0.345 0.114 44 49 43
233.0464 423.8484 3.5619 -0.927 -0.358 0.109 45 50 44
235.7231 413.6992 2.9649 -0.594 -0.700 0.396 44 49 43
236.2750 412.4526 2.8759 -0.609 -0.694 0.384 49 54 48
236.9363 411.6034 2.7954 -0.604 -0.691 0.397 43 48 42
237.6249 410.8555 2.7171 -0.618 -0.685 0.385 33 38 32
252.6696 376.9664 0.2968 -0.318 -0.784 -0.532 36 38 35
253.0895 375.6686 0.2151 -0.322 -0.773 -0.546 36 38 35
253.8744 375.3889 0.1489 -0.322 -0.773 -0.546 36 38 35
255.8329 375.8794 0.0320 -0.243 -0.794 -0.557 34 36 35
258.5184 378.2811 -0.0586 0.317 -0.908 0.273 34 36 35
260.5478 378.8564 -0.1771 -0.022 -0.903 0.428 30 32 31
262.3323 378.7520 -0.3060 -0.022 -0.903 0.428 26 28 27
266.7208 312.6990 -3.2815 0.031 -0.691 0.722 37 39 38
287.8771 350.3400 -3.2384 -0.260 -0.557 0.789 28 30 29
288.5578 349.8184 -3.3070 -0.335 -0.569 0.751 27 29 28
289.4989 349.8164 -3.3728 -0.196 -0.652 0.733 29 31 28
290.0030 348.9438 -3.4433 -0.268 -0.535 0.801 39 41 38
303.1136 344.7256 -4.5296 0.213 -0.958 -0.191 38 40 26
309.3087 345.2460 -4.9413 0.146 -0.903 -0.405 50 55 33
318.7918 344.2606 -5.6435 0.297 -0.954 -0.045 30 24 25
337.5126 371.6051 -5.8463 0.443 -0.891 -0.100 33 21 35
402.3747 393.2248 -9.5035 -0.658 -0.635 0.405 74 52 65
399.1223 351.1801 -10.9752 -0.940 -0.042 0.339 100 82 96
398.7841 349.2599 -11.0292 -0.938 -0.038 0.345 98 80 94
400.7110 325.5648 -12.1213 -0.520 -0.119 0.846 73 59 76
400.3100 303.0028 -13.0049 -1.000 -0.003 -0.021 76 59 77
396.0916 267.0186 -14.1643 -0.981 0.024 -0.192 72 62 71
392.2582 257.4762 -14.2821 -0.728 -0.658 0.193 60 50 58
391.8836 252.1953 -14.4693 0.444 -0.747 0.495 63 51 61
385.4880 244.8588 -14.3190 -0.820 -0.567 -0.086 63 52 60
387.5634 245.6567 -14.4317 -0.809 -0.575 -0.127 65 52 61
385.9818 243.3896 -14.4128 -0.887 -0.371 -0.273 61 46 53
380.6934 238.0558 -14.2589 -0.076 -0.523 0.849 68 53 60
385.4565 232.0425 -14.8346 -0.991 -0.081 -0.109 75 58 68
384.4288 229.4775 -14.8665 -0.989 -0.143 -0.049 69 52 62
384.5433 228.6984 -14.9060 -0.989 -0.143 -0.049 82 65 75
381.5834 225.5265 -14.8274 -0.992 -0.112 -0.054 93 77 87
384.6217 224.4741 -15.0821 -0.885 -0.207 -0.417 104 91 101
384.4010 221.7840 -15.1754 -0.971 -0.092 -0.221 123 110 120
382.0459 218.3572 -15.1494 -0.870 -0.258 0.420 109 96 106
381.4100 217.0653 -15.1572 -0.882 -0.262 0.392 102 89 99
381.5931 216.3901 -15.1972 -0.882 -0.262 0.392 92 79 89
381.8228 215.7519 -15.2391 -0.946 -0.126 -0.299 101 88 98
381.4076 214.6408 -15.2550 -0.935 -0.148 -0.323 115 101 114
381.4477 213.8701 -15.2889 -0.879 -0.370 0.300 117 103 116
381.6173 213.1974 -15.3279 -0.877 -0.367 0.311 110 96 109
381.8607 212.5811 -15.3698 -0.877 -0.367 0.311 113 100 110
382.7435 212.4301 -15.4376 -0.877 -0.365 0.312 117 104 114
382.9846 211.8142 -15.4793 -0.877 -0.365 0.312 122 109 119
380.6139 209.3246 -15.4143 -0.873 -0.357 0.332 127 113 126
379.9069 206.5059 -15.4788 -0.982 0.118 0.150 107 94 111
377.0361 199.2582 -15.5712 -0.983 0.125 0.135 119 106 123
372.3986 145.6832 -17.4120 -0.984 -0.145 -0.103 87 73 98
371.6033 144.7900 -17.3926 -0.990 -0.140 -0.027 87 73 98
361.1710 130.3952 -17.2455 -0.229 -0.874 -0.428 87 74 92
379.4327 136.4914 -18.2748 -0.646 -0.713 0.272 72 59 77
171.1667 470.9851 8.8567 -0.418 -0.799 0.432 70 62 75
172.1717 472.5887 8.8468 -0.540 -0.767 -0.345 91 83 96
172.9684 472.0624 8.7700 -0.540 -0.767 -0.345 79 71 84
230.8631 429.9774 3.0363 -0.764 -0.616 0.190 63 65 62
231.4748 428.7909 2.9472 -0.475 -0.868 0.143 62 64 61
232.1525 427.8698 2.8636 -0.451 -0.881 0.139 37 39 36
232.7474 426.6412 2.7741 -0.771 -0.610 0.184 38 40 37
232.9303 423.8730 2.6547 -0.927 -0.358 0.109 42 44 39
232.8060 416.6373 2.3855 -0.852 -0.428 0.300 49 51 46
235.5121 413.3701 2.0676 -0.594 -0.700 0.396 44 49 43
236.2308 412.7166 1.9914 -0.594 -0.700 0.396 52 57 51
236.9400 412.0326 1.9147 -0.595 -0.700 0.396 47 52 46
237.4170 410.5412 1.8234 -0.618 -0.685 0.385 34 39 33
230.8533 365.1830 0.5472 -0.581 -0.767 0.274 36 38 33
254.1332 381.3579 -0.4866 -0.520 -0.745 -0.417 36 38 35
255.9756 376.5520 -0.8022 -0.312 -0.589 -0.745 39 41 40
258.1120 377.4718 -0.9188 -0.258 -0.799 -0.544 40 42 41
260.3538 378.6206 -1.0340 0.139 -0.741 0.657 38 40 39
289.4429 348.0139 -4.2785 -0.335 -0.569 0.751 28 30 27
290.1927 326.4721 -5.1596 -0.225 -0.500 0.836 34 36 25
292.3870 327.1411 -5.2899 -0.261 -0.407 0.875 34 36 23
302.2276 341.5328 -5.4366 -0.715 -0.237 0.658 42 47 24
308.1825 345.1618 -5.7205 0.176 -0.895 -0.411 63 68 45
337.4730 371.6904 -6.7838 0.443 -0.891 -0.100 34 22 36
231.7534 194.6886 -6.0682 0.054 -0.695 0.717 94 80 95
393.0800 382.6975 -10.3147 -0.701 -0.543 0.461 74 52 65
398.6277 350.6751 -11.9397 -0.913 -0.026 0.408 82 61 76
398.6375 349.1694 -11.9982 -0.933 -0.032 0.359 77 59 73
398.1064 347.0339 -12.0425 -0.941 -0.052 0.334 77 59 73
401.8640 335.2826 -12.7613 -0.752 0.113 0.650 111 94 112
398.1710 324.2176 -12.9239 -0.355 -0.821 -0.446 74 60 77
400.3649 299.4160 -14.0329 -1.000 0.010 -0.006 130 116 133
401.0774 298.9056 -14.1032 -0.999 -0.010 -0.039 121 107 124
401.0917 297.7058 -14.1503 -0.999 -0.010 -0.039 115 101 118
393.1545 261.3319 -14.9836 -0.929 -0.093 -0.357 56 46 57
392.4586 259.7001 -14.9968 -0.930 -0.099 -0.355 55 43 53
393.5854 259.6693 -15.0781 -0.929 -0.102 -0.356 57 45 55
382.3825 244.1429 -14.8782 0.370 -0.928 0.043 62 50 60
385.8935 243.3373 -15.1588 -0.867 -0.430 -0.250 73 61 66
385.6656 242.2120 -15.1858 -0.837 -0.419 -0.353 82 70 74
386.8434 239.4805 -15.3745 -0.846 -0.519 -0.120 109 97 101
382.3664 227.8710 -15.5023 -0.993 -0.117 0.031 80 62 74
382.3209 226.9731 -15.5336 -0.990 -0.142 0.013 86 68 80
380.9614 225.0556 -15.5106 -0.992 -0.114 -0.053 90 74 85
381.9854 225.0009 -15.5855 -0.992 -0.113 -0.049 89 73 84
381.4226 217.9001 -15.8183 -0.877 -0.241 0.415 100 88 100
381.1601 216.8886 -15.8385 -0.882 -0.262 0.392 98 86 96
382.1417 216.8074 -15.9114 -0.885 -0.154 -0.439 103 91 101
382.0226 215.9090 -15.9375 -0.946 -0.126 -0.299 119 106 116
381.7890 214.9306 -15.9585 -0.934 -0.153 -0.322 133 120 130
381.5836 213.9782 -15.9805 -0.895 -0.154 -0.418 133 120 130
381.4023 213.0483 -16.0033 -0.851 -0.244 -0.465 126 113 123
381.8490 212.5802 -16.0531 -0.852 -0.234 -0.468 113 100 110
383.0749 212.6774 -16.1365 -0.771 -0.295 -0.565 112 99 109
379.6757 206.3473 -16.1380 -0.992 0.022 -0.124 109 96 113
378.4806 193.7483 -16.5372 -0.996 0.067 -0.055 108 92 103
374.9189 183.2192 -16.6885 0.374 -0.716 0.590 83 67 78
171.2758 473.5560 8.0093 -0.528 -0.770 -0.357 58 50 63
172.0768 473.0620 7.9334 -0.546 -0.763 -0.346 66 58 71
172.8736 472.5266 7.8562 -0.546 -0.763 -0.346 80 72 85
173.6703 471.9911 7.7790 -0.546 -0.763 -0.346 69 61 74
230.5243 436.4073 2.3685 -0.764 -0.080 0.641 66 68 65
232.0080 427.7915 1.9472 -0.770 -0.608 0.194 52 54 51
232.6000 426.5507 1.8591 -0.771 -0.610 0.184 54 56 53
231.7195 419.7674 1.6756 -0.815 -0.430 0.389 57 59 56
231.9894 417.3956 1.5697 -0.814 -0.429 0.392 61 63 60
232.6118 416.3633 1.4870 -0.790 -0.507 0.345 68 70 67
233.1850 415.1591 1.4017 -0.738 -0.595 0.318 84 86 83
234.5561 413.5995 1.2456 -0.741 -0.605 0.291 25 27 24
235.3015 413.0415 1.1714 -0.594 -0.700 0.396 44 46 43
236.1232 412.7562 1.1015 -0.451 -0.858 -0.245 55 57 54
236.9147 412.3609 1.0298 -0.451 -0.858 -0.245 50 52 49
237.3617 410.7597 0.9391 -0.399 -0.894 -0.206 38 40 37
254.6480 388.2113 -1.1334 -0.575 -0.263 0.774 32 32 32
257.1394 377.5602 -1.7018 -0.307 -0.577 -0.757 45 47 46
259.9302 377.7762 -1.8959 0.139 -0.741 0.657 42 44 43
261.4429 379.3663 -1.9474 -0.037 -0.853 0.520 38 40 39
283.6350 345.8805 -4.7734 0.178 -0.540 0.823 26 28 27
292.6979 326.1895 -6.1468 -0.591 -0.424 0.686 37 39 26
305.7582 344.5162 -6.4239 0.181 -0.894 -0.410 42 47 25
308.3347 345.5825 -6.5714 0.176 -0.895 -0.411 66 71 48
401.1674 352.2564 -13.0452 -0.793 0.009 0.609 71 53 67
397.2270 338.7061 -13.2539 -0.818 0.128 0.560 92 76 89
398.7466 337.5574 -13.4057 -0.013 -0.655 0.755 71 54 72
397.4384 334.6301 -13.4178 -0.014 -0.624 0.781 63 46 64
399.4763 324.3476 -13.9400 -0.473 -0.744 -0.472 66 52 69
400.4694 317.3619 -14.2664 -1.000 -0.006 -0.007 99 84 103
398.3905 299.9346 -14.7511 -1.000 0.007 -0.027 92 77 96
399.5217 299.8446 -14.8362 -0.999 -0.010 -0.034 102 87 106
395.6138 285.3326 -15.0823 -0.615 -0.335 0.713 139 123 137
391.4057 269.2018 -15.3657 -0.995 0.028 -0.098 90 77 94
390.1071 258.6775 -15.6552 -0.926 -0.230 -0.298 55 43 55
390.7470 258.2276 -15.7179 -0.609 -0.602 0.516 55 43 55
394.6938 256.6228 -16.0620 -0.911 -0.396 0.115 52 40 50
382.5084 244.2731 -15.6304 0.366 -0.930 0.041 57 45 55
384.6037 245.1040 -15.7517 0.365 -0.930 0.041 65 52 61
386.0262 245.3572 -15.8454 0.209 -0.881 0.425 69 56 65
388.2532 246.2798 -15.9729 -0.558 -0.783 0.277 83 70 77
384.9153 242.5415 -15.8676 -0.725 -0.453 -0.519 88 76 80
385.3231 241.9480 -15.9188 -0.725 -0.453 -0.519 92 80 84
385.5388 241.1971 -15.9617 -0.716 -0.476 -0.511 97 85 89
380.9561 217.5605 -16.4915 -0.881 -0.250 0.403 93 81 93
380.9105 216.7121 -16.5192 -0.882 -0.262 0.392 94 82 92
382.3992 217.0083 -16.6161 -0.882 -0.159 -0.444 111 99 109
381.9841 215.8896 -16.6268 -0.948 -0.138 -0.288 126 113 123
381.7643 214.9211 -16.6462 -0.893 -0.154 -0.422 139 126 136
381.5805 213.9842 -16.6670 -0.789 -0.246 -0.564 138 125 135
381.8219 213.3629 -16.7072 -0.853 -0.236 -0.465 130 117 127
377.9610 198.4348 -16.9718 -0.943 -0.096 -0.317 84 70 84
378.4207 198.0190 -17.0202 -0.997 0.014 -0.074 87 71 82
378.4121 197.2869 -17.0463 -0.997 0.014 -0.074 86 70 81
377.3369 194.4091 -17.0734 -0.917 -0.114 0.383 107 91 102
378.2466 194.3036 -17.1430 -0.899 -0.125 0.419 110 94 105
378.1392 193.5226 -17.1637 -0.912 -0.137 0.388 107 91 102
378.0416 190.6511 -17.2613 -0.997 0.064 -0.054 96 80 93
367.9705 182.7650 -16.8200 -0.910 -0.408 -0.076 89 73 86
368.2024 182.2536 -16.8554 -0.910 -0.408 -0.076 87 71 84
368.6559 132.7206 -18.6934 -0.478 -0.523 0.706 74 61 78
374.1243 134.6307 -19.0194 -0.423 -0.857 0.294 72 59 76
132.5041 298.2728 3.8841 -0.919 -0.369 -0.143 56 50 62
171.9825 473.5448 7.0178 -0.546 -0.763 -0.346 60 52 65
172.7803 473.0086 6.9405 -0.546 -0.763 -0.346 74 66 79
173.7378 474.0241 6.9051 -0.480 -0.811 -0.335 71 63 76
230.5637 429.7831 1.1977 -0.764 -0.616 0.190 51 53 50
231.1399 428.4573 1.1096 -0.663 -0.614 0.427 47 49 48
231.9326 427.9786 1.0347 -0.626 -0.720 0.299 66 68 67
232.5091 426.6754 0.9474 -0.636 -0.703 0.317 70 72 71
231.2100 418.3018 0.7545 -0.807 -0.436 0.398 70 72 71
231.7635 417.0015 0.6689 -0.814 -0.429 0.392 71 73 72
232.9983 414.9127 0.5061 -0.738 -0.595 0.318 119 121 120
234.3783 413.3871 0.3519 -0.741 -0.605 0.291 14 16 15
235.0911 412.7131 0.2762 -0.594 -0.700 0.396 52 54 53
236.0817 413.0311 0.2143 -0.451 -0.858 -0.245 50 52 51
242.5155 407.1179 -0.4631 -0.830 -0.224 0.511 38 43 39
256.2643 380.3723 -2.3967 -0.377 -0.799 -0.468 25 25 23
257.9224 379.9639 -2.5329 -0.278 -0.822 -0.497 40 40 38
259.1572 378.4113 -2.6773 -0.080 -0.903 0.423 40 40 38
260.0242 378.3032 -2.7448 -0.080 -0.903 0.423 37 37 35
308.9608 345.0915 -7.4914 0.237 -0.899 -0.369 54 57 39
403.8430 386.6775 -13.0426 -0.608 -0.699 -0.377 70 53 63
397.6269 321.0419 -14.8468 -0.982 0.013 0.187 58 43 62
400.1163 318.3715 -15.1220 -1.000 -0.022 0.001 64 50 67
394.7329 289.1607 -15.7323 -0.666 -0.544 0.510 126 110 123
392.5156 283.5333 -15.7630 -0.582 -0.573 0.578 111 94 106
393.0606 282.9180 -15.8243 -0.582 -0.573 0.578 117 100 111
393.6049 282.3036 -15.8856 -0.582 -0.573 0.578 107 90 101
395.4762 275.1441 -16.2700 -0.909 -0.226 0.351 72 58 73
383.4762 245.1191 -16.4213 0.356 -0.934 0.029 60 47 57
385.5023 245.8876 -16.5440 0.356 -0.934 0.029 67 54 63
387.6703 246.7655 -16.6733 0.196 -0.889 0.414 75 62 71
388.1327 246.2009 -16.7268 -0.562 -0.788 0.251 93 80 87
387.2455 244.5099 -16.7198 -0.853 -0.409 -0.325 92 80 84
386.9548 243.3264 -16.7392 -0.839 -0.449 -0.307 91 79 83
385.6839 241.3378 -16.7141 -0.711 -0.490 -0.505 90 78 82
383.3965 238.5245 -16.6427 -0.050 -0.933 -0.357 95 83 87
383.5064 232.3067 -16.8650 -0.516 -0.425 0.744 100 82 94
381.2195 217.7683 -17.1977 -0.887 -0.122 -0.446 86 74 86
380.6627 216.5369 -17.1991 -0.888 -0.128 -0.442 90 78 88
382.6319 217.1908 -17.3215 -0.880 -0.151 -0.450 105 93 103
381.8880 215.8275 -17.3138 -0.895 -0.154 -0.418 120 107 117
381.7638 214.9295 -17.3356 -0.789 -0.246 -0.564 132 119 129
381.9897 214.2929 -17.3741 -0.789 -0.246 -0.564 130 117 127
381.5870 213.1992 -17.3822 -0.922 -0.171 -0.346 121 108 118
382.4861 213.0590 -17.4532 -0.852 -0.234 -0.468 101 88 98
379.4509 208.5087 -17.3866 -0.884 -0.179 -0.432 112 98 111
379.8657 208.0320 -17.4335 -0.865 -0.242 -0.439 111 97 110
378.1690 198.5793 -17.6344 -0.943 -0.096 -0.317 88 74 87
378.4700 198.0547 -17.6746 -0.997 0.014 -0.074 104 88 99
377.8992 194.7856 -17.7452 -0.899 -0.125 0.419 125 109 120
377.9779 194.1256 -17.7738 -0.899 -0.125 0.419 124 108 119
377.8951 193.3613 -17.7940 -0.912 -0.137 0.388 119 103 114
377.8214 192.6065 -17.8146 -0.952 -0.116 0.283 113 97 108
378.1590 192.1252 -17.8560 -0.893 0.100 0.439 110 94 105
378.1194 191.3985 -17.8781 -0.905 0.090 0.415 100 84 95
368.2426 182.2779 -17.4654 -0.910 -0.408 -0.076 98 82 93
369.9550 182.7152 -17.5764 -0.966 -0.216 -0.141 94 78 89
371.9124 182.6391 -17.7231 -0.935 -0.326 -0.140 88 72 83
434.4230 211.7957 -21.3197 0.341 -0.637 0.691 111 98 108
363.4817 140.3543 -18.5596 0.272 -0.961 -0.048 83 72 88
366.3485 141.2288 -18.7405 0.323 -0.945 0.045 75 64 81
354.6242 127.9049 -18.3366 0.158 -0.815 0.558 85 72 89
346.5733 119.3474 -18.0388 0.288 -0.690 0.664 64 56 69
377.8710 127.8710 -20.0489 -0.671 -0.674 0.310 69 60 77
171.9570 474.7290 6.1173 -0.437 -0.835 -0.333 53 45 58
172.8517 475.1304 6.0634 -0.536 -0.768 -0.352 67 59 72
173.7068 475.1113 5.9987 -0.538 -0.769 -0.346 72 64 77
183.3229 266.2600 -1.5031 -0.569 -0.821 0.046 70 59 67
231.7503 427.7549 0.1156 -0.626 -0.720 0.299 52 54 53
230.9852 417.9095 -0.1468 -0.862 -0.407 0.303 50 51 53
231.6207 416.9180 -0.2266 -0.849 -0.435 0.301 47 48 50
232.8117 414.6665 -0.3889 -0.738 -0.595 0.318 93 95 94
233.5359 414.0272 -0.4638 -0.741 -0.605 0.291 50 52 51
234.2005 413.1748 -0.5413 -0.741 -0.605 0.291 12 12 12
234.8809 412.3853 -0.6178 -0.594 -0.700 0.396 41 41 41
241.8453 405.2842 -1.3698 -0.826 -0.224 0.518 40 45 41
250.2151 394.4998 -2.3466 -0.281 -0.457 0.844 34 35 30
250.9322 393.9244 -2.4190 -0.281 -0.457 0.844 32 33 28
253.8547 389.1673 -2.7922 -0.571 -0.319 0.756 31 31 31
307.6990 344.7685 -8.2649 0.239 -0.901 -0.362 49 51 36
405.7090 387.4654 -14.2158 -0.542 -0.750 -0.380 71 50 62
400.6818 354.9227 -14.8962 -0.680 -0.086 0.729 68 53 66
398.9797 346.8094 -15.0322 -0.931 0.102 0.350 70 58 70
403.5382 335.9464 -15.7262 -0.249 -0.581 0.775 108 91 110
398.4402 326.0826 -15.6649 -0.739 -0.390 -0.550 101 86 105
399.4162 324.4123 -15.7922 -0.739 -0.390 -0.550 74 59 78
399.4925 315.1284 -16.0994 -0.872 -0.093 0.480 117 100 119
400.1576 313.2177 -16.2112 -1.000 -0.003 -0.002 96 79 98
398.7077 299.1270 -16.5602 -0.991 0.076 0.110 63 51 71
391.2686 284.6581 -16.4731 -0.637 -0.614 0.466 75 57 68
391.8166 284.0429 -16.5341 -0.637 -0.614 0.466 81 64 73
392.3579 283.4226 -16.5948 -0.626 -0.627 0.463 77 60 69
393.2914 283.1813 -16.6725 -0.628 -0.624 0.464 73 56 64
391.8099 273.9639 -16.8609 -0.917 -0.241 0.317 97 83 98
389.2770 254.9923 -17.2874 -0.541 -0.337 0.770 75 62 72
388.1590 246.2451 -17.4877 0.065 -0.747 0.661 85 72 79
389.5150 245.4776 -17.6141 -0.851 -0.410 -0.328 73 61 65
388.3236 243.5449 -17.5877 -0.920 -0.258 0.296 68 56 60
387.7915 242.1692 -17.5925 -0.877 -0.326 0.353 73 61 65
387.0475 240.6279 -17.5869 -0.430 -0.887 0.171 78 66 70
383.3255 230.4155 -17.6399 -0.510 -0.434 0.743 92 74 86
384.0098 230.0809 -17.7020 -0.772 -0.278 0.572 109 91 103
384.2320 229.3823 -17.7413 -0.772 -0.278 0.572 103 85 97
386.1927 225.7274 -18.0068 -0.766 -0.323 0.556 93 83 94
382.9535 217.4395 -18.0334 -0.880 -0.151 -0.450 62 50 60
382.1748 215.2412 -18.0465 -0.789 -0.246 -0.564 73 60 70
382.4006 214.6028 -18.0841 -0.789 -0.246 -0.564 74 61 71
381.9652 213.4836 -18.0879 -0.862 -0.173 -0.477 79 63 74
382.9382 213.3956 -18.1636 -0.829 -0.245 -0.504 96 83 93
379.0668 197.7336 -18.3823 -0.997 0.072 -0.036 136 120 131
377.6304 194.6070 -18.3763 -0.899 -0.125 0.419 123 107 118
377.7095 193.9477 -18.4036 -0.899 -0.125 0.419 120 104 115
377.7903 193.2922 -18.4310 -0.908 -0.138 0.395 114 98 109
374.0503 190.1197 -18.2540 -0.903 0.075 0.422 109 93 104
371.0198 184.0613 -18.2239 -0.947 -0.296 -0.123 97 81 92
376.5450 170.1829 -19.0882 -0.542 -0.166 0.824 85 69 79
376.8085 169.7243 -19.1228 -0.545 -0.167 0.822 82 66 76
359.3867 138.8655 -18.8206 0.275 -0.911 -0.308 90 79 93
366.7105 141.3854 -19.2870 -0.899 -0.423 -0.110 74 63 78
368.7904 141.8761 -19.4268 -0.978 -0.173 -0.115 69 58 73
372.7569 126.6876 -20.2170 -0.945 -0.304 0.122 82 74 89
375.3225 127.2758 -20.3899 -0.952 -0.280 0.120 74 65 82
377.7204 127.7893 -20.5528 -0.671 -0.674 0.310 71 62 79
171.8557 475.1507 5.1940 -0.437 -0.835 -0.333 48 40 51
172.7456 475.4973 5.1368 0.043 -0.959 0.280 62 54 66
173.6837 476.2825 5.0893 -0.525 -0.785 -0.328 71 63 75
190.4373 470.2631 3.6305 -0.849 -0.305 -0.432 71 57 70
230.0134 439.6186 -0.3161 -0.291 -0.918 -0.271 58 60 55
231.5090 427.3036 -0.8054 -0.516 -0.835 0.190 38 40 39
230.7945 417.6454 -1.0454 -0.862 -0.407 0.303 28 30 29
232.6252 414.4204 -1.2831 -0.738 -0.595 0.318 44 46 45
233.2878 413.5569 -1.3598 -0.738 -0.595 0.318 42 43 45
234.0228 412.9626 -1.4339 -0.741 -0.605 0.291 20 22 21
234.6710 412.0578 -1.5108 -0.594 -0.700 0.396 21 23 22
241.0464 403.0207 -2.2716 -0.834 -0.538 0.125 41 46 42
257.8033 375.3529 -4.3906 -0.326 -0.517 0.792 30 30 28
266.5591 376.7835 -5.0134 -0.036 -0.834 0.551 31 31 31
267.4508 376.6984 -5.0839 -0.036 -0.834 0.551 38 38 38
298.2647 335.0123 -8.7002 -0.510 -0.268 0.817 34 36 25
303.4241 340.8202 -8.9159 0.192 -0.936 -0.296 43 45 34
399.6623 355.3337 -15.7989 -0.680 -0.086 0.729 75 62 76
399.9037 352.5378 -15.9025 -0.680 -0.086 0.729 90 76 89
399.3528 342.8629 -16.1555 -0.642 -0.266 -0.719 90 76 89
399.1123 341.1140 -16.1905 -0.724 -0.306 -0.618 100 86 100
400.0138 339.2326 -16.3165 -0.724 -0.306 -0.618 116 101 120
400.5720 334.1183 -16.5149 -0.250 -0.585 0.771 102 85 104
402.6981 335.0783 -16.6475 -0.249 -0.581 0.775 102 84 105
399.4489 319.1115 -16.8869 -1.000 -0.008 -0.022 63 49 67
399.0461 314.7151 -16.9903 -0.872 -0.093 0.480 106 91 110
400.1593 313.2768 -17.1188 -1.000 -0.003 -0.002 98 81 100
392.8190 277.1480 -17.6615 -0.989 0.141 0.034 110 96 111
391.3658 252.8571 -18.2914 -0.980 -0.065 -0.189 94 82 92
392.1348 247.6787 -18.5078 0.248 -0.891 0.380 62 50 54
382.3118 230.5035 -18.2836 -0.510 -0.434 0.743 131 114 124
383.2339 230.3586 -18.3582 -0.596 -0.377 0.709 128 111 121
383.9024 230.0114 -18.4197 -0.964 -0.254 0.080 120 103 113
383.4950 216.2231 -18.8090 -0.919 -0.137 -0.370 64 51 61
383.6147 215.5024 -18.8401 -0.919 -0.137 -0.370 63 50 60
382.4094 213.8163 -18.7998 -0.941 -0.135 -0.311 63 50 60
383.0844 213.5097 -18.8605 -0.930 -0.158 -0.332 76 63 72
379.3010 199.3566 -19.0039 -0.930 -0.096 -0.354 81 67 81
379.5901 198.0895 -19.0646 -0.997 0.068 0.019 121 105 116
374.5499 192.5504 -18.8498 -0.930 -0.040 0.364 117 101 112
377.3912 193.0282 -19.0515 -0.923 -0.130 0.363 108 92 103
373.4043 189.6938 -18.8497 -0.879 0.077 0.470 103 87 98
373.1787 188.1673 -18.8790 -0.866 0.066 0.496 98 82 93
371.4223 183.6505 -18.8830 -0.940 -0.307 -0.146 97 81 92
371.9488 183.3210 -18.9331 -0.967 -0.225 -0.117 98 82 93
388.3742 189.5838 -19.9925 0.179 -0.660 0.730 98 85 95
332.3293 145.8632 -17.0593 0.448 -0.878 -0.167 97 82 89
377.1432 170.5171 -19.7189 -0.630 -0.200 0.750 93 76 84
376.9759 169.8112 -19.7276 -0.639 -0.176 0.749 85 68 76
377.6522 169.5876 -19.7859 -0.645 -0.182 0.742 76 60 70
373.2329 165.2977 -19.5803 -0.558 -0.236 0.796 79 63 74
375.6391 154.6422 -20.0883 -0.934 -0.177 0.310 102 86 97
382.9719 157.8334 -20.5492 -0.932 -0.092 0.351 101 85 96
430.4580 178.7399 -23.5264 0.369 -0.871 -0.326 100 86 99
365.4078 141.2440 -19.7180 0.202 -0.978 -0.058 81 70 87
367.5952 141.7906 -19.8678 -0.723 -0.480 -0.497 74 63 79
377.5700 127.7076 -21.0564 -0.671 -0.674 0.310 70 61 80
186.2981 480.2972 3.2777 -0.932 -0.263 -0.249 60 48 60
186.9198 478.1967 3.1698 -0.932 -0.263 -0.249 60 48 60
189.6801 478.6948 2.9704 -0.035 -0.876 0.482 74 62 74
190.4694 471.4867 2.7039 -0.849 -0.305 -0.432 74 62 74
191.0887 469.5814 2.6017 -0.850 -0.311 -0.426 74 62 74
230.0524 418.7013 -1.8630 -0.806 -0.493 0.329 37 39 38
