ply
format ascii 1.0
element vertex 835
property float x
property float y
property float z
property float nx
property float ny
property float nz
property uchar diffuse_red
property uchar diffuse_green
property uchar diffuse_blue
end_header
374.4915 184.0196 -21.0782 -0.784 -0.566 -0.254 78 70 91
172.0600 475.0607 4.6339 -0.314 -0.768 -0.559 46 37 54
191.8383 469.3893 2.7923 0.006 -0.969 -0.247 59 46 66
228.4718 439.8654 -1.2263 -0.847 -0.347 0.403 48 49 54
228.7875 437.9309 -1.3145 -0.156 -0.937 0.313 53 54 56
229.9722 438.4465 -1.3975 -0.008 -0.884 0.466 50 52 51
229.9357 435.5596 -1.4867 -0.844 -0.363 0.395 47 49 48
228.4910 428.8268 -1.5804 -0.689 -0.299 0.660 43 45 44
231.8579 414.4091 -2.3236 -0.511 -0.727 0.459 25 26 31
232.3602 413.2151 -2.4039 -0.580 -0.597 0.554 33 34 39
241.1015 406.0908 -3.3653 -0.514 -0.215 0.831 51 53 52
242.0382 396.9841 -3.7349 -0.805 -0.511 -0.302 32 34 33
242.4123 395.6423 -3.8091 -0.623 -0.506 -0.597 32 34 33
243.8292 394.5033 -3.9645 -0.615 -0.519 -0.593 20 22 21
244.3652 393.5496 -4.0399 -0.553 -0.557 -0.620 32 34 33
267.7204 377.6049 -6.5100 -0.905 -0.376 -0.200 27 27 29
267.5504 375.4572 -6.5643 -0.914 -0.343 -0.217 27 27 29
267.6076 373.7464 -6.6237 -0.910 -0.330 -0.251 27 27 29
268.0113 372.6839 -6.6916 -0.910 -0.330 -0.251 27 27 29
305.4383 342.8259 -10.7874 0.290 -0.930 0.225 56 56 56
304.9536 340.7505 -10.8130 0.156 -0.759 0.633 58 58 58
396.3134 359.2641 -17.8917 -0.669 -0.235 0.705 95 77 101
396.2691 357.8845 -17.9320 -0.625 -0.273 0.731 112 94 118
396.6221 356.9145 -17.9927 -0.625 -0.273 0.731 94 78 104
397.9146 355.5756 -18.1439 -0.628 -0.305 0.716 74 60 85
397.7812 354.1303 -18.1789 -0.517 -0.482 0.707 74 60 85
395.3207 339.0486 -18.4541 -0.893 -0.340 -0.296 68 56 80
395.9800 331.2206 -18.7594 -0.956 -0.262 0.132 70 61 88
396.3148 330.3476 -18.8154 -0.898 -0.419 -0.135 76 67 94
382.0490 307.2412 -18.3558 0.052 -0.167 0.985 102 93 123
382.9763 303.8000 -18.5436 0.575 -0.762 0.299 65 56 87
398.2352 316.0773 -19.4325 0.551 -0.756 0.354 67 58 88
393.9674 306.9660 -19.3652 -0.913 -0.163 0.373 78 64 97
395.8280 306.4301 -19.5385 -0.842 0.000 0.540 63 49 82
393.7043 300.4625 -19.5508 -0.963 -0.256 -0.088 102 88 121
395.4315 297.7988 -19.7809 -0.957 -0.276 -0.087 111 102 129
395.4929 296.8350 -19.8168 -0.949 -0.207 0.239 122 113 140
392.9150 282.0837 -20.0716 -0.958 -0.252 0.138 108 94 119
393.1158 281.2988 -20.1135 -0.958 -0.252 0.138 114 98 124
392.1411 279.6112 -20.0856 -0.961 -0.259 0.093 119 103 129
392.2224 277.8195 -20.1496 -0.961 -0.255 0.109 101 87 110
389.9467 273.3514 -20.1013 -0.893 -0.438 -0.098 94 85 106
389.6165 272.2019 -20.1103 -0.869 -0.407 -0.280 88 79 100
389.4078 271.1497 -20.1264 -0.844 -0.469 -0.260 84 72 94
389.4151 264.1397 -20.3509 -0.815 -0.491 -0.308 114 104 133
390.3809 263.9791 -20.4371 -0.969 -0.246 0.003 117 106 136
389.8846 262.7638 -20.4342 -0.992 -0.111 0.055 110 99 131
388.9698 261.2548 -20.4056 -0.997 -0.064 -0.051 94 83 115
388.8270 258.6265 -20.4776 -0.992 -0.024 -0.126 79 68 100
387.5596 255.2463 -20.4792 -0.943 -0.303 0.134 107 101 129
387.2417 242.3432 -20.8646 -0.865 -0.471 0.171 92 85 101
387.4815 241.7368 -20.9041 -0.861 -0.484 0.156 93 86 102
387.7885 241.1764 -20.9478 -0.861 -0.484 0.156 93 86 102
387.7684 240.4048 -20.9707 -0.862 -0.352 -0.365 91 84 100
387.2277 239.2993 -20.9607 -0.857 -0.354 -0.374 90 82 99
386.5603 235.8903 -21.0135 -0.872 -0.315 -0.376 89 79 96
382.3592 227.4883 -20.9292 0.024 -0.827 0.561 72 57 77
383.4492 227.4577 -21.0217 0.024 -0.827 0.561 94 80 99
383.9496 227.0630 -21.0763 -0.113 -0.765 0.633 115 100 120
384.4899 223.9171 -21.2221 -0.685 -0.153 0.712 125 119 145
384.5985 223.2953 -21.2511 -0.685 -0.153 0.712 117 111 137
384.8308 222.0675 -21.3098 -0.680 -0.261 0.685 101 95 121
384.8132 221.3777 -21.3304 -0.715 -0.585 0.383 98 92 118
382.5079 215.3698 -21.3287 -0.964 -0.211 0.161 113 107 133
382.6307 214.7877 -21.3576 -0.964 -0.211 0.161 132 124 148
383.0205 214.3605 -21.4040 -0.984 -0.063 0.165 134 126 150
383.6905 210.2477 -21.5916 -0.760 -0.359 -0.542 132 124 148
379.6603 207.3801 -21.3449 -0.934 -0.168 0.315 125 117 141
377.6924 202.6233 -21.3316 -0.985 -0.133 0.114 96 88 112
376.4199 201.3338 -21.2659 -0.982 -0.111 0.153 111 103 127
375.8466 186.7760 -21.6828 -0.372 -0.771 0.517 87 80 98
376.0927 186.3535 -21.7170 -0.171 -0.983 0.063 80 72 93
376.0111 185.7728 -21.7286 -0.141 -0.987 0.076 71 63 84
375.3401 184.9089 -21.6999 -0.869 -0.494 -0.027 69 61 82
374.3812 183.9105 -21.6513 -0.867 -0.470 -0.163 69 61 82
186.1201 483.4047 2.7451 -0.968 -0.226 -0.105 74 61 81
189.1305 479.2931 2.3660 -0.997 -0.063 -0.049 97 84 104
191.3264 471.9402 1.9591 -0.006 -0.999 0.051 103 90 110
213.2924 397.1457 -2.1483 -0.806 0.261 0.532 49 50 55
231.2787 415.7141 -3.1216 -0.678 -0.713 -0.181 37 38 42
232.4041 413.6219 -3.2800 -0.498 -0.723 0.479 41 42 47
240.4688 404.8433 -4.2286 -0.519 -0.218 0.826 76 78 77
242.6326 396.3817 -4.6659 -0.623 -0.506 -0.597 66 68 67
248.6974 390.5908 -5.3550 -0.731 -0.579 -0.360 44 44 46
251.0870 387.4405 -5.6525 -0.660 -0.627 -0.415 46 45 50
253.5925 382.6129 -6.0101 -0.951 -0.081 -0.299 18 17 22
256.2272 374.3993 -6.4801 0.550 -0.805 0.223 30 31 35
256.0108 370.2437 -6.5861 0.374 -0.876 0.304 27 28 30
305.1874 342.5521 -11.5967 0.290 -0.930 0.225 63 63 63
395.6009 358.5504 -18.8051 -0.669 -0.235 0.705 78 63 86
396.1065 356.4044 -18.9124 -0.629 -0.293 0.720 84 69 92
398.0183 355.6893 -19.0964 -0.625 -0.295 0.723 70 60 84
397.6702 354.0283 -19.1165 -0.516 -0.513 0.686 68 58 81
412.4735 355.4673 -20.3321 -0.722 -0.489 -0.489 60 48 72
396.1622 337.4027 -19.4861 -0.919 -0.338 -0.202 63 51 75
396.1549 336.1796 -19.5222 -0.907 -0.331 -0.259 65 53 77
392.6163 325.7545 -19.5334 -0.887 -0.461 0.041 76 67 94
401.8362 333.0598 -20.0986 -0.891 -0.354 0.284 79 70 97
398.2081 328.5557 -19.9250 -0.891 -0.351 0.287 90 81 108
401.5894 317.8781 -20.5323 -0.960 -0.110 0.257 91 82 113
394.1908 307.1404 -20.2247 -0.900 -0.161 0.404 69 55 88
395.6638 307.3343 -20.3442 -0.880 -0.160 0.447 65 51 84
392.6571 300.5981 -20.2902 -0.936 -0.087 0.340 80 66 99
395.3220 296.6724 -20.6344 -0.949 -0.207 0.239 111 102 129
392.8270 281.9866 -20.8620 -0.958 -0.252 0.138 95 81 106
393.0280 281.2018 -20.9026 -0.958 -0.252 0.138 100 84 110
391.3506 277.1228 -20.8821 -0.909 -0.389 -0.148 101 89 111
389.9544 275.1414 -20.8227 -0.885 -0.437 -0.160 90 78 100
388.8399 272.4841 -20.8075 -0.909 -0.375 -0.183 62 53 74
388.9000 271.6312 -20.8382 -0.876 -0.431 -0.216 67 58 79
389.4015 266.6964 -21.0286 -0.835 -0.491 -0.247 78 69 90
389.4513 265.8616 -21.0578 -0.854 -0.428 -0.294 76 66 90
389.7816 265.2350 -21.1047 -0.854 -0.428 -0.294 97 87 113
389.9387 264.4847 -21.1405 -0.865 -0.411 -0.288 114 104 133
390.2542 263.8519 -21.1863 -0.865 -0.411 -0.288 116 107 136
389.8499 262.7029 -21.1863 -0.992 -0.111 0.055 108 99 128
387.4057 241.6440 -21.6091 -0.861 -0.484 0.156 100 91 108
388.1139 241.3452 -21.6783 -0.135 -0.919 0.370 108 98 115
388.7419 236.4945 -21.8769 -0.901 -0.297 -0.317 115 104 121
380.7082 228.5337 -21.4322 -0.467 -0.884 -0.028 122 109 129
382.9105 227.0793 -21.6630 -0.001 -0.826 0.564 98 83 102
384.4387 225.9162 -21.8278 -0.698 -0.253 0.670 93 80 98
384.1426 224.3492 -21.8496 -0.680 -0.169 0.713 113 107 130
384.2652 223.7337 -21.8784 -0.680 -0.169 0.713 106 100 126
384.7762 223.3533 -21.9332 -0.684 -0.138 0.716 99 93 119
384.5685 222.5443 -21.9398 -0.685 -0.173 0.707 93 87 113
384.7987 221.3200 -21.9960 -0.722 -0.577 0.382 87 81 107
382.5031 219.2890 -21.8617 -0.902 -0.264 -0.341 111 105 131
382.4840 217.9430 -21.9004 -0.978 -0.178 0.108 104 98 124
383.5162 217.8816 -21.9900 -0.972 -0.108 0.208 94 88 114
382.5450 214.6881 -22.0030 -0.964 -0.211 0.161 113 105 129
382.4960 214.0099 -22.0192 -0.977 -0.132 0.169 111 103 127
381.2372 208.8300 -22.0672 -0.948 -0.109 0.298 114 106 130
378.7272 205.5750 -21.9513 -0.963 -0.089 0.253 98 90 114
377.8877 204.5005 -21.9121 -0.995 -0.089 -0.054 99 91 115
377.4576 203.0485 -21.9190 -0.997 -0.069 -0.047 95 87 111
375.6177 200.2526 -21.8463 -0.645 -0.661 -0.384 127 119 143
375.9082 199.8144 -21.8841 -0.418 -0.734 -0.535 136 128 152
379.0515 199.7087 -22.1545 -0.132 -0.710 0.692 129 121 145
380.7279 200.0009 -22.2883 -0.239 -0.628 0.741 128 120 144
379.1800 198.0075 -22.2164 -0.907 -0.147 0.394 120 112 136
374.8031 195.1412 -21.9301 -0.800 -0.203 0.564 116 108 132
372.7933 186.3045 -22.0238 -0.041 -0.959 0.281 99 92 110
374.6294 186.6665 -22.1691 -0.335 -0.503 0.796 93 86 104
375.5139 186.5574 -22.2476 -0.372 -0.771 0.517 86 79 97
375.9745 186.2400 -22.2962 -0.161 -0.986 0.053 75 67 88
376.1302 185.7747 -22.3234 -0.130 -0.989 0.075 59 51 72
375.3791 184.8718 -22.2866 -0.869 -0.494 -0.027 61 52 73
161.3398 479.4328 3.7915 -0.823 -0.033 0.568 64 47 65
162.9991 483.8119 3.7710 0.015 -0.886 0.464 66 49 65
187.6896 482.3096 1.6032 -0.968 -0.222 -0.115 78 65 85
192.0745 471.6212 0.9269 0.026 -0.973 -0.229 46 35 54
192.9901 471.3640 0.8409 0.029 -0.972 -0.232 43 33 52
231.2568 415.9588 -4.0023 -0.678 -0.713 -0.181 48 49 53
238.7789 405.6958 -4.9368 -0.401 -0.205 0.893 45 47 46
239.2382 404.4750 -5.0104 -0.401 -0.205 0.893 44 46 45
241.7282 398.9701 -5.3787 -0.599 -0.719 -0.352 33 35 34
242.2424 397.9323 -5.4520 -0.805 -0.515 -0.296 64 66 65
247.7805 390.9090 -6.1251 -0.685 -0.639 -0.350 46 48 47
250.1339 387.6705 -6.4182 -0.431 -0.822 -0.373 20 19 24
253.8057 383.2413 -6.8581 -0.951 -0.081 -0.299 37 36 41
290.6734 345.0827 -11.0989 -0.935 -0.310 -0.174 28 28 28
305.0416 343.8454 -12.3706 0.275 -0.936 0.218 50 50 48
395.2775 356.9017 -19.7750 -0.624 -0.297 0.723 93 79 102
395.9523 354.9398 -19.8879 -0.618 -0.299 0.727 76 69 90
395.0104 348.8000 -19.9784 -0.753 -0.511 0.416 57 51 72
400.8019 351.9326 -20.3895 -0.501 -0.597 0.626 58 52 73
397.1504 333.4951 -20.5904 -0.883 -0.469 -0.010 71 61 86
395.5211 324.9343 -20.6894 -0.895 -0.364 0.258 88 79 106
396.5465 322.4182 -20.8480 -0.896 -0.361 0.258 71 62 91
398.1023 321.5354 -21.0066 -0.895 -0.361 0.261 69 60 91
398.6107 318.6045 -21.1323 0.383 -0.723 0.575 67 58 89
401.4495 319.9780 -21.3383 0.330 -0.692 0.642 80 71 102
394.8957 313.1318 -20.9654 -0.950 -0.035 0.311 77 68 99
394.4594 311.6603 -20.9689 -0.948 -0.033 0.317 73 64 95
389.7776 306.5190 -20.7095 0.057 -0.246 0.968 70 61 92
390.8569 306.3875 -20.8061 0.057 -0.246 0.968 65 54 86
392.7201 303.7558 -21.0401 -0.961 -0.272 -0.048 63 49 82
392.4720 302.4995 -21.0538 -0.956 -0.285 -0.067 63 49 82
393.1740 302.0500 -21.1268 -0.968 -0.247 -0.046 60 46 79
394.7575 300.2689 -21.3130 -0.955 -0.275 -0.106 61 47 80
395.0005 299.4424 -21.3570 -0.955 -0.275 -0.106 68 55 85
395.7034 296.9617 -21.4868 -0.961 -0.267 -0.074 111 101 128
392.4485 278.8582 -21.7125 -0.911 -0.349 0.218 99 85 110
390.0687 275.1978 -21.6099 -0.885 -0.437 -0.160 96 84 108
389.6056 273.9360 -21.6053 -0.880 -0.415 -0.231 90 81 102
390.8847 272.1920 -21.7642 -0.833 -0.461 -0.305 101 93 114
388.8905 267.1611 -21.7331 -0.795 -0.481 -0.370 88 81 99
389.5750 266.7898 -21.8024 -0.835 -0.491 -0.247 90 82 103
389.9437 266.1874 -21.8510 -0.835 -0.491 -0.247 91 83 106
389.9894 265.3516 -21.8783 -0.854 -0.428 -0.294 106 97 124
390.4431 264.8156 -21.9323 -0.963 -0.270 0.000 114 105 136
390.4578 263.9635 -21.9574 -0.865 -0.411 -0.288 116 107 138
389.8152 262.6420 -21.9390 -0.992 -0.111 0.055 106 97 128
389.3180 259.7404 -21.9773 -0.276 -0.898 -0.342 79 70 101
389.0167 258.6866 -21.9808 -0.992 -0.024 -0.126 80 71 102
385.3911 242.5688 -22.1191 -0.271 -0.778 0.567 97 86 103
385.5832 241.9297 -22.1535 -0.274 -0.783 0.558 106 94 110
387.1624 241.4413 -22.3031 -0.314 -0.860 0.403 110 97 114
387.8206 241.1102 -22.3690 -0.135 -0.919 0.370 131 118 135
389.0792 241.1693 -22.4757 -0.124 -0.912 0.391 129 116 133
390.0022 241.0080 -22.5597 -0.124 -0.912 0.391 129 116 133
382.7169 226.9135 -22.3263 0.009 -0.787 0.617 117 102 121
383.1930 223.7279 -22.4564 -0.673 -0.170 0.720 95 89 112
382.9638 222.9030 -22.4597 -0.670 -0.168 0.723 94 88 114
383.2747 222.4054 -22.5004 -0.690 -0.148 0.709 94 88 114
383.3806 221.7868 -22.5268 -0.690 -0.148 0.709 95 89 115
384.2621 220.9531 -22.6260 -0.736 -0.580 0.349 99 93 119
383.9404 218.0791 -22.6786 -0.980 -0.158 0.119 95 89 115
382.8338 214.8034 -22.6748 -0.955 -0.267 0.128 72 64 88
382.1399 213.7556 -22.6444 -0.979 -0.113 0.170 74 66 90
381.0577 208.6785 -22.6931 -0.948 -0.109 0.298 83 75 99
381.5677 207.7087 -22.7641 -0.965 -0.112 0.236 88 80 104
376.9854 202.7397 -22.5084 -0.998 -0.067 -0.017 92 84 108
375.8503 200.3254 -22.4782 -0.640 -0.673 -0.370 116 108 132
376.3838 200.0166 -22.5327 -0.418 -0.734 -0.535 123 115 139
378.2849 197.4854 -22.7672 -0.908 -0.139 0.394 120 112 136
374.2660 194.8081 -22.4960 -0.877 -0.170 0.450 116 108 132
372.5845 186.1467 -22.5933 -0.041 -0.959 0.281 100 91 110
373.3499 185.4422 -22.6788 -0.304 -0.514 0.802 86 77 96
375.3041 185.8572 -22.8355 -0.077 -0.991 0.110 76 67 88
375.7268 185.5228 -22.8812 -0.095 -0.995 0.019 64 55 76
374.9100 184.5889 -22.8370 -0.808 -0.587 -0.056 69 60 81
160.5663 487.1201 3.1156 -0.810 -0.042 0.586 64 47 65
187.6292 482.7408 0.6428 -0.973 -0.204 -0.106 105 94 111
190.6808 474.6242 0.1662 -0.997 -0.069 -0.020 135 128 146
191.2323 472.8199 0.0713 -0.998 -0.066 -0.019 88 81 99
192.1331 472.4952 -0.0157 0.036 -0.974 -0.223 43 34 53
193.1270 472.5511 -0.1009 0.036 -0.974 -0.223 43 35 53
194.1234 472.6071 -0.1863 0.036 -0.974 -0.223 62 52 72
235.0709 416.0570 -5.2232 -0.450 -0.584 0.675 53 54 58
235.2619 414.0673 -5.2915 -0.714 -0.233 0.660 48 49 51
237.0252 404.0506 -5.7051 -0.401 -0.205 0.893 52 54 53
237.9707 404.0089 -5.7886 -0.481 -0.288 0.828 46 48 47
249.4140 388.3992 -7.1912 -0.431 -0.822 -0.373 33 32 37
254.1787 382.2177 -7.7670 -0.951 -0.081 -0.299 28 29 33
266.6966 374.3436 -9.0625 -0.694 -0.518 0.501 25 25 27
267.1158 373.3015 -9.1261 -0.678 -0.517 0.522 32 32 34
290.6001 345.0624 -11.9061 -0.935 -0.314 -0.167 28 28 28
404.2379 348.8564 -21.7140 -0.747 -0.651 -0.135 60 48 72
405.1692 347.2106 -21.8379 -0.637 -0.589 -0.497 67 55 79
395.1806 324.6166 -21.5534 -0.897 -0.360 0.257 103 94 121
395.4096 323.6728 -21.5978 -0.888 -0.386 0.250 99 90 117
395.8254 322.9020 -21.6541 -0.891 -0.378 0.250 97 88 115
395.9040 321.8308 -21.6887 -0.898 -0.412 0.155 94 85 114
396.6917 321.3998 -21.7686 -0.896 -0.361 0.258 85 76 105
397.3033 320.8119 -21.8372 -0.893 -0.357 0.276 82 73 104
377.2850 292.6390 -20.8231 0.063 -0.996 0.066 70 56 89
394.1211 304.9272 -21.9719 -0.961 -0.273 -0.036 59 45 78
392.5233 302.5244 -21.8950 -0.956 -0.285 -0.067 58 44 77
392.7737 301.6939 -21.9383 -0.956 -0.285 -0.067 60 46 81
394.4149 300.9956 -22.0995 -0.965 -0.256 -0.064 62 48 81
394.6414 300.1516 -22.1412 -0.965 -0.256 -0.064 63 49 82
394.8671 299.3106 -22.1827 -0.965 -0.256 -0.064 61 48 78
395.0919 298.4724 -22.2240 -0.965 -0.256 -0.064 65 55 85
395.3161 297.6371 -22.2652 -0.965 -0.256 -0.064 80 71 100
395.4062 296.6957 -22.2975 -0.916 -0.239 0.322 85 76 105
390.1434 278.9123 -22.3002 -0.822 -0.472 0.319 94 80 105
390.5000 278.2584 -22.3482 -0.822 -0.472 0.319 94 80 105
390.8558 277.6061 -22.3961 -0.822 -0.472 0.319 92 78 103
388.2020 274.6560 -22.2413 -0.390 -0.625 0.677 92 80 104
389.3791 267.4877 -22.5300 -0.835 -0.491 -0.247 95 84 104
390.1178 266.2803 -22.6257 -0.835 -0.491 -0.247 91 80 105
390.2495 265.5063 -22.6573 -0.963 -0.270 0.000 107 96 125
390.4513 264.7862 -22.6935 -0.963 -0.270 0.000 115 104 137
390.6263 264.0496 -22.7279 -0.866 -0.409 -0.287 117 106 140
389.4001 260.6064 -22.7103 -0.314 -0.904 -0.292 81 70 104
385.3556 241.7370 -22.8474 -0.284 -0.760 0.585 114 101 118
386.1000 241.4637 -22.9193 -0.436 -0.688 0.580 110 97 114
387.8391 241.0787 -23.0809 -0.124 -0.912 0.391 136 123 140
388.7595 240.9175 -23.1654 -0.124 -0.912 0.391 125 112 129
389.6817 240.7560 -23.2499 -0.124 -0.912 0.391 124 111 128
388.9145 239.5037 -23.2156 -0.857 -0.357 -0.372 124 110 127
391.0051 237.8403 -23.4410 -0.448 -0.385 0.807 123 108 127
382.6450 226.8226 -22.9980 -0.691 -0.533 0.488 125 110 129
382.9914 226.3345 -23.0409 -0.691 -0.533 0.488 118 103 122
383.4462 217.7412 -23.3035 -0.981 -0.125 0.148 110 104 130
383.4966 215.7886 -23.3586 -0.982 -0.123 0.140 75 69 95
382.7712 214.7170 -23.3231 -0.955 -0.267 0.128 73 65 89
381.6759 213.4398 -23.2608 -0.979 -0.110 0.175 77 69 93
384.5188 213.1154 -23.5171 -0.973 -0.114 0.200 91 83 107
380.9953 207.3406 -23.3597 -0.962 -0.111 0.250 81 73 97
380.0490 206.1983 -23.3069 -0.965 -0.096 0.244 79 71 95
375.5871 200.7281 -23.0598 -0.972 -0.087 0.217 104 96 120
376.1205 200.4182 -23.1144 -0.640 -0.673 -0.370 112 104 128
377.7293 200.0878 -23.2632 -0.401 -0.740 -0.540 120 112 136
378.4030 199.8517 -23.3281 -0.136 -0.773 -0.620 129 121 145
377.4536 196.9969 -23.3194 -0.907 -0.155 0.392 120 112 136
372.1210 185.8632 -23.1434 -0.120 -0.926 0.358 99 90 109
372.6367 185.0379 -23.2097 -0.300 -0.550 0.779 99 90 109
375.0450 185.6752 -23.4032 -0.077 -0.990 0.118 91 82 103
375.5152 185.3641 -23.4522 -0.387 -0.860 0.332 85 76 97
186.5776 483.1588 -0.2332 -0.976 -0.174 -0.130 114 103 119
187.6591 483.5770 -0.3187 -0.974 -0.199 -0.110 121 112 129
235.1217 416.4781 -6.1139 -0.321 -0.587 0.743 55 56 60
235.5844 405.4958 -6.4177 -0.792 0.029 0.610 41 42 44
236.1300 402.1399 -6.5462 -0.401 -0.205 0.893 39 40 42
238.5531 401.0497 -6.7862 -0.490 -0.289 0.822 26 28 27
246.4685 390.5793 -7.7354 -0.687 -0.631 -0.359 46 48 47
253.4309 386.8600 -8.4389 -0.431 -0.822 -0.373 30 29 34
254.7067 379.5599 -8.7263 -0.951 -0.081 -0.299 40 41 45
266.8020 372.8770 -9.9538 -0.678 -0.517 0.522 32 32 34
267.3534 372.0851 -10.0214 -0.678 -0.517 0.522 36 36 38
290.9531 345.6761 -12.7364 -0.881 -0.182 -0.437 28 28 28
309.0258 349.4946 -14.2400 0.028 -0.666 0.745 35 34 32
312.3031 351.0854 -14.4911 0.173 -0.806 0.566 55 53 56
304.7778 321.9683 -14.5242 -0.454 -0.796 -0.400 100 85 105
399.6535 344.4514 -22.3587 -0.768 -0.613 -0.184 60 48 72
395.6711 329.7317 -22.3597 -0.895 -0.403 0.191 61 52 79
395.2358 323.5069 -22.4704 -0.888 -0.386 0.250 101 92 119
395.6512 322.7357 -22.5255 -0.891 -0.378 0.250 65 56 83
395.8006 321.7281 -22.5628 -0.898 -0.412 0.155 116 107 136
397.1089 320.6275 -22.7046 -0.893 -0.357 0.276 145 136 167
395.4097 301.8061 -23.0053 -0.976 -0.217 -0.006 74 60 93
395.0276 300.4521 -23.0040 -0.970 -0.237 -0.047 75 61 94
394.9171 299.3308 -23.0211 -0.965 -0.256 -0.064 82 70 100
375.7058 282.4589 -21.7297 -0.727 -0.427 0.539 96 88 115
375.3793 281.2355 -21.7302 -0.747 -0.430 0.507 106 100 126
394.5847 296.0006 -23.0715 -0.935 -0.206 0.290 110 101 128
372.4550 276.9581 -21.5745 -0.943 -0.161 0.290 100 91 118
392.5060 289.3409 -23.0475 -0.949 0.022 0.314 70 61 88
392.2866 288.1882 -23.0558 -0.945 0.026 0.325 74 64 89
392.5817 281.7100 -23.2369 -0.730 0.079 0.678 89 75 100
391.0002 279.5460 -23.1492 -0.814 -0.500 0.296 89 75 100
390.8735 278.5167 -23.1626 -0.825 -0.470 0.315 88 74 99
390.2233 268.0763 -23.3552 -0.754 -0.383 0.534 84 70 88
389.9536 266.9995 -23.3572 -0.964 -0.261 0.043 79 64 86
390.1497 266.2690 -23.3920 -0.964 -0.261 0.043 74 60 84
390.2353 265.4609 -23.4189 -0.966 -0.254 0.045 119 105 134
390.4255 264.7322 -23.4532 -0.966 -0.254 0.045 130 115 151
390.4935 263.9179 -23.4787 -0.962 -0.272 0.001 126 112 148
391.0730 263.4754 -23.5404 -0.959 -0.282 -0.029 109 95 131
389.6693 260.7621 -23.4815 -0.314 -0.904 -0.292 73 59 95
389.7226 259.9542 -23.5055 -0.330 -0.898 -0.292 74 60 96
384.8929 241.3891 -23.5238 -0.284 -0.760 0.585 113 100 117
385.6885 241.1503 -23.5998 -0.436 -0.688 0.580 107 94 111
384.7770 239.7926 -23.5518 -0.437 -0.401 0.805 119 106 123
386.8831 240.4114 -23.7229 -0.133 -0.856 0.499 130 117 134
387.9041 240.3176 -23.8152 -0.160 -0.860 0.485 119 106 123
388.3861 239.8730 -23.8684 -0.282 -0.751 0.597 118 105 122
382.6523 226.0798 -23.6927 -0.924 -0.240 -0.297 110 95 114
383.5551 224.5419 -23.8092 -0.889 -0.238 -0.390 122 114 136
384.4374 224.3830 -23.8908 -0.832 -0.326 -0.448 120 115 140
384.2297 222.1961 -23.9249 -0.908 -0.227 -0.352 118 112 138
382.7616 218.6243 -23.8808 -0.977 -0.146 0.157 109 103 129
382.0657 217.5500 -23.8451 -0.977 -0.084 0.197 111 105 131
382.7086 214.6305 -23.9718 -0.955 -0.267 0.128 84 76 100
383.5940 211.8986 -24.1153 -0.976 -0.105 0.189 104 96 120
379.9707 206.1031 -23.9343 -0.963 -0.091 0.255 104 96 120
377.5043 204.1351 -23.7638 -0.964 -0.101 0.244 103 95 119
376.4710 202.3562 -23.7152 -0.998 -0.052 -0.019 100 92 116
376.5714 201.8074 -23.7372 -0.497 -0.650 -0.575 107 99 123
378.3141 200.3465 -23.9260 -0.136 -0.773 -0.620 125 117 141
379.2069 198.4476 -24.0502 -0.974 -0.156 0.166 120 115 138
374.6636 185.9744 -23.9479 -0.143 -0.966 0.217 101 89 109
375.4582 185.8208 -24.0217 -0.082 -0.990 0.113 96 84 106
375.6188 185.3584 -24.0470 -0.422 -0.834 0.354 94 82 104
171.8330 473.1016 -0.1165 -0.347 -0.769 -0.537 58 47 61
172.7065 472.7675 -0.2019 -0.347 -0.769 -0.537 57 46 60
172.8456 468.6985 -0.3036 -0.355 -0.763 -0.540 71 60 74
189.9711 481.3641 -1.5555 -0.997 -0.071 -0.026 69 62 80
190.5102 479.4157 -1.6464 -0.996 -0.083 -0.044 49 42 60
233.8345 413.4925 -6.9628 -0.588 -0.376 0.716 43 44 46
235.8354 413.6263 -7.1386 -0.791 0.029 0.611 52 53 57
235.6956 410.8372 -7.1873 -0.791 0.029 0.611 43 44 48
240.4937 401.3341 -7.8244 -0.744 -0.641 -0.188 31 31 31
243.6917 399.7600 -8.1446 -0.722 -0.663 -0.196 52 52 52
243.8443 397.8905 -8.1993 -0.905 -0.402 -0.143 43 43 43
244.4467 397.0583 -8.2713 -0.928 -0.353 -0.115 44 44 44
245.7494 393.4703 -8.4664 -0.884 -0.467 -0.009 50 52 51
246.5506 390.9778 -8.5927 -0.687 -0.631 -0.359 40 40 40
253.3791 386.9501 -9.2910 -0.437 -0.819 -0.371 38 37 42
266.3433 374.0006 -10.7332 -0.685 -0.595 0.420 22 21 26
267.4594 370.6354 -10.9067 -0.580 -0.723 0.375 35 34 39
309.7623 350.5863 -15.1255 -0.891 -0.449 0.064 48 47 45
399.2028 341.5238 -23.3139 0.283 -0.958 -0.053 73 61 85
394.5118 331.0215 -23.1253 -0.759 -0.593 -0.267 69 59 84
395.4770 322.5694 -23.3969 -0.891 -0.378 0.250 74 65 92
373.8087 281.8277 -22.3551 -0.684 -0.477 0.552 99 86 116
375.6514 282.3936 -22.5073 -0.749 -0.395 0.532 116 107 134
375.9808 281.7087 -22.5518 -0.749 -0.395 0.532 124 115 142
376.3093 281.0255 -22.5961 -0.749 -0.395 0.532 124 115 142
375.4208 272.8625 -22.6958 -0.831 0.078 0.550 101 87 112
393.2968 282.2364 -24.0870 -0.761 0.078 0.644 87 73 98
393.1804 281.2028 -24.0993 -0.761 0.078 0.644 89 75 100
391.3769 278.8750 -23.9893 -0.806 -0.508 0.305 87 73 98
390.3600 265.5168 -24.1915 -0.774 -0.358 0.521 134 119 148
390.3653 264.6531 -24.2109 -0.963 -0.267 0.047 137 121 156
390.6503 263.9955 -24.2508 -0.843 -0.475 0.253 130 114 150
391.1008 263.4593 -24.3028 -0.959 -0.282 -0.029 111 95 131
390.0382 260.9887 -24.2621 -0.321 -0.902 -0.287 66 50 85
383.8997 241.4543 -24.1423 -0.182 -0.840 0.512 98 85 102
384.4312 241.0420 -24.1988 -0.284 -0.760 0.585 98 85 102
385.2777 240.8374 -24.2789 -0.436 -0.688 0.580 93 80 97
384.0517 239.2748 -24.2037 -0.437 -0.401 0.805 107 94 111
386.6720 240.2302 -24.4168 -0.164 -0.860 0.483 118 105 122
387.5198 240.0239 -24.4971 -0.164 -0.860 0.483 114 103 119
387.9053 239.5175 -24.5426 -0.282 -0.751 0.597 113 102 118
386.1465 237.6302 -24.4269 -0.249 -0.634 0.732 113 102 118
380.1635 211.8315 -24.4584 -0.974 -0.180 -0.134 94 86 110
380.4705 210.7263 -24.5101 -0.973 -0.143 0.180 99 91 115
381.0557 210.4193 -24.5691 -0.967 -0.088 0.237 105 97 121
379.9495 199.3750 -24.7126 -0.994 -0.087 -0.066 102 97 120
378.0661 197.7953 -24.5790 -0.985 -0.137 0.108 95 90 113
375.8325 196.0425 -24.4180 -0.957 -0.021 0.291 98 93 116
373.4605 185.8711 -24.4292 -0.343 -0.855 0.389 101 89 109
375.2729 186.2168 -24.5835 -0.291 -0.899 0.327 101 89 109
375.6652 185.8658 -24.6263 -0.094 -0.990 0.101 103 91 113
375.4300 185.2108 -24.6196 -0.422 -0.834 0.354 104 92 114
371.6269 181.7774 -24.3552 -0.970 -0.134 0.201 108 96 118
172.4948 472.4869 -1.1334 -0.934 -0.349 -0.077 58 48 59
190.5006 480.0435 -2.6107 -0.996 -0.083 -0.044 36 29 47
225.0422 443.7709 -6.4565 -0.888 -0.215 0.407 97 96 112
226.4242 441.9451 -6.6178 -0.933 -0.239 0.270 48 47 63
229.7001 428.7461 -7.1770 -0.830 0.196 0.522 39 40 44
233.3335 412.5060 -7.8292 -0.597 -0.381 0.706 44 45 47
235.1529 397.9842 -8.2831 -0.409 -0.220 0.886 40 41 43
243.5477 399.6695 -9.0085 -0.759 -0.627 -0.178 54 54 54
244.2883 396.9328 -9.1300 -0.922 -0.315 -0.224 62 62 62
244.5035 395.2328 -9.1833 -0.908 -0.394 -0.143 72 72 74
245.2137 394.6570 -9.2590 -0.881 -0.472 -0.008 63 63 65
245.4564 393.0429 -9.3131 -0.880 -0.475 -0.022 40 40 42
250.2641 386.7164 -9.8739 -0.646 -0.608 -0.461 37 36 41
257.5995 357.9359 -11.1107 0.437 -0.445 0.781 18 17 23
309.0961 349.7397 -15.9298 -0.891 -0.435 -0.128 48 47 45
395.4104 354.4361 -23.6397 -0.151 -0.879 -0.451 57 51 71
395.4216 336.6963 -23.9943 -0.892 -0.448 -0.065 76 64 88
394.6992 331.1929 -24.0387 -0.759 -0.593 -0.267 67 57 82
393.6361 329.0163 -23.9859 -0.960 -0.237 0.146 66 57 84
395.1715 322.2846 -24.2589 -0.895 -0.355 0.271 71 62 89
395.2856 304.8037 -24.6176 -0.876 0.030 0.481 69 55 88
394.0419 302.7043 -24.5470 -0.934 -0.048 0.354 67 53 86
394.9637 302.4341 -24.6358 -0.946 -0.052 0.321 64 50 83
395.0110 301.4327 -24.6600 -0.946 -0.052 0.321 65 52 82
395.5609 299.8213 -24.7418 -0.935 -0.053 0.350 82 69 99
376.5391 283.1053 -23.3553 0.271 -0.741 0.614 100 90 115
377.6676 283.0733 -23.4579 0.246 -0.747 0.617 120 110 135
376.6155 281.2547 -23.3991 -0.732 -0.404 0.548 131 120 146
380.0826 276.5298 -23.8067 -0.680 0.055 0.731 104 90 115
395.3224 285.6943 -25.0018 -0.927 -0.285 -0.243 106 90 116
395.1900 284.6317 -25.0110 -0.931 -0.281 -0.232 106 90 116
395.2179 282.7487 -25.0511 -0.902 -0.282 -0.326 96 82 107
387.7426 270.6024 -24.6174 -0.855 -0.429 0.293 87 67 84
388.0579 269.9459 -24.6589 -0.855 -0.429 0.293 87 67 85
390.0009 265.2202 -24.9288 -0.774 -0.358 0.521 103 85 114
390.3205 264.5851 -24.9703 -0.786 -0.359 0.503 105 90 122
390.5139 263.8611 -25.0023 -0.846 -0.472 0.248 103 88 120
391.1270 263.4419 -25.0661 -0.833 -0.489 0.259 92 77 110
390.7506 262.3138 -25.0545 -0.398 -0.857 -0.328 83 68 99
390.6925 261.4190 -25.0671 -0.408 -0.848 -0.338 66 51 82
389.6121 257.2853 -25.0518 -0.919 -0.058 0.389 75 60 89
389.0891 256.0881 -25.0284 -0.897 -0.055 0.439 82 68 94
388.8481 255.0941 -25.0264 -0.880 -0.073 0.469 86 70 94
383.0197 240.8294 -24.7838 -0.423 -0.433 0.796 87 74 91
384.1447 240.8107 -24.8859 -0.282 -0.752 0.596 86 73 90
384.5739 240.3321 -24.9342 -0.410 -0.423 0.808 85 72 89
383.5818 238.9243 -24.8726 -0.410 -0.435 0.802 93 80 97
383.6108 238.1906 -24.8898 -0.395 -0.440 0.806 106 93 110
386.2302 239.1424 -25.1077 -0.257 -0.602 0.756 112 99 116
386.8574 238.7953 -25.1713 -0.257 -0.602 0.756 110 97 114
385.4636 237.1458 -25.0781 -0.249 -0.634 0.732 106 93 110
385.8853 235.9294 -25.1405 -0.225 -0.682 0.696 99 85 102
379.7950 210.2940 -25.1008 -0.920 -0.145 0.364 87 82 105
380.4083 210.0040 -25.1621 -0.921 -0.141 0.363 91 86 109
381.7174 209.4695 -25.2911 -0.893 -0.171 -0.416 101 96 119
377.9951 201.2670 -25.1180 -0.520 -0.769 -0.372 116 111 134
380.5193 201.4143 -25.3433 -0.664 -0.647 -0.375 118 113 136
379.1053 198.8766 -25.2660 -0.956 -0.091 0.280 91 86 109
378.1582 197.7898 -25.2021 -0.928 -0.135 0.346 90 86 109
374.3677 189.0042 -25.0345 -0.861 -0.143 -0.488 101 89 109
371.2123 185.2510 -24.8240 -0.165 -0.962 0.217 101 89 109
375.4852 185.7222 -25.2009 -0.023 -0.998 0.062 112 100 122
171.4684 472.8451 -1.9786 -0.944 -0.326 -0.047 45 35 44
184.5318 471.6743 -3.1947 -0.380 0.055 0.923 44 33 50
226.1412 438.6113 -7.5940 -0.830 -0.229 0.509 73 72 87
234.1421 405.1203 -8.9262 -0.791 0.029 0.611 23 24 29
239.7234 400.0201 -9.5282 -0.730 -0.631 -0.264 31 31 31
309.6641 350.5992 -16.8126 -0.888 -0.440 -0.132 51 47 46
395.5586 336.8256 -24.9178 -0.885 -0.463 -0.047 85 73 97
395.4446 335.4996 -24.9312 -0.760 -0.552 -0.343 93 81 105
395.4098 331.8525 -24.9933 -0.695 -0.492 -0.525 67 57 82
395.3200 321.2670 -25.1748 -0.889 -0.425 0.170 93 84 112
395.6941 320.4653 -25.2234 -0.889 -0.425 0.170 142 133 162
396.5257 320.0745 -25.3065 -0.893 -0.357 0.276 142 133 163
396.4577 318.8848 -25.3216 -0.921 -0.358 0.152 141 132 162
394.3447 313.6791 -25.2216 -0.941 -0.332 -0.061 148 139 169
393.6577 311.9805 -25.1892 -0.929 -0.359 -0.091 135 126 156
394.1137 311.2867 -25.2433 0.053 -0.766 0.641 85 76 106
395.3983 311.3127 -25.3604 0.154 -0.719 0.678 56 47 77
396.5007 311.1780 -25.4636 0.143 -0.715 0.684 64 53 84
397.8642 311.2653 -25.5868 0.127 -0.698 0.704 66 52 85
394.8246 304.3954 -25.4318 -0.876 0.030 0.481 72 59 89
394.7785 303.3052 -25.4472 -0.876 0.030 0.481 70 57 87
395.8803 300.0645 -25.6061 -0.897 -0.025 0.442 57 44 72
395.1428 298.4270 -25.5679 -0.891 -0.028 0.453 78 66 90
395.1040 297.3735 -25.5833 -0.945 -0.045 0.325 100 87 112
375.5196 280.3367 -24.0968 -0.721 -0.476 0.503 109 95 120
395.5037 285.8080 -25.8271 -0.927 -0.285 -0.243 103 87 113
395.9069 285.1617 -25.8756 -0.929 -0.273 -0.250 101 85 111
396.6082 284.7488 -25.9471 -0.929 -0.278 -0.244 96 80 106
397.1704 284.2287 -26.0079 -0.931 -0.289 -0.223 93 79 105
389.9787 264.3018 -25.7070 -0.786 -0.359 0.503 111 97 124
390.4418 263.7732 -25.7589 -0.834 -0.464 0.299 123 108 136
391.2044 263.4613 -25.8342 -0.852 -0.479 0.209 122 107 135
390.2462 261.9158 -25.7743 -0.408 -0.848 -0.338 118 104 131
390.9841 261.5902 -25.8476 -0.408 -0.848 -0.338 104 89 117
389.9104 259.1328 -25.7934 -0.927 -0.064 0.370 75 61 87
389.5628 258.0477 -25.7811 -0.917 -0.066 0.393 68 54 80
389.3207 257.0424 -25.7769 -0.919 -0.058 0.389 71 57 82
388.7544 255.8155 -25.7471 -0.897 -0.055 0.439 80 66 90
388.3264 254.6917 -25.7281 -0.883 -0.074 0.464 98 83 105
386.7545 252.7798 -25.6185 -0.964 -0.090 0.252 99 84 105
387.8784 252.7444 -25.7220 -0.970 -0.186 0.154 99 84 103
384.1508 243.8490 -25.5404 0.114 -0.876 -0.469 95 82 100
384.3328 243.1963 -25.5687 -0.042 -0.896 -0.442 92 79 97
382.5399 241.2330 -25.4399 -0.233 -0.797 0.558 93 80 97
383.2629 240.1866 -25.5248 -0.424 -0.420 0.803 97 84 101
383.4352 239.5412 -25.5521 -0.404 -0.433 0.806 100 87 104
382.8618 238.4102 -25.5199 -0.410 -0.435 0.802 102 89 106
385.1497 238.3970 -25.7295 -0.228 -0.604 0.764 119 105 122
384.2156 237.0424 -25.6683 -0.264 -0.611 0.747 115 102 119
385.5578 235.6753 -25.8156 -0.216 -0.685 0.696 106 92 109
385.2965 233.3033 -25.8342 -0.802 0.227 0.552 127 112 131
384.2812 224.8379 -25.8930 -0.956 -0.210 -0.204 106 98 122
382.0133 221.4088 -25.7470 -0.993 -0.097 -0.072 108 102 128
382.2271 218.1624 -25.8247 -0.974 -0.173 0.143 97 90 115
381.2787 216.9415 -25.7598 -0.972 -0.160 0.170 98 91 116
382.0431 216.0638 -25.8455 -0.939 -0.166 0.301 77 71 94
382.1427 215.4632 -25.8654 -0.939 -0.166 0.301 68 63 86
382.1568 205.9039 -26.0380 -0.919 -0.149 -0.364 93 88 111
379.4786 202.6151 -25.8519 -0.567 -0.754 -0.331 108 103 126
380.7950 201.5074 -25.9922 -0.664 -0.647 -0.375 107 102 125
381.0590 201.0466 -26.0246 -0.682 -0.631 -0.369 98 89 116
378.9412 198.7365 -25.8722 -0.956 -0.091 0.280 89 83 109
377.9575 197.6307 -25.8020 -0.928 -0.135 0.346 87 83 106
373.6938 185.8749 -25.6226 0.308 -0.950 0.050 101 89 109
375.7092 186.3184 -25.7991 0.190 -0.976 -0.107 107 95 115
63.2830 245.9634 3.4806 -0.737 -0.127 -0.664 26 24 35
215.8272 411.9764 -7.9994 -0.926 -0.011 0.377 60 59 75
228.9784 427.4408 -8.9708 -0.834 0.195 0.516 40 41 46
229.4273 423.3188 -9.0779 -0.793 0.222 0.568 28 28 30
231.7401 416.5027 -9.4005 -0.021 -0.364 0.931 45 45 45
248.6682 423.7917 -10.8515 -0.656 -0.672 0.343 31 31 31
245.4847 400.1176 -10.9335 -0.894 -0.403 -0.196 19 19 21
200.4903 183.3398 -10.2169 -0.496 -0.718 0.488 51 33 49
390.0080 363.7217 -24.8910 -0.768 -0.198 0.609 65 52 70
396.6319 367.9150 -25.4375 -0.455 -0.182 0.872 57 44 64
394.6077 354.9680 -25.4560 -0.688 -0.283 0.669 56 48 66
392.4442 338.7609 -25.5136 0.335 -0.942 -0.027 65 53 76
403.3462 348.0074 -26.3757 -0.644 -0.657 -0.391 70 58 82
393.6425 323.1780 -25.8724 -0.888 -0.364 0.282 86 76 101
395.2065 321.1552 -26.0494 -0.889 -0.425 0.170 97 89 113
396.8202 321.4630 -26.1939 -0.486 -0.700 -0.522 148 140 165
396.8288 320.3337 -26.2126 -0.921 -0.358 0.155 149 140 166
397.0949 319.4388 -26.2515 -0.926 -0.343 0.160 125 117 142
393.5038 312.9283 -26.0226 -0.929 -0.356 -0.100 155 145 171
393.6699 311.9773 -26.0531 -0.901 -0.409 -0.146 147 137 163
395.0484 308.8299 -26.2308 -0.931 -0.352 -0.096 71 58 87
394.3644 303.9878 -26.2445 -0.876 0.030 0.481 95 82 110
394.3196 302.8997 -26.2577 -0.876 0.030 0.481 81 68 96
394.7218 299.0838 -26.3556 -0.891 -0.028 0.453 77 63 89
394.7438 298.0761 -26.3737 -0.891 -0.028 0.453 75 59 85
394.9068 297.1891 -26.4029 -0.891 -0.019 0.453 72 56 82
375.1873 280.0434 -24.8502 -0.721 -0.476 0.503 74 58 84
394.0158 285.5765 -26.5052 -0.823 -0.336 -0.458 100 82 108
394.6444 284.1492 -26.5860 -0.823 -0.336 -0.458 96 78 104
395.5619 282.0081 -26.7050 -0.820 -0.339 -0.461 92 76 102
387.6507 269.5768 -26.1705 -0.842 -0.487 -0.233 99 78 95
388.0186 268.9621 -26.2143 -0.842 -0.487 -0.233 110 92 108
388.8063 268.6611 -26.2920 -0.848 -0.466 0.253 118 99 113
389.1176 267.1260 -26.3452 -0.819 -0.330 0.469 99 78 95
389.6374 264.0189 -26.4428 -0.786 -0.359 0.503 114 100 124
390.4827 263.7668 -26.5250 -0.833 -0.489 0.259 125 112 133
391.5009 263.6383 -26.6213 -0.850 -0.481 0.217 126 113 134
390.2386 261.8737 -26.5326 -0.391 -0.847 -0.359 125 112 133
390.9298 261.5145 -26.6023 -0.409 -0.834 -0.370 122 108 129
389.4826 258.7923 -26.5116 -0.923 -0.065 0.379 93 80 99
388.9861 257.6031 -26.4846 -0.919 -0.058 0.389 83 70 89
389.0296 256.7998 -26.5014 -0.919 -0.058 0.389 80 67 85
388.4201 255.5432 -26.4649 -0.897 -0.055 0.439 84 71 89
388.1658 254.5411 -26.4573 -0.976 -0.112 0.185 100 85 106
386.5807 252.6203 -26.3412 -0.964 -0.090 0.252 100 85 104
387.7826 252.6388 -26.4521 -0.970 -0.186 0.154 100 85 104
381.8133 239.9467 -26.1015 -0.295 -0.759 0.581 117 104 121
383.5382 239.5663 -26.2672 -0.250 -0.787 -0.564 120 109 125
382.0662 237.0975 -26.1702 -0.278 -0.729 0.626 122 110 126
381.5453 235.2717 -26.1510 0.079 -0.572 0.816 116 105 121
382.2527 234.9890 -26.2210 0.076 -0.576 0.814 112 101 117
383.4041 234.9908 -26.3276 0.076 -0.576 0.814 106 95 111
384.5597 234.9926 -26.4345 0.076 -0.576 0.814 104 91 109
384.9874 233.7939 -26.4932 -0.834 0.213 0.509 118 103 122
383.8343 230.8864 -26.4327 -0.826 0.208 0.523 119 104 123
385.2220 230.3137 -26.5703 -0.806 -0.449 -0.387 116 101 120
385.8623 229.9936 -26.6346 -0.810 -0.447 -0.381 115 100 120
386.5506 229.7031 -26.7030 -0.843 -0.432 -0.322 118 103 123
390.3608 231.3309 -27.0298 -0.984 -0.174 0.049 119 104 125
378.6936 220.0503 -26.1292 -0.978 -0.153 -0.144 120 111 135
379.5323 219.2024 -26.2203 -0.988 -0.114 -0.105 120 111 134
378.9211 218.1682 -26.1802 -0.976 -0.181 -0.125 122 113 136
378.6090 215.9910 -26.1859 -0.954 -0.207 -0.216 107 98 118
384.1944 207.5855 -26.8367 -0.921 -0.133 -0.366 84 79 102
383.2548 205.8286 -26.7777 -0.919 -0.153 -0.363 88 83 106
379.7412 202.7034 -26.5021 -0.567 -0.754 -0.331 87 82 105
379.6909 202.0705 -26.5075 -0.549 -0.758 -0.352 83 78 101
379.8586 200.3563 -26.5503 -0.981 -0.140 0.135 81 76 99
378.7772 198.5963 -26.4782 -0.956 -0.091 0.280 86 82 105
375.8947 195.9143 -26.2541 -0.965 -0.039 0.261 80 75 98
375.8766 195.3252 -26.2618 -0.838 -0.193 0.510 73 65 88
377.8138 187.2905 -26.5689 0.119 -0.993 -0.011 100 88 108
232.4114 115.4565 -14.2518 -0.935 -0.337 -0.110 107 95 117
127.4648 414.3701 -0.5635 -0.481 -0.178 0.859 59 48 64
224.4801 443.2676 -9.2478 -0.910 -0.042 0.411 60 59 75
226.7774 419.1028 -9.7987 -0.850 0.182 0.494 42 43 47
226.1422 409.6602 -9.8704 -0.697 -0.636 -0.331 77 77 77
231.6711 416.6261 -10.2914 -0.198 -0.605 0.771 58 58 58
239.5165 402.3213 -11.2249 -0.971 -0.016 0.240 42 42 40
242.6776 405.1829 -11.4812 -0.395 -0.230 0.889 34 34 34
245.3207 395.5829 -11.8621 -0.656 -0.652 -0.380 78 78 80
275.4034 271.7342 -16.4001 -0.784 -0.615 0.090 53 32 47
393.5938 338.6346 -26.5395 -0.763 -0.506 -0.402 69 60 79
394.9581 336.2543 -26.7004 -0.756 -0.539 -0.371 83 74 93
395.4942 335.5436 -26.7604 -0.756 -0.539 -0.371 93 84 104
396.0293 334.8342 -26.8204 -0.756 -0.539 -0.371 83 71 92
396.6120 334.1718 -26.8842 -0.786 -0.513 -0.346 67 57 80
396.8932 333.2298 -26.9236 -0.808 -0.491 -0.326 65 55 79
394.5854 325.1877 -26.8192 -0.585 -0.746 -0.318 67 57 82
396.5045 322.3123 -27.0389 -0.486 -0.700 -0.522 86 76 101
397.2595 321.8458 -27.1161 -0.486 -0.700 -0.522 139 131 155
396.7230 319.0970 -27.1040 -0.957 -0.289 -0.014 121 111 136
394.5623 313.8430 -26.9746 -0.960 -0.248 -0.128 138 128 152
393.7754 312.0554 -26.9258 -0.901 -0.409 -0.146 137 127 151
394.1363 311.2770 -26.9704 -0.901 -0.409 -0.146 107 97 122
394.6367 310.6226 -27.0264 -0.922 -0.369 -0.118 76 66 91
393.9051 303.5811 -27.0557 -0.876 0.030 0.481 76 63 91
393.8615 302.4951 -27.0667 -0.876 0.030 0.481 76 63 91
394.2971 298.7108 -27.1600 -0.891 -0.036 0.453 147 133 159
393.9298 296.3644 -27.1583 -0.933 -0.008 0.361 96 80 106
393.9332 295.3535 -27.1726 -0.933 -0.008 0.361 93 77 103
394.4049 282.0318 -27.4019 -0.815 -0.341 -0.469 88 74 99
394.7208 281.3305 -27.4412 -0.815 -0.341 -0.469 94 80 105
394.1286 279.9356 -27.4051 -0.817 -0.342 -0.464 100 84 109
388.6767 272.1100 -27.0033 -0.844 0.091 0.529 102 81 98
388.3830 269.2011 -27.0162 -0.833 -0.504 -0.228 117 96 113
388.6584 268.5182 -27.0514 -0.848 -0.466 0.253 119 98 113
388.3561 267.4105 -27.0385 -0.850 -0.475 -0.228 109 88 103
388.7125 266.7938 -27.0805 -0.850 -0.475 -0.228 94 71 89
389.0680 266.1784 -27.1223 -0.850 -0.475 -0.228 79 59 78
389.4626 265.5935 -27.1674 -0.847 -0.475 -0.240 85 69 87
389.8177 264.9816 -27.2092 -0.847 -0.475 -0.240 104 91 109
390.9854 264.9608 -27.3188 -0.843 -0.472 -0.259 113 100 118
391.3403 264.3502 -27.3605 -0.843 -0.472 -0.259 123 110 127
391.0570 263.2826 -27.3488 -0.837 -0.480 -0.264 131 119 135
391.3551 262.6370 -27.3857 -0.811 -0.311 0.495 137 124 140
391.9189 262.1832 -27.4448 -0.852 -0.472 0.226 118 106 122
390.3117 260.1871 -27.3220 -0.910 0.019 0.414 110 98 112
389.1999 258.5546 -27.2406 -0.923 -0.065 0.379 103 91 105
388.5720 256.4402 -27.2112 -0.935 -0.056 0.351 87 75 88
388.0974 255.2789 -27.1828 -0.920 -0.062 0.387 87 74 90
386.4069 252.4608 -27.0637 -0.964 -0.090 0.252 100 85 106
393.2487 253.0904 -27.6957 -0.944 -0.032 0.328 107 92 113
384.1397 239.9187 -27.0256 -0.250 -0.787 -0.564 121 108 125
386.9289 240.9851 -27.2720 -0.998 0.020 0.060 120 107 124
383.9952 236.8122 -27.0552 -0.381 -0.877 0.293 106 93 110
384.4217 236.3420 -27.1017 -0.414 -0.860 0.297 100 87 104
385.2285 236.1168 -27.1804 -0.389 -0.871 0.299 94 81 98
381.4781 229.3642 -26.9230 -0.824 0.207 0.527 107 93 110
387.5390 230.9850 -27.4681 -0.929 -0.250 -0.273 127 113 129
379.1636 218.9347 -26.8511 -0.972 -0.209 -0.112 110 101 120
378.9479 216.1408 -26.8697 -0.972 -0.181 -0.150 120 109 126
380.3069 213.6509 -27.0316 -0.932 -0.141 -0.335 59 53 79
381.3766 207.8637 -27.2122 -0.879 -0.211 -0.428 90 84 110
377.6189 205.1672 -26.8977 -0.926 -0.164 -0.339 89 83 109
384.3565 208.2487 -27.4859 -0.921 -0.133 -0.366 90 84 110
377.2392 197.1468 -26.9736 -0.929 -0.146 0.340 83 78 101
376.1013 195.9684 -26.8834 -0.973 -0.167 0.160 73 68 91
375.8167 195.2403 -26.8669 -0.807 -0.254 -0.533 62 54 77
376.5144 186.5997 -27.0522 0.351 -0.934 -0.063 98 86 108
124.6883 417.7722 -1.0430 -0.389 -0.749 -0.536 59 48 62
128.0283 407.0399 -1.4868 -0.309 -0.822 -0.478 65 56 74
227.0678 420.2174 -10.7131 -0.720 -0.614 -0.324 43 44 48
227.4584 418.6477 -10.7687 -0.721 -0.644 -0.257 43 44 48
230.9714 415.1040 -11.1436 -0.818 -0.439 -0.373 56 56 54
233.0072 403.1205 -11.4788 -0.560 -0.431 0.708 43 44 48
238.0415 408.3920 -11.8931 -0.247 -0.833 -0.495 41 42 46
253.7348 388.6875 -13.6139 -0.646 -0.630 -0.431 22 21 26
310.0753 351.3922 -19.3943 -0.853 -0.505 0.133 47 45 48
308.1269 338.7244 -19.3602 -0.936 -0.224 -0.270 92 85 93
315.4265 335.9393 -20.0848 -0.606 -0.449 -0.657 71 57 74
389.0022 358.6054 -26.7860 -0.631 -0.001 0.776 64 51 71
380.3168 328.2503 -26.3236 -0.043 -0.980 0.195 58 51 66
394.2717 336.8240 -27.5439 -0.563 -0.489 -0.666 61 53 68
395.3475 336.6232 -27.6482 -0.786 -0.513 -0.346 63 55 70
395.7696 335.8025 -27.6979 -0.756 -0.539 -0.371 74 67 82
396.3804 335.1626 -27.7634 -0.775 -0.523 -0.354 85 77 94
396.8682 334.4090 -27.8185 -0.786 -0.513 -0.346 83 74 93
395.0590 326.7811 -27.7377 -0.755 -0.637 0.154 78 66 90
394.5415 325.1404 -27.7082 -0.624 -0.731 -0.276 72 59 85
397.6622 322.1958 -28.0388 -0.318 -0.678 -0.663 118 108 132
392.4590 309.8039 -27.6930 0.149 -0.682 0.716 114 104 128
393.6676 309.7681 -27.8079 0.152 -0.685 0.713 97 87 112
394.3289 309.2572 -27.8767 0.114 -0.697 0.708 101 88 114
394.0524 303.6869 -27.9166 -0.874 0.021 0.485 67 54 82
393.8230 302.4435 -27.9096 -0.876 0.024 0.482 74 61 89
393.9014 298.3619 -27.9655 -0.891 -0.036 0.453 140 126 152
393.6801 297.1553 -27.9589 -0.913 -0.026 0.407 127 111 137
393.4942 294.9716 -27.9672 -0.949 -0.071 0.308 98 82 108
394.9619 282.4326 -28.2552 -0.777 0.018 0.629 89 75 100
388.2491 270.8560 -27.7567 -0.853 -0.478 -0.209 100 79 96
388.9210 266.9135 -27.8672 -0.847 -0.475 -0.240 92 69 87
389.0453 266.1275 -27.8883 -0.818 -0.510 -0.264 84 65 81
389.4291 265.5344 -27.9317 -0.818 -0.510 -0.264 94 79 92
389.7024 264.8626 -27.9656 -0.831 -0.505 -0.232 105 93 105
390.2898 264.4209 -28.0265 -0.823 -0.507 -0.257 111 99 111
391.5257 264.4481 -28.1432 -0.843 -0.472 -0.259 120 108 120
390.6315 262.9403 -28.0764 -0.840 -0.494 0.226 129 117 128
390.7710 262.1819 -28.0986 -0.820 -0.526 0.225 132 120 131
391.7911 262.0548 -28.1968 -0.852 -0.472 0.226 120 108 119
389.9750 259.9105 -28.0502 -0.910 0.019 0.414 115 104 114
388.9174 258.3171 -27.9689 -0.923 -0.065 0.379 106 94 104
387.8108 255.0400 -27.9030 -0.920 -0.062 0.387 92 80 94
385.6677 238.6019 -27.8952 -1.000 -0.004 0.007 96 83 100
383.3303 235.5951 -27.7095 -0.201 -0.761 -0.617 86 73 90
386.1860 230.1001 -28.0453 -0.905 -0.304 -0.298 117 101 115
384.2676 228.2006 -27.8861 -0.912 -0.375 -0.164 116 100 113
379.5459 220.4665 -27.5306 -0.927 -0.123 -0.356 93 84 100
381.2031 218.0814 -27.7159 -0.915 -0.246 -0.319 115 104 120
381.4505 204.1288 -27.9051 -0.963 -0.004 0.269 64 59 82
377.8029 197.3881 -27.6396 -0.886 -0.182 -0.427 68 63 86
376.7180 196.2363 -27.5505 -0.896 -0.183 -0.405 65 60 83
379.1021 187.8065 -27.8764 0.340 -0.938 -0.059 93 81 103
250.4805 122.9147 -16.4618 -0.044 -0.303 0.952 93 81 105
123.0769 409.8738 -1.7541 0.369 -0.881 0.296 59 48 62
123.8298 410.1659 -1.8234 0.369 -0.881 0.296 59 48 62
126.7615 410.2869 -2.1031 -0.487 -0.176 0.856 67 57 68
127.1222 406.6891 -2.1731 -0.365 -0.769 -0.525 69 58 70
128.5557 406.4650 -2.3127 -0.347 -0.777 -0.524 62 54 65
116.1615 216.2367 -2.9999 -0.750 -0.227 0.622 59 56 65
224.3200 443.5655 -11.1234 -0.939 -0.012 0.342 76 75 91
227.2875 421.1416 -11.6288 -0.705 -0.624 -0.336 43 44 48
227.4680 418.9951 -11.6672 -0.721 -0.644 -0.257 43 44 48
230.3225 416.2531 -11.9678 -0.720 -0.642 -0.264 46 46 46
231.0751 415.6781 -12.0456 -0.818 -0.439 -0.373 44 44 44
245.7426 399.1925 -13.6135 -0.844 -0.422 -0.331 55 55 57
247.9873 393.3206 -13.8865 -0.672 -0.584 -0.455 23 23 25
248.8802 393.1409 -13.9738 -0.677 -0.547 -0.492 25 25 27
250.1593 391.6822 -14.1108 -0.677 -0.547 -0.492 26 25 30
252.7339 388.8435 -14.3855 -0.639 -0.649 -0.413 31 30 35
254.9141 391.3504 -14.5697 -0.634 -0.636 -0.440 26 25 30
320.1700 363.9012 -21.0932 -0.861 -0.491 -0.130 53 48 54
348.1006 377.9000 -23.6316 0.247 -0.303 0.920 62 48 63
384.9675 357.1025 -27.3693 -0.828 -0.078 0.556 80 67 85
393.9871 339.0158 -28.4118 -0.789 -0.387 -0.478 68 62 76
394.2734 338.0550 -28.4487 -0.563 -0.489 -0.666 71 65 79
395.6030 336.8650 -28.5878 -0.786 -0.513 -0.346 86 80 94
396.0458 336.0621 -28.6382 -0.756 -0.539 -0.371 79 73 87
396.6188 335.3847 -28.6998 -0.786 -0.513 -0.346 78 70 84
395.9271 331.1240 -28.6755 -0.884 -0.119 0.453 110 98 122
394.9600 326.6838 -28.6266 -0.755 -0.637 0.154 81 69 93
394.8529 325.4180 -28.6288 -0.758 -0.635 0.151 73 60 86
396.0273 323.0117 -28.7650 -0.499 -0.677 -0.540 82 70 94
396.9164 319.2453 -28.8874 -0.958 -0.285 -0.008 78 68 92
394.0364 313.3550 -28.6694 -0.966 -0.207 0.156 85 75 99
391.9925 307.2264 -28.5340 0.127 -0.698 0.704 95 82 108
393.8612 303.5067 -28.7497 -0.903 -0.060 0.425 72 59 87
394.0424 295.3970 -28.8470 -0.917 -0.025 0.398 105 89 115
388.9931 269.5905 -28.6175 -0.834 -0.501 -0.231 111 90 107
389.0923 267.0057 -28.6525 -0.847 -0.475 -0.240 94 73 90
389.2556 266.2474 -28.6756 -0.815 -0.511 -0.274 90 71 85
389.7662 265.7459 -28.7295 -0.822 -0.502 -0.269 94 80 90
389.6115 264.7614 -28.7244 -0.831 -0.507 -0.227 99 87 95
389.7387 263.9860 -28.7442 -0.859 -0.468 -0.207 107 96 103
390.0686 263.3602 -28.7820 -0.816 -0.578 0.004 116 105 112
390.4725 262.7896 -28.8263 -0.816 -0.578 0.004 124 113 119
390.6727 262.0747 -28.8525 -0.803 -0.596 0.004 127 116 123
391.6867 261.9431 -28.9510 -0.847 -0.477 0.236 125 114 121
391.4890 260.9488 -28.9418 -0.860 -0.471 0.196 120 109 116
388.6352 258.0798 -28.6967 -0.923 -0.065 0.379 111 100 106
387.0770 255.3143 -28.5746 -0.854 -0.067 0.517 97 84 92
387.1312 254.5264 -28.5876 -0.854 -0.067 0.517 98 84 98
387.0925 253.6772 -28.5922 -0.861 -0.062 0.505 99 85 103
386.3824 242.8441 -28.6309 0.069 -0.827 -0.559 86 73 90
385.5853 238.5046 -28.5973 -1.000 0.004 0.026 83 69 86
383.2380 236.2351 -28.3948 -0.220 -0.757 -0.615 82 68 85
384.7118 235.6962 -28.5413 -0.210 -0.758 -0.618 87 73 89
384.1694 229.5197 -28.5502 -0.834 -0.493 -0.249 110 94 107
377.1559 193.5195 -28.2330 -0.793 -0.277 -0.543 102 90 110
375.9536 192.3356 -28.1294 -0.993 -0.058 -0.101 99 87 107
122.9039 409.5476 -2.5108 0.369 -0.881 0.296 61 50 64
123.6561 409.8389 -2.5814 0.369 -0.881 0.296 68 57 71
125.9363 410.7899 -2.7950 -0.497 -0.167 0.851 92 82 95
126.3579 407.7109 -2.8599 -0.490 -0.176 0.853 100 90 100
132.8342 412.8449 -3.4473 0.052 -0.884 -0.465 51 44 53
224.5047 450.5276 -12.0359 -0.963 0.043 0.267 68 68 80
227.3295 421.5831 -12.5364 -0.705 -0.624 -0.336 43 44 48
231.1792 416.2545 -12.9512 -0.818 -0.439 -0.373 27 27 27
237.0113 411.2134 -13.5559 -0.144 -0.917 -0.373 51 50 55
239.4421 409.9571 -13.8013 -0.992 -0.127 -0.016 68 68 70
240.3248 402.7011 -13.9437 -0.982 0.031 0.187 61 61 61
240.2446 400.2243 -13.9553 -0.982 0.031 0.187 37 37 37
241.7459 396.9662 -14.1263 -0.669 -0.631 0.393 44 44 44
242.2459 395.8959 -14.1831 -0.009 -0.772 0.636 44 44 44
242.6296 394.5689 -14.2307 -0.017 -0.724 0.690 46 46 46
319.0192 365.4631 -21.8616 -0.860 -0.478 -0.177 43 42 40
385.3913 353.5400 -28.3871 -0.763 -0.034 0.645 67 54 72
385.6071 352.4359 -28.4167 -0.761 -0.030 0.648 63 50 68
379.9911 329.1387 -28.0549 -0.397 -0.674 0.623 53 49 63
394.8383 338.5965 -29.4197 -0.786 -0.513 -0.346 77 71 85
396.3681 336.3653 -29.5854 -0.786 -0.513 -0.346 77 73 87
395.5302 330.7508 -29.5482 -0.884 -0.119 0.453 107 95 119
395.6627 329.6839 -29.5694 -0.884 -0.119 0.453 98 84 109
394.6803 327.5946 -29.4905 -0.834 -0.516 0.193 92 78 101
395.7713 323.9250 -29.6250 -0.681 -0.586 -0.440 112 100 124
384.6595 311.6367 -28.6444 -0.105 -0.937 -0.333 75 65 89
394.2137 312.3958 -29.5644 -0.924 -0.367 -0.107 72 62 86
392.7578 310.0345 -29.4418 -0.935 -0.352 -0.034 77 67 91
392.7311 308.9267 -29.4479 -0.937 -0.348 -0.042 79 69 93
391.6279 305.8265 -29.3652 0.113 -0.690 0.715 75 62 88
393.4984 303.1815 -29.5672 -0.903 -0.060 0.425 73 60 88
392.8199 298.4506 -29.5385 -0.889 -0.032 0.456 76 62 88
392.8509 297.4496 -29.5494 -0.889 -0.032 0.456 90 76 102
392.8817 296.4534 -29.5602 -0.889 -0.032 0.456 103 87 113
393.2991 294.7664 -29.6138 -0.900 -0.038 0.434 97 81 107
393.3355 293.7879 -29.6250 -0.900 -0.038 0.434 89 73 99
339.1790 248.0428 -24.7351 -0.931 -0.346 0.119 89 73 99
393.4099 284.9899 -29.7011 -0.991 -0.065 0.118 84 68 94
393.5004 284.0999 -29.7169 -0.683 0.125 0.720 81 65 91
390.2322 268.6969 -29.5208 -0.704 -0.470 -0.533 97 78 97
390.6516 268.1198 -29.5660 -0.704 -0.470 -0.533 98 77 94
388.8234 263.2872 -29.4267 -0.836 -0.545 -0.064 103 90 97
389.6035 262.9885 -29.5046 -0.825 -0.563 -0.050 114 101 108
390.9874 263.1234 -29.6377 -0.841 -0.469 0.270 120 107 114
390.6883 262.0491 -29.6171 -0.803 -0.596 0.004 126 113 120
392.1288 262.2211 -29.7553 -0.845 -0.472 0.251 131 118 125
391.7661 261.1080 -29.7289 -0.859 -0.453 0.237 124 111 116
388.5531 257.9842 -29.4420 -0.920 -0.065 0.387 114 102 107
