ply
format ascii 1.0
element vertex 857
property float x
property float y
property float z
property float nx
property float ny
property float nz
property uchar diffuse_red
property uchar diffuse_green
property uchar diffuse_blue
end_header
216.8064 331.4211 -30.6709 0.809 -0.582 -0.083 24 24 26
94.8776 317.1042 -25.0055 -0.126 -0.681 -0.721 87 96 79
109.9899 402.9384 -33.6566 -0.029 -0.999 0.044 92 93 85
129.9374 310.3629 -25.8062 -0.884 -0.233 0.406 81 77 74
181.1066 330.4764 -29.7783 0.660 -0.559 0.502 56 64 55
217.2887 333.8336 -31.5701 0.592 -0.329 0.736 30 30 32
262.3740 299.6880 -30.2152 -0.807 -0.590 -0.017 50 53 46
297.9113 330.9236 -34.5900 0.442 -0.314 0.840 41 43 42
70.8658 343.3981 -27.1420 0.529 -0.828 0.185 46 46 48
71.6469 350.2397 -27.8309 0.203 -0.970 0.131 47 49 44
222.6274 465.7010 -45.1084 -0.019 -0.878 -0.478 57 65 52
233.5579 380.4299 -37.3708 -0.593 -0.800 -0.087 29 29 29
215.7019 330.3919 -31.8347 0.592 -0.329 0.736 33 33 35
71.0058 349.3921 -28.3942 0.461 -0.781 0.422 47 49 43
88.7919 365.5694 -30.7190 -0.527 -0.412 0.743 66 79 62
111.0183 408.2638 -35.8361 0.061 -0.996 0.072 77 78 70
125.6043 406.0541 -36.2197 -0.929 -0.365 0.061 51 48 41
128.2776 295.9975 -25.5000 -0.628 -0.757 -0.178 102 99 94
190.8587 348.8944 -33.2839 -0.532 -0.846 -0.034 48 53 49
190.3466 345.4267 -32.9216 -0.785 -0.475 0.398 44 49 45
243.5933 400.7375 -40.5584 -0.690 -0.667 0.281 33 33 35
238.9637 342.2803 -34.6153 0.655 -0.314 0.688 20 17 26
240.4731 299.7864 -30.4959 0.314 -0.922 -0.228 25 24 30
81.0109 383.0421 -32.8722 0.408 -0.869 -0.280 57 66 53
111.4181 416.3788 -37.4914 0.141 -0.990 0.005 68 69 62
127.5583 314.7333 -27.9127 0.921 -0.284 0.266 96 91 89
129.9221 310.4802 -27.5818 -0.551 -0.512 -0.659 113 110 104
148.0595 351.7455 -32.4924 0.540 -0.075 0.838 90 92 70
157.0046 385.6621 -36.2818 0.634 -0.124 0.763 87 87 74
159.5193 390.2465 -36.8480 0.622 -0.332 0.709 89 88 84
173.9757 335.0737 -31.8845 0.928 -0.373 0.021 68 82 57
191.6268 325.0336 -31.6030 0.872 -0.442 0.208 18 21 31
238.8839 298.1783 -30.8517 0.502 -0.797 -0.336 25 24 30
240.6502 299.9985 -31.1083 0.314 -0.922 -0.228 25 24 30
239.9816 298.0028 -30.8795 0.379 -0.914 0.144 26 26 29
256.3947 319.4881 -33.7247 0.169 -0.736 0.655 27 27 27
297.8541 366.2112 -40.1509 0.723 -0.512 0.465 43 45 40
82.3766 364.6477 -31.7855 -0.767 -0.383 0.515 77 77 71
88.7609 362.7523 -31.8553 -0.572 -0.481 0.664 79 86 77
124.3768 378.2408 -34.9348 -0.869 -0.301 0.392 73 63 67
128.4916 312.9495 -28.3667 -0.230 -0.821 0.523 91 82 83
149.8843 340.4504 -32.0947 0.563 -0.425 0.709 98 101 82
190.5571 360.6178 -35.8674 -0.600 -0.467 -0.649 62 74 54
199.7613 309.4159 -30.9651 -0.353 -0.439 0.826 22 23 25
299.2688 363.6210 -40.6972 -0.265 -0.325 0.908 36 38 35
232.1376 259.5880 -27.1681 -0.057 -0.574 -0.817 50 52 47
85.4457 353.8936 -31.4895 -0.213 -0.972 -0.094 75 74 69
104.8940 400.0453 -37.1766 -0.904 -0.366 0.221 102 102 102
116.4845 430.6152 -40.8897 -0.277 -0.286 0.917 61 54 61
216.4652 458.6933 -48.0310 -0.592 -0.666 -0.454 72 86 61
213.4377 399.0688 -41.6065 0.101 -0.752 -0.651 36 41 45
199.3273 311.1928 -31.7351 -0.122 -0.487 0.865 21 23 22
246.7527 377.6748 -40.7381 -0.087 -0.443 0.892 18 15 22
240.8042 362.6617 -38.9038 0.052 -0.612 0.789 20 17 24
239.0621 354.7769 -37.9982 -0.757 -0.553 0.349 20 17 24
237.8755 351.0196 -37.5518 0.265 -0.412 0.872 20 17 24
296.9983 360.2857 -40.9997 0.238 -0.704 0.669 36 38 33
233.0687 260.8068 -27.8221 -0.048 -0.583 -0.811 39 41 38
333.7718 343.0361 -40.7134 0.639 -0.709 -0.297 32 31 36
333.4124 341.7757 -40.5653 0.607 -0.716 -0.346 30 29 35
80.3462 331.8499 -29.5810 0.391 -0.911 0.133 70 76 66
81.0541 330.0645 -29.4178 0.352 -0.920 0.174 73 76 69
82.4295 326.8768 -29.1311 0.604 -0.746 0.280 82 83 77
104.2598 363.4597 -33.9993 0.568 -0.789 -0.234 95 95 95
107.2261 381.7322 -36.0979 0.639 -0.731 -0.241 94 94 94
123.7134 387.4373 -37.4059 0.645 -0.312 0.698 85 74 80
138.4394 325.1723 -31.2965 -0.704 -0.532 0.470 98 96 83
140.0846 327.2629 -31.5914 -0.687 -0.383 0.617 79 77 64
182.4256 307.3047 -31.2112 0.847 -0.508 0.157 40 46 40
197.7578 306.1765 -31.7325 0.440 -0.871 0.220 25 27 24
237.6003 351.8464 -38.3380 -0.739 -0.583 0.337 25 22 29
226.7630 326.6881 -35.1653 0.049 -0.288 0.956 20 17 24
224.2328 316.8351 -33.9946 0.041 -0.966 -0.254 20 17 26
227.1241 319.8351 -34.4401 0.579 -0.815 -0.036 19 16 25
249.3012 320.6304 -35.4563 -0.528 -0.471 0.706 22 21 27
249.9962 320.6809 -35.4909 -0.554 -0.445 0.703 22 21 27
232.8257 289.3733 -31.3881 0.171 -0.671 -0.721 44 43 49
234.9020 291.7224 -31.7290 0.286 -0.677 -0.678 49 48 54
237.7259 295.2224 -32.2256 -0.094 -0.677 -0.730 51 50 55
275.8197 336.0240 -38.2318 0.742 -0.504 0.442 32 35 28
299.1182 365.4875 -42.3924 0.494 -0.418 0.762 44 47 40
269.6199 313.5883 -35.5478 -0.192 -0.639 0.745 30 32 27
302.5045 335.3692 -39.2805 -0.001 -0.617 0.787 49 55 50
337.7113 346.5662 -41.9671 -0.378 -0.701 -0.605 33 37 38
79.9076 340.2345 -31.1221 0.463 -0.810 -0.360 76 82 72
124.9123 317.9967 -30.5621 -0.033 -0.982 0.186 89 83 87
214.9094 438.9720 -47.7164 -0.652 -0.556 -0.516 78 90 70
199.2444 384.1299 -40.9988 -0.781 -0.526 -0.338 81 90 71
232.9400 455.1564 -50.2638 0.226 -0.594 0.772 71 77 65
223.5403 362.8751 -39.6748 -0.572 -0.780 0.253 32 34 33
230.2204 342.8906 -37.7489 0.792 -0.437 0.427 28 25 34
221.9193 318.5337 -34.7088 0.226 -0.367 0.902 27 24 33
239.6334 341.8687 -38.0326 0.397 -0.286 0.872 26 22 31
212.3755 275.9492 -29.6030 0.786 -0.602 -0.142 20 17 28
236.8327 292.8326 -32.4984 -0.001 -0.992 -0.126 49 49 49
302.8923 369.6788 -43.7698 -0.138 -0.301 0.944 39 41 36
270.8940 316.1973 -36.5143 -0.154 -0.639 0.754 29 31 26
234.2336 261.5774 -28.9365 -0.193 -0.550 -0.813 33 33 31
299.1357 329.2040 -39.1409 -0.446 -0.645 0.620 45 55 45
80.0558 350.3198 -32.9210 0.338 -0.678 -0.653 85 88 81
85.1630 336.5055 -31.5779 -0.914 -0.363 0.181 91 90 85
103.8572 354.3945 -34.3882 0.331 -0.428 0.841 81 81 81
133.1540 308.7975 -30.4814 0.441 -0.859 -0.260 122 120 105
190.7444 320.8723 -34.2816 -0.612 -0.570 0.548 68 72 57
200.4654 332.0928 -35.9595 -0.221 -0.605 -0.765 55 58 53
225.1506 332.6959 -37.0723 0.781 -0.423 0.459 33 31 37
231.2679 340.6961 -38.2342 0.147 -0.869 0.472 36 34 40
226.2132 328.1014 -36.5987 0.094 -0.778 0.621 38 34 40
213.5452 276.9786 -30.2922 0.763 -0.640 -0.089 19 18 24
234.7421 287.7045 -32.4000 -0.245 -0.943 -0.225 44 44 42
301.3693 367.4040 -44.2155 -0.159 -0.316 0.935 35 35 34
281.9196 332.4446 -39.4465 0.757 -0.588 0.284 29 29 27
88.8791 81.0018 -2.9254 0.593 -0.029 0.804 102 107 102
77.5163 335.5786 -31.7927 -0.742 -0.616 0.265 55 61 51
78.8446 334.4985 -31.7247 -0.773 -0.621 0.131 54 60 50
79.9985 336.8344 -32.0430 0.588 -0.730 -0.348 76 82 72
138.0032 319.3675 -32.4949 -0.617 -0.356 0.702 92 90 77
210.6663 358.8690 -40.1378 0.455 -0.839 -0.298 70 75 61
200.5162 328.9105 -36.2524 -0.377 -0.544 -0.750 66 71 68
206.0072 306.6820 -33.9231 -0.690 -0.587 -0.423 54 55 53
187.9911 264.4656 -28.2901 0.035 -0.873 -0.487 39 39 42
232.8548 292.0234 -33.3743 0.812 -0.554 0.187 32 36 35
235.7005 294.6635 -33.7996 0.090 -0.667 -0.740 36 40 39
238.7033 296.5586 -34.1458 -0.127 -0.845 -0.519 34 38 37
266.7112 322.4731 -38.3240 0.627 -0.402 0.668 29 29 31
366.5032 383.8481 -49.6419 -0.673 -0.739 0.026 41 46 49
88.8735 81.0092 -2.9554 0.759 -0.242 0.604 102 99 101
77.1109 331.1530 -31.8982 -0.671 -0.701 0.241 44 50 40
77.8579 329.0474 -31.6822 -0.645 -0.710 0.284 49 55 45
134.1785 315.0388 -32.4378 -0.391 -0.587 -0.709 95 93 78
136.7854 316.0327 -32.6661 -0.522 -0.577 0.628 85 83 70
227.8967 377.8806 -43.8363 -0.096 -0.534 0.840 62 72 61
188.7966 278.3514 -30.4512 0.048 -0.928 -0.369 52 61 52
235.3793 294.0911 -34.2927 0.795 -0.550 0.258 32 38 34
243.2127 303.5473 -35.7403 -0.729 -0.411 0.547 29 35 31
240.2718 297.9981 -34.9615 -0.905 -0.414 -0.098 27 29 26
231.5750 258.4630 -29.9364 -0.314 -0.660 -0.683 44 43 41
374.0030 394.4354 -52.0229 -0.342 -0.826 -0.447 47 53 53
48.2584 278.0568 -24.9157 -0.956 -0.231 -0.182 90 79 92
65.2840 343.0282 -33.4512 -0.190 -0.674 -0.714 69 77 64
67.4363 327.7684 -31.7102 -0.676 -0.477 -0.562 69 78 63
139.1905 322.5815 -34.1640 -0.688 -0.475 0.549 91 92 78
214.1331 361.7716 -42.0858 -0.896 -0.443 0.034 76 91 68
210.2061 340.4690 -39.3582 -0.570 -0.168 0.804 65 79 57
212.3838 342.2621 -39.6670 -0.506 -0.299 0.809 64 79 59
220.0684 349.9322 -40.9179 -0.188 -0.537 -0.822 57 72 52
212.3272 321.2610 -37.1415 -0.400 -0.580 -0.709 52 67 49
221.9244 291.2874 -33.9522 0.410 -0.283 0.867 35 46 40
242.8103 302.8512 -36.2370 -0.729 -0.421 0.539 24 31 24
285.5044 336.2052 -42.0748 0.683 -0.561 0.469 33 33 31
375.3907 393.8720 -52.8571 -0.657 -0.738 -0.152 57 63 63
375.8887 393.4219 -52.8243 -0.657 -0.738 -0.152 56 62 62
60.5476 375.1286 -37.8422 -0.881 -0.452 0.143 69 78 57
65.9910 342.0062 -34.0171 -0.206 -0.674 -0.709 68 78 55
68.9186 324.6226 -32.0126 -0.662 -0.484 -0.572 69 78 58
78.6862 324.0286 -32.3605 -0.807 -0.586 -0.073 30 35 28
113.1395 360.0059 -38.2537 0.590 -0.479 -0.650 70 69 65
215.7793 331.3860 -39.1665 0.119 -0.792 -0.598 57 72 53
198.5796 284.9987 -32.7405 0.665 -0.547 -0.508 49 67 51
220.1812 322.5310 -38.2708 0.767 -0.634 0.101 47 66 47
218.0138 316.9177 -37.4895 0.153 -0.735 0.661 46 63 47
215.7517 308.7103 -36.3862 0.101 -0.959 -0.264 48 62 47
206.0401 262.0451 -30.2486 0.302 -0.898 0.321 38 47 42
363.6104 378.2436 -51.2763 -0.755 -0.635 -0.166 56 62 62
352.6988 360.2660 -48.6030 0.711 -0.698 -0.086 56 61 67
83.5649 340.7143 -35.2747 0.636 -0.600 -0.484 68 67 62
94.8733 373.8367 -39.9038 0.515 -0.446 -0.732 77 80 73
98.2221 355.8608 -37.8019 -0.773 -0.633 0.035 72 77 70
99.7281 361.0454 -38.5150 0.861 -0.281 0.423 91 96 89
101.3544 368.7067 -39.5430 0.811 -0.285 0.511 82 87 80
115.7435 366.5763 -39.8991 0.069 -0.976 0.207 79 75 74
212.2909 323.8656 -38.7369 0.467 -0.572 -0.674 63 78 59
178.9055 225.4103 -24.9869 0.656 -0.718 -0.233 48 62 49
214.7283 269.6194 -32.0621 0.090 -0.961 0.262 42 51 46
267.2871 332.2286 -42.1610 -0.717 -0.348 0.603 30 32 29
61.8422 361.9937 -37.7021 -0.770 -0.638 0.017 80 89 70
99.6738 360.0095 -39.0928 0.861 -0.281 0.423 61 66 59
105.1996 341.7424 -37.0053 0.373 -0.706 -0.602 71 76 70
116.5131 358.4757 -39.6289 0.083 -0.800 0.594 80 74 74
146.6722 313.6983 -35.2336 -0.213 -0.649 -0.731 82 99 67
203.9284 327.3007 -39.4541 -0.857 -0.416 0.304 70 86 60
203.4394 310.2109 -37.2553 -0.483 -0.718 -0.501 70 85 66
206.7560 316.0699 -38.1460 -0.141 -0.895 0.424 71 86 67
227.7771 338.9729 -41.9775 -0.445 -0.854 -0.270 61 79 63
228.2866 338.5894 -41.9507 -0.428 -0.866 -0.260 61 78 62
218.6501 315.5188 -38.5924 -0.488 -0.821 -0.298 56 70 55
218.4633 312.6581 -38.2198 -0.489 -0.792 -0.364 56 70 55
216.7419 308.0975 -37.5639 -0.567 -0.730 -0.382 54 68 55
215.7034 304.8975 -37.1111 -0.556 -0.744 -0.370 54 68 53
214.7619 296.2307 -35.9658 -0.375 -0.703 -0.604 47 61 48
208.6216 262.0063 -31.3382 -0.600 -0.646 -0.472 49 60 54
237.8811 294.9496 -36.8069 -0.859 -0.404 0.315 40 45 41
241.0355 297.9782 -37.3299 -0.856 -0.419 0.301 40 42 39
247.3305 293.8112 -37.0724 0.570 -0.513 0.642 30 29 34
248.4989 294.6364 -37.2283 0.500 -0.519 0.693 32 31 36
288.0574 344.6382 -45.3180 -0.093 -0.842 -0.531 35 34 32
99.6376 359.7528 -39.7682 0.702 -0.293 0.650 74 79 72
105.1525 341.2663 -37.6083 0.342 -0.694 -0.633 68 73 67
117.0627 348.6931 -39.0923 -0.048 -0.877 0.478 78 72 72
131.6769 390.4738 -45.1552 0.875 -0.471 -0.116 71 72 64
145.6575 306.3809 -34.8455 0.285 -0.821 -0.495 81 98 66
212.6043 325.8486 -40.2943 0.549 -0.512 -0.661 74 89 70
212.6547 320.3580 -39.5836 -0.442 -0.129 0.888 73 90 72
219.5374 284.0022 -35.1630 -0.336 -0.838 -0.430 49 58 53
220.8992 285.3496 -35.3974 -0.404 -0.820 -0.406 49 58 53
221.7790 285.8716 -35.5035 -0.648 -0.761 -0.034 50 59 54
255.8550 317.7953 -41.1356 -0.759 -0.361 0.542 47 49 46
243.6276 292.6998 -37.3434 0.776 -0.598 0.198 37 38 38
245.2033 290.6406 -37.1448 -0.164 -0.714 0.680 37 37 39
270.9946 324.2837 -42.6387 -0.611 -0.791 -0.023 40 40 41
69.7682 375.7266 -41.2828 0.228 -0.767 0.599 64 71 55
72.1343 396.0483 -44.0747 0.665 -0.727 -0.169 43 49 36
116.5117 342.5290 -38.9393 -0.285 -0.836 -0.468 77 71 71
128.1127 373.4194 -43.5341 0.878 -0.466 -0.108 86 87 79
129.2008 292.1899 -32.8361 0.681 -0.262 0.684 68 75 57
145.8379 318.4428 -37.0380 0.461 -0.711 -0.532 61 75 42
195.7265 301.1102 -36.9312 0.762 -0.541 -0.356 90 103 83
217.2159 318.9758 -40.2362 0.010 -0.904 -0.427 64 82 66
221.1691 325.5989 -41.2855 -0.647 -0.725 -0.238 63 81 65
221.0216 285.4988 -35.9743 -0.620 -0.784 -0.021 50 59 53
223.0801 286.0745 -36.1407 -0.656 -0.726 0.208 49 58 53
264.0367 345.9825 -45.8604 -0.445 -0.652 -0.614 49 58 53
270.2147 337.5035 -45.0094 -0.833 -0.321 0.450 43 48 42
275.7596 343.6966 -46.0717 -0.888 -0.373 0.271 43 49 42
36.7126 336.4545 -35.2815 -0.904 -0.268 -0.334 69 58 71
70.8501 360.8286 -40.0675 0.756 -0.633 0.170 70 77 61
99.4911 355.9802 -40.6747 0.696 -0.296 0.654 93 98 91
117.7316 341.4565 -39.5206 0.671 -0.554 -0.493 106 100 100
131.3170 298.3042 -34.3048 0.720 -0.268 0.640 67 74 56
132.1656 299.9612 -34.5654 0.720 -0.268 0.640 67 74 56
141.3090 320.7542 -37.7691 0.244 -0.170 0.955 52 56 53
140.9528 315.6960 -37.0720 0.225 -0.165 0.960 53 57 56
211.6626 296.9516 -37.6583 -0.495 -0.791 -0.360 71 85 68
220.9836 307.6849 -39.5145 -0.389 -0.660 -0.643 62 76 63
204.6595 273.1927 -34.1492 -0.630 -0.627 -0.458 53 67 54
221.5321 287.2806 -36.7896 0.500 -0.855 0.138 48 60 50
226.3542 292.4746 -37.7016 -0.139 -0.847 -0.514 48 60 50
291.6142 352.6414 -48.6793 -0.708 -0.643 -0.294 45 53 45
288.9536 343.5688 -47.3399 -0.620 -0.658 0.428 39 50 40
288.4350 341.8127 -47.0805 -0.591 -0.565 0.577 39 50 40
77.7893 347.8416 -39.3016 -0.908 -0.334 0.251 79 87 76
100.5356 344.4443 -39.8409 -0.808 -0.585 -0.068 81 87 77
139.7487 309.5283 -36.7846 -0.731 -0.637 0.245 58 64 62
210.6866 285.2205 -36.5855 -0.670 -0.604 -0.431 64 81 65
220.8826 271.5237 -35.1574 0.625 -0.760 0.178 49 64 51
212.2813 246.6095 -31.3600 -0.020 -0.715 -0.698 48 60 46
291.7555 351.6735 -49.2831 -0.711 -0.640 -0.293 47 59 47
285.2390 336.2578 -46.8807 -0.329 -0.919 -0.219 41 55 42
134.1026 286.0373 -33.8518 0.427 -0.205 0.881 71 78 64
215.2133 299.0423 -39.2672 -0.898 -0.427 -0.102 76 95 76
221.1092 305.4870 -40.4285 -0.632 -0.552 -0.544 76 94 78
140.4344 145.4572 -14.5071 0.516 -0.612 -0.599 54 71 55
230.4247 287.5251 -38.3344 -0.402 -0.806 -0.435 52 69 53
265.5378 295.1544 -40.9579 0.575 -0.678 -0.457 49 66 48
72.5931 344.8811 -40.0082 0.529 -0.835 0.153 79 97 70
73.1327 356.1793 -41.6372 0.612 -0.630 -0.478 79 96 71
72.4735 400.1964 -47.8603 0.702 -0.666 0.254 83 96 74
82.9936 370.2667 -44.0778 0.640 -0.495 0.588 84 97 75
161.0783 179.8336 -20.5073 0.139 -0.982 0.127 57 76 57
140.4288 145.7578 -14.7465 0.494 -0.611 -0.619 59 78 59
231.4687 284.5603 -38.5208 0.729 -0.646 -0.228 61 75 60
236.8475 290.1927 -39.5606 -0.574 -0.676 0.461 61 75 58
73.2837 343.8776 -40.5662 0.615 -0.758 -0.216 78 97 69
170.7634 202.5612 -24.5098 -0.234 -0.521 -0.821 69 88 69
232.4397 289.6755 -39.8579 -0.373 -0.859 -0.350 63 80 64
236.0198 294.4014 -40.7010 0.696 -0.674 -0.248 64 81 65
238.5853 297.4921 -41.2624 0.710 -0.668 -0.222 63 80 64
250.6175 282.2457 -39.5980 -0.579 -0.753 0.312 55 69 54
260.7777 291.9329 -41.4525 0.642 -0.632 -0.434 52 69 51
272.0349 302.7048 -43.5128 -0.917 -0.354 0.183 62 79 61
272.1361 300.3743 -43.1806 -0.599 -0.785 0.158 60 77 59
295.1419 329.2286 -48.3796 0.262 -0.455 0.851 55 72 54
273.6673 330.5941 -48.2914 0.261 -0.893 -0.366 60 74 59
252.9596 286.9485 -40.9472 0.049 -0.818 0.574 58 72 59
253.1477 286.4037 -40.8756 0.438 -0.891 0.122 58 72 59
250.9348 282.6088 -40.2185 -0.580 -0.756 0.303 59 73 58
248.3726 276.0998 -39.1469 0.601 -0.795 -0.080 59 76 58
268.5539 302.2109 -43.8908 0.676 -0.633 -0.378 59 76 58
247.7867 262.6653 -37.1465 0.215 -0.961 0.172 61 75 60
37.3478 334.8239 -38.9330 0.435 -0.822 -0.367 92 95 86
172.4053 205.3169 -25.6815 -0.458 -0.653 -0.604 76 95 76
239.8511 296.4922 -42.3467 0.722 -0.689 -0.056 70 84 67
273.5349 330.3234 -48.9213 0.018 -0.934 -0.357 64 78 63
173.7469 180.4239 -22.0233 0.581 -0.697 0.420 63 77 64
253.2763 285.7137 -41.3425 -0.864 -0.503 -0.033 63 77 62
281.8259 320.7007 -47.8579 0.732 -0.682 -0.011 63 80 62
283.2685 320.8054 -47.9387 0.639 -0.709 -0.297 65 79 62
289.5124 320.0469 -48.1072 -0.413 -0.634 0.654 66 80 65
239.0330 247.9521 -35.0583 -0.461 -0.762 -0.454 66 83 64
232.8914 290.2032 -41.6632 -0.725 -0.637 -0.263 70 87 71
247.6792 258.9592 -39.0809 -0.502 -0.694 -0.517 71 76 79
260.7672 271.6488 -41.7019 -0.370 -0.284 0.885 64 68 70
270.1720 288.7928 -45.4390 -0.718 -0.690 0.088 67 81 64
247.7869 259.0286 -39.5952 -0.500 -0.706 -0.502 67 73 75
259.1066 270.9128 -42.0383 -0.419 -0.834 -0.359 50 53 62
247.1690 260.7276 -40.8476 -0.106 -0.791 -0.603 68 85 69
245.7021 256.3389 -40.0482 0.520 -0.629 0.578 55 62 66
238.3126 248.4039 -38.8545 0.712 -0.683 0.164 62 76 62
259.3674 271.0279 -43.6620 -0.263 -0.818 -0.512 39 42 51
271.1190 281.7679 -46.0262 0.724 -0.684 -0.087 77 83 73
262.1544 273.6661 -44.7772 0.644 -0.743 -0.182 46 47 53
266.3701 276.6985 -45.4949 0.685 -0.720 -0.113 75 78 72
271.7780 282.4847 -46.7408 0.713 -0.693 -0.106 78 81 73
262.3574 273.8435 -45.3572 0.651 -0.750 -0.115 44 47 52
264.1483 275.3259 -45.6994 0.690 -0.722 -0.041 55 59 60
263.5814 273.2820 -45.3171 0.552 -0.392 0.736 74 79 72
264.9435 274.2379 -45.5475 0.551 -0.395 0.735 76 82 72
267.2332 276.2933 -46.0129 0.568 -0.393 0.723 77 84 73
246.9238 257.5898 -42.3002 0.536 -0.701 0.469 50 61 56
250.3430 261.1397 -43.0882 0.702 -0.652 0.288 44 52 54
262.7513 274.2520 -45.9885 0.654 -0.746 -0.124 42 50 48
261.2391 270.4033 -45.2378 0.585 -0.400 0.706 71 81 70
249.1377 259.6009 -43.2629 0.714 -0.664 0.222 43 56 51
259.9688 269.4747 -45.5437 0.591 -0.448 0.671 48 61 49
262.6810 272.0645 -46.1358 0.647 -0.454 0.613 60 73 59
247.3729 257.3788 -43.2794 0.718 -0.645 0.262 43 61 45
248.4744 258.0892 -43.4607 0.713 -0.623 0.322 44 61 45
258.9465 268.8404 -45.9102 0.594 -0.433 0.678 44 62 45
258.6636 267.8373 -45.7147 0.629 -0.442 0.640 44 62 44
247.1225 257.0098 -43.6979 0.722 -0.643 0.254 48 67 48
248.8659 262.9928 -45.3947 0.461 -0.821 -0.337 57 78 61
251.5921 263.7205 -45.6612 0.569 -0.718 -0.402 57 78 61
259.3833 267.2520 -46.6935 0.555 -0.410 0.724 64 83 64
250.1540 265.2074 -46.3887 0.552 -0.813 -0.184 61 82 65
252.2380 267.1333 -46.8529 0.532 -0.828 -0.179 61 82 65
268.6400 286.8380 -51.3656 0.751 -0.661 0.003 61 82 65
251.8896 264.0216 -46.2483 0.580 -0.687 -0.437 61 82 65
254.2460 264.9272 -46.5329 0.266 -0.959 0.100 58 77 58
88.5579 78.8465 -3.4219 -0.661 -0.680 -0.319 90 76 102
248.4154 263.6374 -46.5238 0.526 -0.832 -0.177 68 89 72
249.5672 264.4085 -46.7271 0.526 -0.832 -0.177 68 89 72
268.9384 287.1363 -52.0143 0.751 -0.660 -0.022 68 89 72
168.3380 241.2081 -40.1385 -0.789 -0.515 0.336 75 95 67
122.1630 256.1242 -42.7749 -0.699 -0.709 -0.091 86 98 78
116.8637 217.5707 -37.0188 -0.769 -0.428 0.474 87 102 79
116.2848 213.9996 -36.5434 -0.908 -0.418 0.028 78 93 70
116.8198 215.0396 -36.8117 -0.682 -0.584 0.440 77 92 69
117.4418 218.8985 -38.1223 -0.025 -1.000 -0.005 72 87 64
115.7075 217.4901 -38.0846 -0.928 -0.370 -0.035 72 87 64
115.9845 216.8618 -37.9502 -0.927 -0.373 -0.040 72 87 64
73.8864 240.3839 -41.7643 -0.082 -0.420 -0.904 59 74 45
116.2317 216.1057 -38.1626 -0.870 -0.440 -0.223 68 83 59
73.8713 244.0765 -43.0881 -0.058 -0.436 -0.898 67 80 50
73.3395 241.0384 -42.7601 -0.090 -0.415 -0.905 72 87 58
73.0348 215.4605 -36.8670 0.366 -0.831 0.420 85 90 70
48.1778 244.0354 -43.0472 -0.956 -0.294 -0.007 45 46 40
48.6748 241.7756 -43.3752 -0.954 -0.300 -0.028 47 48 42
72.9305 236.4980 -43.3237 0.614 -0.379 0.693 75 90 61
140.6439 212.4660 -40.8144 0.855 -0.378 0.356 63 83 48
115.9656 230.2621 -44.4451 -0.448 -0.893 -0.048 72 88 59
141.2343 211.9866 -41.0993 0.739 -0.569 -0.360 69 89 54
144.2517 216.3913 -42.3923 0.704 -0.650 -0.287 65 86 55
71.8922 228.5289 -42.0494 0.423 -0.346 0.838 73 84 59
141.0433 211.4025 -41.3132 0.755 -0.579 -0.309 75 95 61
145.0550 217.5713 -43.1291 0.833 -0.553 0.015 70 91 60
169.6501 219.6751 -44.9939 0.228 -0.613 0.757 68 89 58
170.4231 220.4015 -45.2239 0.154 -0.608 0.779 66 85 57
170.5333 219.8273 -45.0808 0.204 -0.579 0.789 65 83 57
171.2380 220.4125 -45.2704 0.102 -0.634 0.767 65 83 57
141.2187 211.9070 -41.8294 0.755 -0.579 -0.309 78 97 67
170.0151 220.3580 -45.5938 0.257 -0.462 0.849 68 89 58
170.8189 221.1408 -45.8422 0.072 -0.606 0.792 70 91 60
170.6998 220.1155 -45.5671 -0.399 -0.224 0.889 71 90 62
170.8257 219.5756 -45.4324 -0.401 -0.221 0.889 71 89 63
168.7686 212.6017 -43.4942 -0.800 -0.395 0.452 63 81 55
170.4279 221.1348 -46.2252 -0.046 -0.619 0.784 70 89 59
171.2629 221.9741 -46.4924 0.035 -0.659 0.752 74 93 63
170.6362 219.9548 -45.9242 -0.499 -0.689 0.527 76 95 67
170.8366 218.7824 -45.6248 -0.401 -0.221 0.889 75 94 67
203.7779 240.3609 -53.1141 0.335 -0.377 0.863 65 89 57
170.7012 220.8366 -46.5663 0.241 -0.604 -0.760 82 101 71
170.2842 217.6800 -45.7003 -0.471 -0.210 0.857 82 101 71
198.0327 238.5127 -53.2270 -0.219 -0.939 0.264 65 83 57
114.1170 232.1391 -47.3656 0.577 -0.659 -0.483 63 84 47
164.8122 215.3622 -45.5657 -0.214 -0.720 -0.660 81 98 66
201.5233 238.0974 -54.2181 -0.713 -0.641 0.286 67 83 56
200.9383 237.8541 -54.5757 -0.549 -0.703 0.451 69 85 58
155.1922 203.6890 -42.9407 -0.641 -0.511 0.572 78 93 70
199.1945 238.7011 -55.1735 -0.462 -0.880 -0.110 74 90 64
199.4274 238.3344 -55.0837 -0.433 -0.898 -0.071 74 90 63
195.0490 227.8912 -51.9178 -0.649 -0.311 0.694 68 84 57
222.2849 226.7645 -53.1058 -0.756 -0.621 0.205 78 92 77
221.9958 225.8723 -52.8400 -0.757 -0.618 0.213 78 92 77
220.9530 224.0700 -52.2778 -0.752 -0.614 0.240 76 93 77
221.9240 225.7312 -53.2269 -0.728 -0.466 0.502 70 87 71
216.6665 216.2939 -50.2688 -0.641 -0.723 -0.260 63 82 60
150.5464 192.1186 -40.1040 -0.514 -0.724 0.461 79 95 69
150.6571 191.6536 -39.9775 0.423 -0.869 -0.257 79 95 69
151.1677 192.0421 -40.1167 0.448 -0.831 -0.331 79 95 69
179.1271 201.8225 -44.4603 -0.883 -0.306 0.357 75 91 64
207.2665 205.9397 -47.1989 0.292 -0.355 0.888 59 78 58
213.0119 211.4001 -49.0755 -0.610 -0.669 -0.425 59 78 56
149.9607 192.2464 -40.4383 -0.635 -0.590 0.499 65 84 55
150.3603 191.6922 -40.3012 0.056 -0.994 0.094 65 84 56
150.5858 191.4743 -40.2510 0.474 -0.813 -0.338 66 85 57
151.2315 192.1500 -40.4815 0.449 -0.827 -0.337 67 86 57
173.9037 199.7912 -43.9453 -0.529 -0.698 0.484 79 97 73
178.2351 202.0953 -44.8499 -0.870 -0.313 0.381 78 94 67
210.1255 207.9171 -48.3046 -0.398 -0.706 0.586 56 75 55
136.2292 207.6722 -44.4786 0.852 -0.429 0.300 72 87 56
137.4384 209.2078 -44.9921 -0.315 -0.926 0.207 72 87 58
150.7001 192.3943 -40.8534 0.607 -0.717 -0.344 64 83 52
131.7379 234.6631 -52.5003 -0.353 -0.488 0.798 68 83 54
134.2882 206.0146 -44.2522 0.844 -0.374 0.385 76 91 60
150.5151 191.9703 -41.0504 0.041 -0.998 0.044 64 83 51
155.4061 198.0192 -43.0971 0.458 -0.772 -0.441 66 85 53
156.0579 198.6506 -43.3186 0.455 -0.781 -0.427 68 87 57
136.1992 206.3975 -44.8370 0.195 -0.771 0.606 59 74 43
136.9173 207.5335 -45.2132 -0.616 -0.788 0.020 60 75 44
134.4600 205.3822 -44.8015 0.669 -0.635 0.387 64 79 48
134.8920 205.6310 -44.9001 0.671 -0.632 0.388 65 80 49
135.4343 206.2325 -45.1101 0.661 -0.629 0.409 61 76 45
135.9759 206.8215 -45.3164 0.659 -0.627 0.415 59 74 45
133.5977 203.6872 -44.6059 -0.450 -0.777 0.441 58 73 42
192.9920 199.5312 -46.7297 -0.098 -0.861 0.499 77 95 69
215.1028 205.7554 -49.8570 -0.543 -0.451 0.708 75 99 76
133.2706 203.7593 -44.9679 -0.446 -0.749 0.489 53 69 40
55.7231 222.9550 -46.7629 -0.943 -0.323 0.081 60 74 49
133.5055 201.0648 -44.5164 -0.615 -0.594 0.518 60 75 46
134.0624 205.2027 -46.1773 -0.682 -0.602 0.416 64 80 53
202.2612 198.6374 -48.0666 0.356 -0.687 -0.633 67 90 74
53.9766 226.7548 -48.6325 -0.731 -0.581 0.358 75 88 62
66.9773 217.7633 -46.5844 0.379 -0.819 0.431 76 92 66
84.4911 211.5363 -45.6561 -0.936 -0.294 -0.193 67 84 50
133.4221 196.3951 -44.1056 -0.324 -0.649 0.688 70 86 59
133.9745 196.0342 -44.0243 -0.256 -0.618 0.744 67 83 57
92.9547 68.5589 -1.6680 -0.588 -0.586 -0.558 118 113 133
112.3883 199.1977 -44.1135 0.758 -0.630 0.171 57 72 42
194.3970 188.7468 -45.5645 0.548 -0.562 0.620 80 103 87
194.7769 188.7943 -45.6016 0.556 -0.540 0.633 79 102 86
113.1754 200.0236 -44.7675 0.582 -0.776 0.243 59 73 47
115.5748 202.2939 -45.6311 -0.597 -0.150 0.788 56 72 46
172.5854 201.2757 -48.9871 0.529 -0.437 0.728 63 88 58
56.3671 203.3221 -43.2026 -0.121 -0.328 0.937 68 81 55
115.2174 198.2753 -45.0157 0.740 -0.474 0.477 69 88 60
129.7403 197.4846 -45.6105 0.260 -0.674 -0.692 72 91 61
55.9049 206.1150 -44.4333 0.021 -0.394 0.919 61 74 48
56.6096 204.7093 -44.0154 -0.255 -0.769 0.586 61 74 48
114.9776 196.9059 -44.8982 0.657 -0.643 0.393 74 95 63
129.9308 198.1456 -46.1825 0.260 -0.674 -0.692 61 77 48
154.6832 194.0471 -46.2990 0.186 -0.727 -0.661 56 75 53
171.0979 199.3178 -48.9864 0.558 -0.507 0.657 79 102 74
193.8148 192.4489 -48.0780 0.160 -0.385 0.909 73 97 75
194.4037 189.8062 -47.2492 -0.026 -0.397 0.917 73 97 75
194.5849 189.6134 -47.1968 -0.310 -0.488 0.816 73 97 75
194.3530 188.9311 -46.9603 -0.288 -0.553 0.781 74 97 76
193.9354 188.0334 -46.6424 -0.200 -0.609 0.768 74 98 77
193.6140 187.2552 -46.3692 -0.115 -0.582 0.805 75 98 78
206.5823 201.2207 -51.6948 0.508 -0.824 -0.249 75 99 79
56.2436 203.5380 -43.9574 -0.067 -0.311 0.948 58 70 46
76.0819 199.2246 -43.7074 -0.920 -0.161 0.357 80 97 61
114.6250 196.7965 -45.1820 0.537 -0.752 0.381 71 92 59
128.0560 195.0341 -45.3941 0.225 -0.581 0.782 57 73 46
155.1193 194.9043 -46.9482 0.156 -0.727 -0.669 56 76 51
155.7351 195.4619 -47.1682 0.236 -0.666 -0.708 56 75 53
156.2367 195.7836 -47.3038 0.236 -0.666 -0.708 56 75 53
208.6789 203.6218 -52.9798 -0.027 -1.000 0.004 71 95 72
205.9612 200.0134 -51.6309 0.345 -0.620 0.704 72 96 73
73.7923 201.6425 -44.7137 -0.108 -0.560 0.822 55 75 48
76.1660 198.3953 -43.7762 -0.921 -0.161 0.355 73 90 54
155.0824 195.4940 -47.4857 0.084 -0.637 -0.767 62 82 55
155.4470 195.5406 -47.5227 0.079 -0.635 -0.768 62 82 56
156.0173 196.0025 -47.7098 0.330 -0.639 -0.695 61 80 58
156.6058 196.4954 -47.9083 0.344 -0.637 -0.690 61 80 58
156.8129 196.2202 -47.8292 0.222 -0.663 -0.715 60 79 57
185.4712 190.9922 -47.7905 -0.635 -0.728 0.257 85 106 73
184.5894 189.3772 -47.2022 -0.562 -0.794 0.232 86 107 76
184.4706 188.7766 -46.9957 -0.460 -0.549 -0.698 85 105 77
184.6383 188.5552 -46.9322 -0.460 -0.549 -0.698 80 103 77
191.0282 185.6896 -46.3592 -0.514 -0.489 0.705 65 89 65
205.6916 199.6537 -51.8631 0.356 -0.627 0.693 71 95 71
74.0519 201.9335 -45.1719 0.532 -0.463 0.709 50 70 44
75.0490 201.8002 -45.1865 -0.500 -0.493 0.712 57 75 38
155.7548 196.8383 -48.3211 -0.292 -0.636 -0.714 71 91 63
156.6386 197.2279 -48.5040 0.184 -0.671 -0.718 70 90 65
156.7813 196.8178 -48.3753 0.338 -0.547 -0.766 70 90 65
157.4261 197.4155 -48.6136 0.339 -0.548 -0.765 70 90 65
157.1669 194.1857 -47.5175 0.138 -0.590 -0.795 71 91 66
174.8755 197.8161 -49.7843 0.658 -0.485 0.576 70 94 60
184.3941 189.5266 -47.5762 -0.738 -0.598 0.313 78 99 66
204.9956 199.2301 -52.0469 0.370 -0.630 0.683 62 86 62
205.1544 198.9828 -51.9736 0.348 -0.640 0.685 70 94 70
74.0749 201.5994 -45.4072 0.532 -0.463 0.709 52 72 46
75.0252 201.7995 -45.5313 -0.221 -0.482 0.848 55 72 35
76.3067 199.4289 -44.8082 -0.899 -0.218 0.381 64 81 47
114.1086 195.7627 -45.8254 -0.509 -0.444 0.738 64 83 53
114.8517 194.4016 -45.4108 -0.448 -0.313 0.837 73 94 61
115.1638 194.3378 -45.4078 -0.352 -0.392 0.850 73 94 61
161.0150 198.9248 -49.6881 -0.005 -0.586 -0.810 66 84 60
163.6075 201.8177 -50.8181 -0.126 -0.668 -0.733 67 85 61
183.8623 188.3393 -47.4804 -0.291 -0.940 -0.180 75 96 65
114.6197 193.0946 -45.2880 -0.444 -0.331 0.832 68 90 54
161.7550 199.6297 -50.3285 0.076 -0.565 -0.821 72 90 66
186.1068 189.4688 -48.3319 -0.594 -0.736 0.325 65 87 64
185.6552 188.4452 -47.9570 -0.564 -0.806 0.182 66 88 65
74.8906 200.0529 -45.6188 0.417 -0.481 0.771 64 80 49
75.1926 200.2033 -45.6884 0.417 -0.481 0.771 63 80 45
75.5531 199.9190 -45.6127 -0.570 -0.546 0.614 64 81 45
113.9637 193.0290 -45.5584 -0.461 -0.344 0.818 56 78 43
114.4341 192.0539 -45.2527 -0.465 -0.325 0.824 61 83 46
128.1307 192.9349 -46.3764 -0.181 -0.790 0.586 65 81 52
128.8092 190.8093 -45.6892 -0.206 -0.663 0.720 71 87 58
184.5952 188.3399 -48.1917 -0.533 -0.826 -0.181 60 83 57
186.7757 190.2967 -48.9927 -0.613 -0.727 0.309 60 82 59
74.1422 196.2255 -44.5956 0.045 -0.705 0.708 70 90 63
74.9390 199.5275 -45.7832 0.475 -0.560 0.679 69 85 55
112.8032 189.8736 -44.7317 -0.447 -0.191 0.874 50 69 39
114.3591 189.8534 -44.8184 -0.403 -0.167 0.900 59 78 46
74.5470 197.6064 -45.4331 0.471 -0.595 0.652 72 90 64
174.5084 190.6268 -49.3850 -0.704 -0.355 0.615 65 81 55
88.3231 194.5302 -46.1915 0.385 -0.520 -0.763 60 82 46
176.2007 191.5513 -50.4957 -0.304 -0.953 -0.004 74 90 64
177.0122 192.2425 -50.7911 -0.090 -0.995 0.048 72 88 62
75.1040 197.4757 -46.7699 -0.410 -0.733 0.542 75 90 62
172.7126 187.8283 -49.2906 -0.656 -0.376 0.655 79 95 69
176.8014 191.8941 -50.9979 -0.094 -0.995 0.027 77 93 67
177.0325 191.7300 -50.9532 -0.513 -0.635 -0.578 74 90 64
177.5026 191.9159 -51.0486 -0.517 -0.639 -0.570 74 90 64
75.7052 195.2173 -46.3296 0.565 -0.681 0.465 69 84 53
143.4813 185.6424 -47.3586 0.431 -0.873 -0.230 73 90 58
143.7427 185.5205 -47.3304 0.400 -0.877 -0.267 73 90 58
88.5514 195.0450 -47.7262 -0.256 -0.782 -0.568 55 79 43
98.7081 187.7725 -45.6907 -0.743 -0.467 0.479 67 84 50
125.3738 182.0771 -45.2539 0.241 -0.575 -0.782 60 81 48
125.8180 182.5841 -45.4671 0.232 -0.576 -0.784 63 84 51
101.1655 184.3152 -45.1952 0.125 -0.890 0.438 60 77 45
102.7223 185.3044 -45.6597 0.819 -0.573 -0.022 59 77 44
124.1305 180.8093 -45.3223 0.903 -0.351 0.249 58 74 47
100.5580 184.1889 -45.4199 0.186 -0.917 0.353 54 70 39
101.2056 185.0246 -45.7731 0.521 -0.848 0.093 54 71 39
101.7880 184.8814 -45.7559 0.759 -0.627 0.173 53 70 38
102.0969 185.0414 -45.8351 0.678 -0.639 -0.364 53 70 38
101.4537 184.4989 -45.9026 0.732 -0.660 -0.169 49 66 34
124.0084 180.3558 -46.0592 0.898 -0.367 0.241 48 62 37
97.2087 190.1575 -48.4203 -0.913 -0.201 0.354 50 69 39
124.4304 179.7623 -46.1639 -0.325 -0.401 0.856 46 55 34
139.5692 177.7827 -46.3622 -0.949 -0.201 -0.242 64 86 50
97.9231 185.4662 -46.9855 -0.883 -0.219 0.416 56 75 45
98.4526 184.1066 -46.4956 0.306 -0.445 0.842 54 70 42
98.7676 184.5310 -46.6790 0.347 -0.457 0.819 54 70 42
99.0578 184.4417 -46.6629 0.355 -0.457 0.816 54 70 42
123.4772 179.4845 -46.3003 -0.386 -0.199 0.901 52 68 41
89.1462 191.9051 -49.2378 -0.201 -0.961 0.188 74 91 57
98.0978 182.9959 -46.3529 -0.192 -0.781 0.594 54 71 40
98.4084 183.4113 -46.5336 0.473 -0.523 0.709 54 71 40
98.9584 182.7565 -46.3147 -0.275 -0.949 0.152 54 71 40
99.2368 182.5344 -46.2463 -0.520 -0.851 -0.074 55 72 41
99.5673 183.2340 -46.5385 -0.434 -0.892 0.125 55 72 41
99.8709 183.4251 -46.6318 -0.435 -0.890 0.137 55 72 41
128.3171 181.8540 -47.8292 -0.542 -0.784 0.302 55 78 46
139.7573 181.7482 -48.5146 -0.056 -0.779 -0.624 60 79 49
140.1684 182.0050 -48.6402 0.175 -0.744 -0.645 60 79 49
81.8674 184.0193 -46.0259 0.309 -0.945 0.108 73 88 69
99.2370 182.7340 -46.6308 -0.539 -0.838 -0.083 68 87 55
100.4128 182.9135 -46.7757 0.668 -0.726 0.165 67 87 52
122.4171 176.6567 -45.7355 0.930 -0.337 0.146 58 74 48
140.1848 182.7396 -49.5573 -0.000 -0.764 -0.645 71 90 60
83.8818 183.3279 -46.8026 0.065 -0.694 -0.717 63 78 49
139.8767 178.3729 -48.4307 -0.986 -0.159 -0.054 74 93 61
166.2757 184.9443 -52.7464 0.510 -0.356 0.783 72 90 66
71.5666 176.4199 -43.8301 0.680 -0.461 0.570 65 84 54
77.9085 185.0231 -47.7139 0.607 -0.795 -0.012 66 79 53
168.7362 175.0213 -49.8586 -0.580 -0.612 -0.538 69 87 61
168.0657 174.0450 -49.7183 -0.276 -0.856 -0.438 66 84 58
169.4073 174.2535 -49.8910 -0.527 -0.608 -0.594 69 87 61
171.0084 176.0479 -50.7294 0.122 -0.668 -0.734 71 89 63
170.8872 175.4647 -50.4829 0.253 -0.691 -0.677 71 89 63
171.8204 176.3272 -50.8966 0.327 -0.689 -0.647 72 90 64
173.1332 177.6997 -51.5436 0.406 -0.698 -0.589 71 89 63
174.4340 179.0452 -52.1788 0.512 -0.701 -0.496 72 90 64
110.4809 178.1384 -47.9404 -0.489 -0.494 0.718 66 85 57
165.0893 171.8757 -48.9307 0.062 -0.928 -0.367 60 80 52
167.0184 172.1297 -49.1614 -0.465 -0.795 -0.390 61 79 53
170.7269 175.2099 -50.6723 0.249 -0.729 -0.638 67 85 59
171.6972 176.1235 -51.1119 0.299 -0.702 -0.646 67 85 59
110.3953 175.8867 -47.3011 0.033 -0.631 0.775 74 90 64
111.9194 176.6119 -47.7016 0.602 -0.306 0.738 66 80 55
112.2563 176.9230 -47.8527 0.657 -0.362 0.661 65 79 54
152.8745 176.8212 -50.4738 -0.415 -0.854 -0.313 75 91 65
153.1982 176.8664 -50.5138 -0.415 -0.857 -0.305 75 91 65
153.4277 176.7422 -50.4774 -0.415 -0.857 -0.305 75 91 64
165.6682 172.2535 -49.4194 -0.007 -0.602 -0.799 60 80 52
166.2256 172.6302 -49.6121 0.457 -0.822 -0.340 61 81 53
166.5123 172.6207 -49.6270 0.471 -0.801 -0.370 58 78 50
167.6416 173.3817 -50.0164 0.256 -0.797 -0.547 56 74 48
167.8983 172.9145 -49.8396 -0.644 -0.542 -0.541 56 74 48
168.8653 173.0274 -49.9499 -0.173 -0.727 -0.665 60 78 52
173.0138 178.3112 -52.4120 0.672 -0.485 0.559 61 79 53
111.9240 175.0778 -47.3580 0.735 -0.312 0.601 69 83 58
118.3161 176.1552 -48.2280 0.387 -0.749 -0.538 61 77 49
118.7332 176.7178 -48.4902 0.384 -0.747 -0.543 62 77 48
152.6540 176.9339 -50.8116 -0.307 -0.892 -0.332 69 87 63
152.9025 176.8428 -50.7900 -0.296 -0.896 -0.331 71 87 61
153.1513 176.7529 -50.7688 -0.296 -0.896 -0.331 72 88 62
166.3937 173.2550 -50.1805 -0.007 -0.602 -0.799 53 73 46
167.7769 173.9555 -50.5638 0.151 -0.688 -0.709 48 66 42
169.1615 173.8108 -50.5945 -0.174 -0.725 -0.667 54 72 48
81.7616 180.1097 -47.7729 0.232 -0.673 -0.703 67 81 58
98.7245 175.4330 -46.9284 0.030 -0.794 -0.607 65 78 60
112.3984 176.1874 -48.1475 0.900 -0.376 0.221 65 79 54
119.0540 176.8705 -48.8736 0.742 -0.637 0.211 58 73 44
167.3675 174.1850 -50.9340 0.156 -0.699 -0.698 49 69 42
167.7853 174.3543 -51.0326 0.124 -0.702 -0.701 48 68 41
168.2108 174.5328 -51.1357 0.109 -0.809 -0.577 42 60 36
169.2798 174.3535 -51.1309 -0.635 -0.552 -0.541 42 60 36
169.3869 173.2688 -50.6825 -0.485 -0.691 -0.537 51 69 45
169.1657 172.1610 -50.2028 0.141 -0.803 -0.579 52 70 46
69.6203 182.5501 -48.3004 0.489 -0.553 0.675 59 70 54
80.5304 180.9911 -48.3638 -0.378 -0.738 -0.559 66 80 55
97.1696 177.9279 -48.1707 -0.654 -0.625 -0.425 60 74 49
97.4408 177.7242 -48.1025 -0.661 -0.623 -0.419 58 72 48
112.9164 177.5022 -49.0331 0.795 -0.411 0.446 65 79 54
113.2050 177.5232 -49.0611 0.147 -0.849 0.507 65 79 54
152.6892 175.8640 -50.9736 -0.390 -0.127 0.912 56 72 46
167.8751 174.4472 -51.3801 0.136 -0.806 -0.576 53 73 46
169.3675 174.4406 -51.4761 -0.646 -0.548 -0.532 44 62 40
167.8165 171.0831 -49.9545 -0.569 -0.642 -0.514 49 67 45
187.6694 178.4630 -54.3876 -0.141 -0.447 0.884 76 94 68
186.5353 176.4230 -53.4504 -0.091 -0.552 0.829 77 97 72
188.5957 177.7063 -54.1291 0.635 -0.420 0.648 79 97 73
81.6156 181.1884 -48.8221 0.041 -0.679 -0.733 58 71 51
96.8985 178.4798 -48.6849 -0.680 -0.634 -0.368 59 73 47
97.1614 178.0094 -48.5023 -0.670 -0.638 -0.381 59 73 48
97.4323 177.7882 -48.4262 -0.657 -0.643 -0.393 56 70 46
98.7395 176.0928 -47.7919 -0.058 -0.829 -0.556 64 77 59
113.0796 176.8671 -49.0735 0.883 -0.440 0.162 67 81 56
156.7581 174.6847 -51.0457 0.113 -0.548 0.829 54 69 48
156.8353 174.3234 -50.8972 0.193 -0.562 0.804 54 69 48
157.6114 174.6304 -51.0793 0.712 -0.617 0.335 53 68 47
167.9509 174.9451 -51.8997 -0.005 -0.848 -0.530 60 80 53
168.2443 174.9349 -51.9149 -0.006 -0.853 -0.522 59 79 52
168.6249 175.0474 -51.9880 -0.019 -0.858 -0.513 54 72 50
168.9312 175.0546 -52.0114 -0.019 -0.858 -0.513 51 69 47
167.8586 170.7103 -50.0924 -0.740 -0.525 -0.420 49 67 45
169.8695 172.2490 -50.8804 0.734 -0.402 0.548 49 67 43
176.7903 170.9347 -50.7810 -0.925 -0.371 -0.086 65 85 58
177.2786 171.1711 -50.9139 -0.929 -0.356 -0.101 67 85 59
177.8937 171.5594 -51.1200 -0.890 -0.374 -0.259 69 85 58
179.9000 171.8297 -51.3682 -0.472 -0.478 -0.741 73 89 62
185.3647 175.0350 -53.0944 0.029 -0.430 0.903 72 92 67
187.3546 176.2507 -53.7436 0.637 -0.421 0.646 75 93 69
63.4856 186.7587 -50.3021 -0.754 -0.160 0.637 71 83 59
64.7591 185.0827 -49.6695 -0.795 -0.402 0.455 75 87 63
81.8129 181.8570 -49.4248 -0.279 -0.907 -0.314 55 68 48
85.9323 175.4517 -46.9574 -0.249 -0.618 -0.746 62 74 54
113.6290 178.2990 -50.0212 -0.252 -0.512 0.821 71 85 60
114.0400 178.9475 -50.3262 0.107 -0.450 0.886 68 82 56
156.7424 173.6543 -50.9050 0.674 -0.641 0.367 59 74 55
157.4725 174.3716 -51.2607 0.712 -0.617 0.335 58 73 54
158.2636 175.1819 -51.6603 0.653 -0.699 0.291 57 74 55
158.8328 175.6238 -51.8873 0.651 -0.699 0.296 62 81 61
165.8382 174.0262 -51.6702 0.674 -0.435 0.597 72 92 65
168.4834 176.0976 -52.7330 0.536 -0.591 0.603 64 84 57
168.4759 175.6557 -52.5434 0.045 -0.922 0.385 63 83 56
168.9707 175.9271 -52.6925 -0.052 -0.957 0.286 63 83 56
170.1106 175.8219 -52.7234 -0.021 -0.964 0.266 55 73 51
170.0680 175.3421 -52.5152 -0.575 -0.629 -0.523 54 72 50
169.9965 174.8258 -52.2894 -0.776 -0.624 -0.094 54 72 50
170.0665 174.5078 -52.1580 -0.781 -0.619 -0.084 51 69 47
170.4010 174.5543 -52.2002 -0.802 -0.593 -0.070 49 67 45
167.8618 170.6811 -50.3731 -0.737 -0.528 -0.422 49 67 45
167.3086 169.1476 -49.6798 0.720 -0.429 0.545 49 67 45
168.3582 170.1772 -50.1905 0.728 -0.429 0.534 49 67 43
169.9659 171.9485 -51.0557 0.735 -0.404 0.545 52 72 45
172.1897 174.5304 -52.3091 0.767 -0.441 0.466 60 80 53
175.7878 169.3211 -50.3189 -0.719 -0.442 -0.537 61 81 54
184.3459 174.1751 -52.9668 -0.090 -0.412 0.907 67 85 61
185.0878 174.3249 -53.0803 0.511 -0.634 0.581 68 86 62
186.5492 175.2930 -53.5921 0.653 -0.471 0.593 69 87 63
185.4139 173.6505 -52.8133 0.618 -0.436 0.654 70 88 64
64.6822 184.1206 -49.5606 -0.776 -0.145 0.614 68 81 55
65.7853 183.0521 -49.1741 -0.814 -0.400 0.421 73 83 59
66.3227 181.9596 -48.7394 -0.424 -0.430 0.797 72 84 60
66.6474 181.7594 -48.6748 -0.424 -0.430 0.797 66 78 56
80.9205 179.4541 -48.6356 0.124 -0.678 0.724 50 64 39
81.1205 180.1838 -48.9633 -0.601 -0.794 -0.094 45 59 36
81.7329 179.6551 -48.7765 -0.589 -0.803 -0.095 49 62 42
87.9834 177.4070 -48.2258 -0.472 -0.849 -0.237 79 87 64
110.7197 173.0182 -47.8545 0.218 -0.580 0.785 66 80 55
119.1502 172.7109 -48.2855 0.125 -0.887 0.444 60 76 47
157.1378 175.2551 -51.9200 0.305 -0.271 0.913 65 80 59
157.6868 175.6719 -52.1362 0.305 -0.273 0.912 64 79 58
158.9796 177.3102 -52.9283 0.773 -0.427 0.469 62 80 58
159.9278 177.8680 -53.2320 0.712 -0.422 0.562 62 80 58
160.6564 178.5564 -53.5771 0.694 -0.428 0.579 62 81 61
166.1028 173.5179 -51.7707 0.608 -0.411 0.679 72 92 65
169.6559 174.7366 -52.5331 -0.593 -0.614 -0.520 60 78 56
169.6064 173.8410 -52.1440 -0.712 -0.612 -0.345 54 72 50
167.6204 168.7652 -49.8249 0.681 -0.408 0.608 52 70 46
169.0405 170.2832 -50.5736 0.712 -0.422 0.562 61 79 53
182.7141 171.9057 -52.1863 0.509 -0.299 0.807 65 82 63
68.7099 179.8368 -48.2820 0.733 -0.463 -0.498 66 80 55
81.6955 179.8394 -49.1537 -0.815 -0.356 0.457 50 61 44
81.8124 181.4795 -49.8725 -0.880 -0.239 0.411 55 68 49
86.3350 177.1508 -48.2992 -0.221 -0.974 0.047 64 73 53
86.5670 177.8641 -48.6239 0.435 -0.900 -0.027 64 73 52
86.7578 179.3822 -49.2948 0.196 -0.773 -0.604 65 73 52
87.0000 180.0831 -49.6149 -0.882 -0.434 0.183 67 75 54
88.4319 173.0554 -46.6645 -0.862 -0.503 0.069 82 91 70
88.9759 172.6521 -46.5261 -0.612 -0.694 0.378 73 85 62
157.1690 174.7840 -52.0215 0.309 -0.277 0.910 70 85 64
158.8804 177.1152 -53.1468 0.697 -0.390 0.602 67 85 63
160.8188 178.2901 -53.7860 0.682 -0.438 0.585 63 80 61
169.2568 174.5656 -52.7371 -0.348 -0.895 -0.277 70 88 66
177.7616 163.3159 -48.4307 0.248 -0.493 0.834 71 86 65
62.9404 184.0830 -50.0442 -0.895 -0.445 0.030 65 79 56
63.9095 183.6037 -49.9003 -0.376 -0.812 -0.446 57 69 45
66.9419 177.9673 -47.6456 -0.610 -0.454 0.649 60 72 48
67.2814 177.6661 -47.5370 -0.610 -0.454 0.649 60 72 48
67.4517 180.4454 -48.7608 -0.165 -0.488 0.857 61 75 52
68.5496 179.2103 -48.2959 0.388 -0.610 -0.691 67 81 58
69.5923 182.0900 -49.6221 0.112 -0.595 -0.796 71 82 66
85.4804 177.3982 -48.6439 -0.239 -0.609 -0.756 48 57 40
86.3194 177.1403 -48.5878 -0.221 -0.974 0.047 56 63 47
87.0008 179.7643 -49.7783 -0.889 -0.425 0.170 67 76 57
87.3260 178.8972 -49.4219 -0.889 -0.368 0.273 77 86 67
88.1245 173.6721 -47.1963 -0.829 -0.453 -0.329 86 95 76
88.4271 172.8257 -46.8475 -0.825 -0.455 -0.335 88 97 78
89.1531 174.6521 -47.6930 -0.299 -0.745 0.596 72 85 66
89.4563 173.6227 -47.2644 -0.721 -0.641 0.262 69 82 63
96.3997 173.2465 -47.5672 0.118 -0.951 0.285 62 76 50
97.0007 174.9595 -48.3548 0.528 -0.773 0.351 48 62 36
97.2909 175.3936 -48.5637 0.528 -0.771 0.357 43 57 33
97.5712 175.5460 -48.6490 0.528 -0.771 0.357 46 58 38
155.6802 172.7711 -51.3460 0.518 -0.473 0.713 76 91 70
168.9222 174.0663 -52.8014 -0.464 -0.845 -0.266 69 87 65
168.5571 171.9279 -51.8441 -0.539 -0.424 -0.728 63 81 59
165.3611 166.0397 -49.0607 0.705 -0.417 0.574 63 81 59
62.5737 184.2980 -50.4223 -0.815 -0.562 -0.139 60 74 51
63.0898 183.4020 -50.0639 -0.814 -0.565 -0.136 59 73 50
63.5211 182.8187 -49.8369 -0.819 -0.561 -0.123 60 72 48
63.7377 183.0661 -49.9601 -0.596 -0.716 -0.364 55 67 43
67.4189 176.9762 -47.5354 -0.474 -0.831 0.290 53 67 42
69.3880 182.9625 -50.2958 0.105 -0.592 -0.799 71 82 66
75.3904 177.3678 -48.2450 -0.176 -0.487 -0.856 51 62 45
82.0251 178.9537 -49.3886 -0.544 -0.439 0.715 49 56 44
83.4275 178.7666 -49.4011 0.193 -0.915 0.354 73 79 67
83.6176 179.8011 -49.8680 0.192 -0.909 0.370 69 75 63
88.0954 173.9761 -47.6133 -0.609 -0.576 -0.545 83 92 75
88.3743 173.6975 -47.5098 -0.183 -0.656 -0.732 86 97 80
88.6737 172.8879 -47.1746 -0.542 -0.808 0.229 90 101 84
89.4176 174.3470 -47.8652 -0.290 -0.747 0.598 75 88 71
96.6910 174.2196 -48.2999 0.405 -0.797 0.448 59 73 47
96.9834 174.7916 -48.5707 0.512 -0.789 0.339 56 70 44
97.2683 175.1054 -48.7277 0.521 -0.788 0.328 55 69 44
97.7955 174.6807 -48.5768 0.168 -0.838 0.519 63 75 55
98.9533 175.8975 -49.1890 -0.943 -0.328 -0.057 60 72 52
103.5640 174.9524 -49.0852 -0.738 -0.667 -0.098 60 76 50
152.5737 173.9104 -51.9337 0.693 -0.443 0.568 60 72 52
153.3180 174.7055 -52.3329 0.712 -0.430 0.554 60 72 52
169.1191 172.2591 -52.3249 -0.522 -0.440 -0.730 63 80 61
168.2604 170.6938 -51.5800 -0.552 -0.475 -0.686 63 80 61
177.3568 162.7947 -48.7264 0.306 -0.428 0.850 57 74 58
62.1777 184.6178 -50.8461 -0.292 -0.951 -0.103 54 68 45
62.4872 184.5205 -50.8240 -0.292 -0.951 -0.103 54 68 45
67.0266 177.4003 -47.9865 -0.334 -0.569 -0.752 49 63 38
69.5234 183.5628 -50.8772 -0.642 -0.757 0.121 70 78 63
79.7931 178.9551 -49.5370 0.692 -0.633 0.347 63 72 55
97.2425 174.7332 -48.8531 0.398 -0.784 0.476 68 82 57
97.7797 174.5650 -48.8152 0.202 -0.859 0.470 69 81 61
98.1073 175.7211 -49.3479 -0.323 -0.893 0.313 69 81 61
103.9485 173.4379 -48.7347 -0.594 -0.745 -0.303 60 76 49
61.9911 184.1496 -50.9357 0.382 -0.606 -0.698 54 70 44
80.0548 178.9142 -49.8353 0.614 -0.689 0.384 58 67 50
87.4937 174.7131 -48.4733 -0.819 -0.572 -0.049 60 68 53
87.8003 173.9385 -48.1498 -0.732 -0.675 -0.094 65 73 58
88.5446 175.2971 -48.8041 -0.027 -0.531 -0.847 76 87 71
89.3448 175.6422 -49.0118 0.089 -0.519 -0.850 58 71 54
89.6042 176.0374 -49.2050 0.090 -0.525 -0.846 76 89 72
97.7663 174.5039 -49.0775 0.258 -0.832 0.491 61 73 53
98.0755 175.2779 -49.4425 -0.322 -0.922 0.215 61 73 53
98.3795 175.8695 -49.7260 -0.390 -0.904 0.174 61 73 53
111.0493 168.8907 -47.4847 0.631 -0.399 0.665 68 88 51
111.7811 169.9992 -48.0270 0.062 -0.642 0.764 70 90 55
68.4883 182.8598 -51.1108 0.606 -0.657 -0.449 62 73 56
83.8150 176.8325 -49.4594 0.399 -0.877 0.270 54 57 46
86.5123 172.9666 -47.9145 -0.740 -0.477 -0.474 51 57 43
87.5034 174.2264 -48.5453 -0.785 -0.566 -0.251 60 68 53
99.0764 173.7863 -49.1365 -0.944 -0.312 -0.106 74 86 66
99.7349 167.5537 -46.3946 -0.730 -0.629 0.267 75 87 65
100.0098 167.8310 -46.5373 -0.758 -0.610 0.232 75 87 65
100.2313 167.3593 -46.3415 -0.786 -0.508 0.353 70 82 60
82.7182 176.7169 -49.6268 -0.726 -0.459 0.512 47 53 43
83.8362 176.3768 -49.5501 0.496 -0.802 0.333 38 41 30
84.1119 176.3280 -49.5470 0.567 -0.773 0.287 35 39 26
84.4459 175.5455 -49.2178 0.694 -0.715 -0.086 41 44 33
84.6815 175.9894 -49.4336 0.710 -0.701 0.067 47 50 39
84.8977 176.7244 -49.7790 0.551 -0.823 0.135 49 52 41
99.9513 167.1273 -46.4898 -0.758 -0.599 0.259 78 90 68
84.1051 176.2017 -49.7826 0.563 -0.763 0.319 39 42 31
84.4212 175.6429 -49.5514 0.703 -0.710 -0.023 46 49 38
85.5809 174.5185 -49.1220 -0.846 -0.532 -0.038 53 55 44
85.8572 174.3922 -49.0837 -0.826 -0.559 -0.068 53 56 45
86.1191 174.4783 -49.1406 -0.787 -0.616 -0.031 51 57 45
112.1731 169.3113 -48.5870 -0.606 -0.221 0.764 60 81 48
84.4407 175.1866 -49.6367 0.473 -0.834 0.285 52 55 44
84.6768 175.6127 -49.8469 0.234 -0.914 0.333 59 62 51
85.5097 175.3045 -49.7638 -0.845 -0.526 -0.092 59 62 51
86.0548 175.2230 -49.7642 -0.168 -0.618 0.768 55 61 49
86.3034 175.5657 -49.9373 0.221 -0.367 0.903 51 57 45
112.1196 167.6777 -48.1197 -0.809 -0.066 0.584 64 83 53
110.4762 167.2471 -48.0851 -0.178 -0.344 0.922 53 70 39
112.1228 167.7096 -48.4105 -0.770 -0.050 0.636 66 82 55
164.5175 166.9104 -51.6559 0.610 -0.739 0.286 64 82 56
164.8839 167.0280 -51.7351 0.586 -0.762 0.276 64 82 56
96.6927 176.8485 -51.8315 0.616 -0.715 -0.332 55 69 43
96.9840 177.1942 -52.0109 0.619 -0.717 -0.321 55 69 43
111.9985 167.0810 -48.3886 -0.778 -0.052 0.626 55 69 43
163.9286 166.0686 -51.5126 0.664 -0.616 0.424 61 79 53
84.5014 173.7983 -49.8705 0.460 -0.883 0.097 56 64 51
111.0867 166.3774 -48.2741 0.118 -0.519 0.847 48 60 38
111.3918 166.6306 -48.4126 -0.730 -0.163 0.664 54 66 42
163.6401 165.6400 -51.5770 0.662 -0.595 0.455 71 89 63
163.8574 165.5581 -51.5541 0.629 -0.643 0.437 71 89 63
164.4974 165.6748 -51.6526 -0.601 -0.797 0.065 63 81 55
164.5883 165.4222 -51.5418 -0.893 -0.444 0.068 61 79 53
164.9714 164.4557 -51.1203 -0.893 -0.444 0.073 64 82 56
109.4480 167.3698 -48.8959 -0.788 -0.304 0.536 61 73 51
111.0339 166.1100 -48.4188 0.108 -0.520 0.847 49 61 39
111.5436 166.0869 -48.4434 -0.766 -0.087 0.637 52 64 40
111.6500 165.3063 -48.0868 -0.769 -0.080 0.634 45 57 33
162.7949 165.2050 -51.5975 0.608 -0.748 0.267 73 91 65
166.1180 168.6189 -53.4206 0.368 -0.816 0.446 86 104 78
164.8428 166.1113 -52.1626 -0.667 -0.644 -0.375 77 95 69
165.0525 165.2691 -51.7845 -0.860 -0.494 -0.128 61 79 53
165.1649 165.0492 -51.6897 -0.860 -0.494 -0.128 58 76 50
69.8832 174.2516 -49.6389 -0.369 -0.709 0.601 56 71 50
70.3867 173.1316 -49.1488 -0.375 -0.568 0.733 59 72 52
84.6119 175.3623 -51.1877 -0.222 -0.973 0.064 56 64 51
85.1396 175.5396 -51.3077 -0.773 -0.609 -0.178 59 70 54
111.5871 164.9954 -48.2071 -0.691 -0.651 0.314 41 53 29
138.8116 163.7585 -49.5266 0.199 -0.588 0.784 71 85 60
164.9697 165.8733 -52.3438 -0.671 -0.647 -0.361 94 112 86
165.0920 165.6629 -52.2536 -0.868 -0.492 0.074 86 104 78
165.0884 165.2850 -52.0761 -0.858 -0.513 -0.028 76 94 68
165.2099 165.0770 -51.9870 -0.858 -0.513 -0.028 68 86 60
165.2040 163.6121 -51.2994 -0.772 -0.464 0.433 64 82 56
69.0865 174.1993 -49.8450 -0.816 -0.576 0.053 58 77 57
69.8544 173.0911 -49.3759 -0.472 -0.855 0.217 60 77 58
70.4362 172.7952 -49.2770 -0.472 -0.855 0.217 64 77 57
84.5477 175.9651 -51.7603 -0.441 -0.825 0.355 49 57 44
85.3731 172.1270 -50.0072 -0.948 -0.277 0.156 56 67 52
97.9431 164.1744 -47.1346 -0.285 -0.834 0.473 65 81 55
111.7693 164.6395 -48.3218 -0.085 -0.996 0.021 39 52 26
133.4870 167.2960 -51.0952 0.556 -0.821 0.132 75 93 68
133.9542 167.7750 -51.3539 0.504 -0.843 0.189 75 93 67
134.3356 168.0412 -51.5062 0.518 -0.833 0.192 76 94 68
138.7251 163.0156 -49.4422 0.468 -0.458 0.755 67 81 58
162.9760 165.3921 -52.2608 0.420 -0.766 0.487 75 93 67
165.7437 168.0410 -53.7043 0.380 -0.855 0.353 97 115 90
166.4237 168.5796 -54.0061 -0.419 -0.906 0.056 105 123 97
165.0476 165.5708 -52.4901 -0.868 -0.491 0.079 107 125 99
165.0244 162.9868 -51.2693 -0.729 -0.493 0.475 63 81 55
85.4660 170.6431 -49.5937 -0.950 -0.210 0.232 55 63 51
92.5103 166.3793 -48.0646 0.686 -0.706 0.176 59 71 49
109.7219 170.7008 -51.3239 0.356 -0.755 -0.551 72 86 61
109.1177 165.4628 -48.7955 -0.242 -0.403 0.883 77 91 68
